ply
format ascii 1.0
element vertex 1181
property float x
property float y
property float z
property uchar red
property uchar green
property uchar blue
end_header
0.434342 -0.315924 0.010011 255 253 254
-0.046898 0.279252 0.027724 250 252 253
-0.063878 -0.261795 0.016091 103 108 112
-0.069559 -0.139693 -0.054710 109 123 144
-0.077662 0.168800 -0.066311 101 126 174
-0.001556 0.298188 0.003649 254 254 254
0.360533 0.300407 0.003654 253 255 254
-0.058919 0.274454 0.049401 251 253 252
-0.093255 -0.249529 -0.020299 106 104 105
0.266360 -0.314318 0.061264 253 253 252
0.111678 -0.312045 0.060202 254 254 253
-0.085926 0.114436 0.049425 124 128 128
0.335983 0.305434 0.039439 253 252 251
-0.096849 0.044069 -0.007558 112 126 146
-0.074457 -0.203455 0.026662 118 124 126
0.142312 -0.313156 0.027824 251 253 253
-0.096707 0.072124 -0.076386 122 127 128
-0.098351 -0.188019 0.038347 103 124 165
-0.080759 -0.280823 -0.027782 107 122 143
0.227849 0.294364 0.063568 254 253 254
0.282465 0.302958 -0.001868 254 255 254
-0.100908 0.029086 -0.027587 103 123 156
-0.063622 -0.257898 -0.000653 105 140 202
-0.099951 -0.124668 0.019775 104 128 167
-0.095076 -0.217595 -0.058563 104 122 155
0.328447 -0.315249 0.040996 253 255 254
0.377393 -0.323290 0.019575 254 255 254
-0.074102 -0.167335 -0.083316 124 128 127
0.421977 -0.314963 0.015645 253 255 255
0.348661 0.291866 0.008606 250 251 251
0.395240 0.302000 0.049179 252 252 252
0.326886 -0.312357 0.057582 251 251 250
0.387298 0.295713 0.000120 253 253 253
-0.101493 0.189205 -0.050873 99 122 163
0.364223 0.295762 0.052995 255 253 255
0.307629 -0.318982 0.039767 254 254 253
0.145320 -0.313722 0.020648 253 254 254
-0.096252 0.024201 -0.011665 112 116 116
-0.098377 0.052238 -0.062168 103 128 173
-0.067146 0.263067 -0.050108 104 110 113
0.172399 0.291770 0.049889 254 255 253
-0.100088 0.131594 0.038843 97 118 158
0.154718 0.301202 0.021313 254 252 253
0.100590 0.300843 0.048870 253 254 253
0.173263 -0.314419 0.019188 251 252 253
-0.101918 0.086781 0.034959 113 116 121
-0.092878 0.164585 0.050991 114 116 120
-0.078533 0.224004 -0.076686 103 123 156
-0.070425 0.150931 -0.000438 100 129 176
0.125991 0.292146 0.045776 251 252 253
-0.071768 -0.214415 -0.011362 106 115 129
-0.102662 0.071557 0.035343 117 120 124
-0.097966 0.264263 -0.029475 118 126 134
0.020290 -0.298996 0.035356 253 252 252
-0.041813 0.296350 0.018039 252 252 251
-0.054013 -0.286386 0.049232 251 252 251
-0.096309 0.248463 -0.059539 101 108 107
-0.073044 0.234701 0.044155 129 133 133
-0.068797 -0.246048 0.035861 111 141 193
0.330998 0.297721 0.008201 252 254 252
0.006068 -0.297106 0.039608 251 251 250
-0.077554 0.064283 0.039733 100 115 142
-0.068131 0.274237 0.055799 252 251 253
0.085672 -0.306661 0.002332 252 253 252
-0.100308 -0.182103 0.007514 129 132 132
-0.085578 0.129309 0.045863 118 122 123
0.248242 0.294488 -0.001468 255 255 255
-0.102166 0.084881 -0.079865 117 124 122
0.368960 -0.315526 0.061515 252 252 253
-0.097584 0.207568 -0.069814 103 126 170
0.210565 0.302175 0.024611 254 254 255
0.006133 0.297811 0.023943 251 253 252
-0.082762 -0.255233 0.050433 116 119 120
0.385596 0.293227 0.022213 253 253 253
0.125076 -0.302598 0.054790 251 252 252
-0.095802 -0.062984 0.003724 105 129 172
0.074193 -0.305542 0.042245 251 253 251
0.317474 0.301567 0.017404 254 254 254
-0.053638 -0.287149 0.035220 249 250 249
-0.099598 -0.053129 -0.027878 109 142 209
-0.073837 -0.162150 -0.075561 115 117 115
0.333864 0.294325 0.055856 252 254 253
0.008396 0.294589 -0.003572 207 208 209
0.112142 -0.301043 0.022201 252 253 251
-0.061261 0.276386 -0.009462 251 253 253
0.211751 0.302418 0.028760 253 252 254
0.209274 0.298142 0.038586 210 208 206
-0.095888 -0.194163 -0.084670 121 125 126
0.186887 -0.307775 0.007705 253 254 254
-0.089980 -0.269644 -0.012919 103 139 204
-0.075013 0.146305 0.053849 194 198 192
0.050772 0.300706 0.055118 252 253 252
0.043441 0.286001 0.013208 254 254 253
-0.071395 -0.154275 -0.018430 98 123 169
-0.042212 -0.279021 0.024120 251 252 251
0.449257 -0.321611 0.022242 253 254 254
-0.077965 0.274693 0.028693 253 254 253
0.207158 -0.320360 0.024214 251 252 252
-0.062856 0.275939 0.052411 251 252 253
0.392562 0.294080 0.012888 250 250 250
-0.073174 -0.273507 -0.001827 251 254 254
0.163646 0.303378 0.027483 253 254 254
0.273844 0.302514 0.043453 251 251 251
0.343412 -0.319121 0.011453 253 254 253
-0.072401 -0.158814 0.049984 110 114 114
-0.049598 -0.272801 0.040958 250 250 249
-0.089922 0.223954 -0.074054 118 107 111
-0.096104 -0.056344 -0.059050 119 123 125
0.033730 0.295121 0.062081 253 253 253
-0.102969 0.170194 -0.009118 104 125 164
-0.008176 -0.286708 -0.020464 250 251 252
0.353132 0.296993 0.057279 255 255 254
0.148201 -0.316052 0.025601 251 252 252
-0.058326 0.275718 0.023694 252 252 253
-0.071134 -0.119631 -0.064831 114 124 137
-0.064018 -0.250328 -0.063219 106 107 109
-0.077235 0.156449 -0.083507 105 140 208
0.118559 -0.309653 0.021469 252 251 252
-0.087422 -0.109008 0.039097 100 129 184
-0.097544 -0.198270 -0.008793 106 128 171
-0.092448 -0.237208 -0.055555 104 125 162
-0.081027 -0.211103 0.058872 102 124 162
-0.042045 0.295421 -0.009458 252 253 253
0.351448 0.301736 0.007145 254 254 252
-0.090384 -0.272926 -0.008666 103 131 179
-0.077513 -0.106169 -0.027812 99 122 166
0.047679 -0.300309 -0.021458 253 254 254
0.302608 0.289218 0.003274 254 253 255
-0.076022 -0.067481 0.010078 117 118 121
-0.070193 -0.253429 -0.009927 121 122 125
-0.094117 -0.221526 -0.026169 104 136 195
-0.069362 0.282245 -0.016524 116 119 122
-0.093554 0.269169 -0.002962 117 119 125
0.105896 -0.299589 0.060427 255 255 255
0.043441 -0.297037 0.021257 249 251 251
0.020009 -0.288308 0.054493 251 251 250
-0.071124 -0.168114 0.040056 109 116 120
-0.075252 0.065799 0.038315 107 142 208
0.084558 0.300329 0.009148 251 252 252
-0.085493 -0.060917 -0.058313 102 138 199
-0.087013 0.015382 0.005149 102 111 127
0.403536 -0.322646 0.042538 254 254 253
-0.072057 -0.167546 0.007327 103 135 194
-0.097123 0.103352 0.001423 99 130 189
-0.099721 -0.084561 0.020464 111 111 112
0.350420 0.295277 0.054967 255 255 255
0.282430 -0.312152 0.032826 253 252 251
0.183024 0.295984 -0.000311 251 253 252
-0.075000 -0.071586 -0.020227 103 126 164
0.345870 -0.313132 0.021068 252 252 252
-0.089315 -0.253119 0.049850 119 121 123
-0.038029 0.292362 -0.016637 253 254 254
-0.072707 -0.273875 0.006564 253 253 253
-0.099119 0.181914 -0.008340 105 124 157
-0.097236 0.027654 0.030638 110 144 206
0.163011 -0.313428 0.044150 254 254 254
-0.099551 0.248141 -0.060811 108 134 181
-0.099416 0.134912 -0.084053 106 123 150
-0.069256 -0.247068 -0.053836 116 124 132
0.084983 0.291357 0.045688 252 254 254
-0.089238 0.238662 -0.067928 117 106 107
-0.076564 0.157739 -0.088559 111 110 112
-0.095444 -0.071691 -0.059665 107 139 202
0.160152 -0.304795 0.024318 253 253 253
0.050486 0.297139 -0.012755 204 203 202
0.357560 0.295856 0.005462 253 254 252
-0.076021 0.042326 -0.053084 116 118 120
-0.080060 0.118909 -0.049978 102 140 210
0.257878 0.293943 0.009511 250 252 251
0.181867 -0.308526 -0.012250 251 253 252
0.334334 -0.314228 -0.004727 252 253 251
-0.070124 -0.232413 -0.064266 117 117 115
-0.090851 -0.268539 -0.003108 126 132 134
0.108184 -0.308872 0.035272 207 207 204
-0.078745 -0.204191 -0.082038 118 122 125
-0.098307 -0.093380 0.012306 104 134 190
-0.065084 0.262193 0.019290 111 110 111
-0.094401 0.230825 0.001906 98 118 153
-0.025365 -0.291758 0.036741 252 252 253
-0.048404 -0.276950 -0.006635 252 252 251
-0.015132 0.287132 0.042354 254 254 254
-0.104774 0.153203 -0.088350 112 138 184
0.022143 -0.290791 0.053718 253 253 253
0.108609 0.301352 0.031739 252 253 252
-0.097612 -0.209997 0.039829 106 126 161
0.309135 -0.318642 0.006427 252 253 252
-0.034134 0.282715 -0.017881 252 252 252
-0.093698 -0.218074 0.048939 115 124 134
0.146359 -0.311286 0.006177 253 254 253
-0.001145 0.286462 -0.011391 253 254 252
0.207729 0.293083 -0.004559 253 254 253
-0.097185 0.158975 0.024814 108 139 193
0.383068 0.295219 0.027855 253 253 252
0.138613 -0.303632 -0.006463 252 254 252
0.193251 0.295488 0.063694 253 253 253
-0.073755 0.070303 -0.068594 107 135 186
-0.076305 0.072750 0.031719 97 122 171
0.255633 0.303519 0.001938 254 253 253
-0.063484 -0.257015 0.031536 105 126 165
-0.099740 -0.042885 0.017275 119 121 123
-0.090234 0.268830 -0.058132 108 133 180
0.304817 -0.317124 -0.002841 252 253 253
-0.073364 -0.074664 -0.030728 106 139 202
-0.029698 -0.293200 0.021091 251 251 252
0.212894 0.295406 0.038665 252 252 254
0.086656 -0.297382 -0.008308 253 253 252
-0.080631 -0.141173 -0.085045 104 141 213
-0.092391 -0.266078 -0.010105 108 137 191
0.022065 -0.300152 -0.005439 251 251 251
-0.100800 0.166775 -0.044971 106 135 186
0.268054 -0.316405 -0.001707 255 255 255
-0.099948 0.222798 0.033149 110 111 116
-0.071214 0.253803 -0.050061 118 123 126
-0.070570 -0.216029 0.015802 107 142 209
0.064784 0.290751 0.037093 251 251 253
-0.071395 0.285412 0.040834 252 251 252
-0.073831 0.128972 0.026055 110 113 112
-0.002035 -0.285620 0.056451 254 254 254
-0.072253 -0.281239 -0.019574 251 252 253
-0.077000 0.207318 -0.039437 122 124 124
0.010427 -0.288731 0.041219 248 248 248
-0.074983 -0.232157 0.060442 124 126 128
0.107273 0.293709 -0.019956 251 251 252
-0.085835 -0.089958 0.038414 115 127 145
0.049965 -0.302778 -0.004885 251 251 250
0.000769 -0.287575 0.032341 251 253 253
-0.074265 -0.123302 -0.080721 121 125 124
-0.076638 0.126796 0.036312 99 132 190
-0.092027 -0.265725 0.040302 111 115 118
0.014224 -0.298648 0.031992 250 251 251
-0.080474 -0.278590 -0.024744 98 122 167
0.244553 0.292909 -0.005934 253 254 253
0.090016 -0.296736 0.023357 252 252 252
-0.092809 -0.249489 -0.062658 116 119 118
0.155258 -0.311811 0.001088 253 254 252
-0.029697 -0.280880 0.028679 251 251 251
-0.091174 0.036500 -0.047206 102 122 159
-0.083873 -0.054145 -0.055813 122 126 134
-0.074312 -0.166585 -0.061798 111 113 113
0.088830 -0.297362 0.017356 252 254 254
0.299127 0.300508 0.007155 253 253 253
-0.046858 0.296732 -0.019930 254 253 254
-0.097721 0.216903 -0.019154 97 118 158
-0.078760 -0.282329 -0.013408 102 133 188
-0.079693 -0.245274 0.054163 124 151 201
-0.093550 0.172832 0.053101 100 119 156
-0.069281 0.200935 0.047814 104 107 108
-0.087898 -0.049997 0.025137 103 141 209
-0.080518 0.060582 -0.015242 106 120 148
-0.098071 0.092205 0.013936 103 128 175
-0.099042 -0.204737 -0.001357 123 130 134
-0.091779 -0.233946 -0.074571 121 123 125
0.244908 -0.316468 0.026628 254 254 253
-0.067074 -0.239761 -0.057787 104 108 111
-0.073538 -0.073328 0.022583 114 132 160
0.393711 -0.315222 0.006213 253 254 253
-0.081940 -0.147480 -0.086356 105 111 110
-0.063222 0.279641 0.028185 252 253 252
-0.075423 -0.161632 -0.032346 101 130 185
0.027688 -0.300755 0.042490 252 253 253
-0.097733 -0.155776 0.045302 115 119 118
-0.099881 0.070594 -0.076396 108 117 130
-0.099581 -0.136772 0.009037 98 118 158
-0.081099 -0.120091 -0.084648 113 119 126
0.239094 -0.310239 0.003427 253 253 254
-0.099950 0.144409 0.033626 113 119 123
-0.096193 -0.226961 0.030871 98 125 174
-0.095556 0.047769 -0.061185 105 127 164
-0.085182 0.151815 0.051276 125 129 128
-0.098058 0.193879 -0.082177 118 117 118
-0.079128 0.123289 -0.013965 100 116 142
-0.074716 -0.142861 0.031062 112 113 114
-0.070670 0.252072 0.024240 116 118 123
-0.072071 -0.103497 -0.060397 120 122 120
-0.084836 -0.167601 0.055258 118 123 125
0.268847 0.294739 0.056515 254 255 254
0.157220 -0.313675 0.046280 252 254 253
-0.075892 -0.091218 -0.072971 104 136 193
-0.043280 0.296315 0.048831 251 252 252
0.023765 0.286759 0.061836 253 254 253
-0.084331 0.236038 -0.070171 102 124 160
-0.098973 0.213356 -0.066691 102 135 197
0.076347 -0.308473 0.061543 254 255 255
-0.096459 0.220979 0.041985 102 139 204
-0.098507 0.097445 -0.066508 105 127 170
-0.069644 -0.234555 -0.020494 101 114 136
-0.081171 -0.181427 0.051982 118 123 130
0.183571 0.293826 0.065033 251 252 254
-0.095560 -0.248780 -0.028369 99 129 184
-0.094935 -0.246317 0.039323 107 142 205
-0.079526 0.284508 -0.020911 112 115 118
-0.012808 0.291312 0.008701 196 195 195
-0.099489 0.091432 0.006981 117 125 133
0.035550 0.289062 0.001578 254 254 252
0.369598 -0.320243 0.017741 253 254 253
0.125145 -0.301744 -0.016110 251 254 253
0.047611 -0.290882 0.064567 254 253 255
0.090580 0.291785 0.021123 253 255 252
-0.079354 -0.227201 -0.075596 116 131 162
0.195983 0.290592 0.016621 251 251 251
0.241123 0.293108 -0.001300 253 254 254
0.164103 0.292851 0.062257 253 254 252
0.057122 -0.298029 -0.021169 252 254 252
-0.093469 -0.138223 0.049911 114 123 128
0.025304 -0.301659 -0.021916 253 253 252
0.136874 0.290016 -0.011214 252 254 254
0.317059 -0.314880 0.046042 254 255 254
-0.052989 -0.293557 -0.015464 251 251 250
0.008623 0.298282 0.008714 254 254 254
0.225207 0.295064 0.044632 252 253 253
-0.073756 0.081128 -0.077738 115 116 116
-0.078850 0.258262 -0.064379 105 126 159
0.113041 -0.309718 0.029273 251 252 252
-0.074535 -0.094806 -0.021203 120 125 124
-0.077267 -0.057724 0.010080 99 134 196
-0.072711 -0.154322 0.050831 102 123 163
-0.080843 -0.261897 0.039510 108 126 159
0.235298 -0.307815 0.011967 251 251 251
-0.077569 -0.176680 -0.002702 107 140 199
0.097928 -0.298338 -0.000699 252 253 254
-0.055961 0.274632 -0.004308 252 253 251
0.070783 0.300635 -0.011867 251 251 252
-0.074977 -0.145771 -0.062168 100 121 159
0.050584 0.299008 0.017376 251 252 252
0.000978 0.284302 -0.016688 251 251 252
-0.002086 0.291894 -0.011365 252 254 253
-0.024577 0.286488 0.003901 253 254 254
-0.097622 0.183141 -0.006317 108 134 175
-0.072862 -0.108346 -0.069551 106 134 189
0.035453 0.285467 0.003205 253 253 253
-0.055945 0.283525 0.004662 251 252 251
-0.066180 -0.254529 0.034475 108 139 193
-0.067830 0.283860 0.043869 252 252 251
-0.098216 -0.122842 -0.033264 115 117 118
-0.091851 -0.268494 -0.029856 102 131 181
-0.094892 0.227167 0.044537 113 116 118
-0.074547 0.173786 -0.075352 106 113 121
-0.067193 0.278765 -0.007726 253 254 254
-0.067779 0.271277 -0.001762 253 253 252
0.037109 -0.300891 0.009322 208 211 210
-0.078079 -0.107919 -0.049458 111 144 205
0.098027 0.298288 0.064902 252 254 254
-0.093412 0.106343 -0.086375 108 130 165
-0.067987 0.288511 0.032591 252 253 253
0.066155 -0.297214 0.062825 253 254 254
-0.076990 -0.284437 0.032029 252 253 252
-0.098224 0.052683 -0.053077 105 137 198
0.038434 0.294247 0.052677 199 199 194
-0.078667 -0.271776 0.027989 117 151 213
0.403548 0.301422 0.040118 253 252 252
0.303251 0.299938 0.006963 251 253 252
0.226495 0.302213 0.030188 253 254 253
0.265022 -0.322061 0.032232 252 253 254
-0.075949 0.037356 -0.040891 101 136 199
-0.078509 0.167581 -0.092164 117 137 168
-0.102022 0.046392 -0.022093 105 127 165
-0.095595 -0.203806 -0.060377 125 128 129
-0.035655 0.284931 0.012468 252 251 252
-0.075079 0.054722 -0.042322 102 128 180
0.205780 0.290427 -0.001978 252 252 252
-0.068157 0.273520 0.036684 249 249 250
-0.074974 0.233286 0.040253 99 128 181
0.407828 0.295965 0.008181 253 252 252
-0.081359 0.080220 -0.031718 98 129 184
0.221036 0.293245 0.027811 253 254 253
-0.072047 -0.176916 -0.020375 99 121 167
-0.071353 -0.222544 -0.075050 114 115 116
-0.092470 -0.138589 0.042733 120 120 122
-0.099379 0.197389 -0.055376 123 125 125
0.305471 -0.319189 0.054776 255 255 252
0.201159 -0.314918 0.013352 253 253 253
-0.018765 0.297005 0.059591 246 245 245
-0.094220 -0.060695 0.032945 112 116 122
0.448656 -0.319975 0.001042 251 252 251
-0.065763 -0.271951 -0.015341 122 125 129
-0.075622 -0.074383 0.020423 132 137 139
-0.076716 0.147164 0.042142 115 115 118
0.266829 -0.320088 0.057416 255 255 255
0.380203 -0.324540 0.024997 252 253 253
-0.100249 0.136385 -0.031352 103 136 197
-0.095204 0.142985 -0.088539 98 116 146
-0.078330 0.143793 0.022515 98 121 163
-0.072519 0.241383 0.041632 99 133 197
-0.079948 -0.175253 0.052048 94 120 175
-0.098397 0.217402 -0.032645 117 130 148
0.223006 -0.315701 0.005756 254 255 254
0.257462 0.294272 0.060044 252 253 253
0.335623 0.302222 0.004632 253 252 253
-0.098119 0.040648 -0.035944 100 132 190
0.315734 0.298922 0.056513 255 255 255
-0.029775 -0.293174 -0.016307 251 252 253
0.166909 0.292771 0.030096 253 254 253
-0.072412 -0.137777 0.045429 110 113 116
-0.092892 0.182478 0.050919 111 116 124
0.293717 -0.316330 0.062341 254 254 255
0.067810 0.300176 -0.006203 251 252 252
0.004001 0.297649 0.032707 250 251 252
-0.070283 0.179429 0.051810 116 120 122
-0.025053 -0.280003 -0.020936 194 197 195
-0.076668 -0.101517 -0.069232 132 137 138
0.073544 0.290096 0.055375 251 252 254
-0.099837 0.059259 -0.053490 124 129 132
-0.078264 0.082746 -0.014619 103 138 204
0.126634 0.290887 0.038757 253 254 253
0.064794 -0.303248 0.005809 253 254 253
-0.026322 -0.287413 -0.026349 250 251 252
0.037541 0.288236 0.002407 251 252 251
-0.068939 -0.243196 0.032976 105 112 116
0.005252 0.296802 0.029900 253 255 254
0.042615 0.283617 -0.000426 255 255 253
-0.100111 -0.091588 0.008500 105 131 179
-0.097180 0.216361 -0.067344 114 117 117
0.087592 0.300272 0.043101 251 253 251
-0.101078 0.047736 0.035136 114 119 119
-0.002260 -0.287428 0.031635 248 249 248
-0.071974 -0.178449 -0.048356 103 145 214
0.084455 0.290923 0.004433 252 254 252
0.337914 -0.320620 0.045190 252 253 253
-0.065462 0.285763 0.059049 251 252 252
0.085620 -0.303796 0.058772 253 254 253
-0.078391 -0.055732 -0.054615 110 133 175
0.024984 0.298968 -0.007605 252 252 252
-0.073345 -0.143076 -0.011493 98 131 190
0.106074 -0.301235 0.060275 250 251 252
0.111304 0.302474 0.005203 252 252 252
-0.072625 -0.134577 0.036924 114 119 121
-0.095155 -0.232913 -0.068496 107 123 149
0.282642 -0.318361 0.041230 253 254 253
-0.074666 -0.124204 0.045181 117 117 120
-0.098130 0.109768 -0.067816 111 117 121
-0.023989 0.298594 0.023232 249 250 249
0.027793 0.298168 0.009057 252 252 253
0.273154 0.294020 0.026121 252 253 253
-0.027735 -0.283012 -0.007135 253 254 252
-0.089962 -0.278237 0.005298 106 120 129
-0.103001 0.152368 0.025500 105 134 189
-0.021354 -0.293416 0.005224 251 253 254
-0.043035 0.296271 0.047498 253 253 253
0.094553 -0.302884 -0.024845 253 252 253
-0.056751 -0.290637 -0.020533 253 255 255
-0.067868 -0.254049 -0.067848 123 130 133
-0.097434 -0.131589 -0.083275 105 128 167
0.045366 -0.302187 0.059242 253 253 254
-0.099301 0.172755 0.013049 99 133 194
-0.100243 -0.169152 -0.050633 112 115 116
0.047586 0.293216 0.062793 252 253 253
0.128387 -0.311360 0.040715 250 252 251
0.330950 0.295220 0.050410 253 254 254
0.155279 -0.305452 0.040083 252 253 252
0.109575 0.292043 0.051981 253 253 254
-0.090223 -0.270934 -0.014970 106 141 205
-0.101192 0.110512 0.041330 102 129 178
0.271584 -0.315572 -0.002274 250 251 251
0.000298 -0.294065 -0.019024 248 249 251
-0.081358 -0.246562 -0.069406 111 114 114
0.016439 -0.287249 0.004552 249 250 250
-0.074332 0.271808 0.000198 250 250 252
-0.099639 -0.191329 0.056298 105 130 173
-0.052386 0.281233 0.038887 249 250 249
-0.098377 0.098079 0.026883 102 125 172
-0.076336 -0.175942 -0.080166 107 146 219
-0.100155 -0.210112 -0.080759 122 125 127
0.104840 0.289266 0.006708 252 253 252
0.130039 -0.311666 0.038222 253 255 255
-0.076573 0.093050 -0.081193 119 121 121
-0.074025 -0.052883 -0.055731 116 124 125
0.400539 -0.323250 0.051801 255 255 254
0.054755 0.289542 -0.007203 254 254 253
0.093709 0.289433 -0.015233 254 253 252
0.043556 -0.298092 0.061699 253 254 253
-0.066464 -0.276578 -0.001289 250 252 252
-0.075687 -0.169011 -0.001249 112 117 123
-0.077458 -0.065120 -0.056056 104 134 192
0.236534 -0.317125 0.054328 253 254 252
0.023675 -0.293278 0.060122 251 253 253
-0.078966 0.277608 -0.021042 251 251 252
-0.074233 -0.081681 -0.071325 109 142 202
-0.100422 0.117380 -0.040373 119 127 138
-0.030009 -0.287400 -0.029564 254 255 255
-0.074443 0.151722 -0.037120 98 128 186
-0.100866 -0.183009 0.024253 106 138 196
-0.071611 -0.156571 -0.049534 113 117 118
0.182919 0.293756 0.036809 253 252 253
-0.083394 -0.047696 -0.009975 102 137 199
0.383990 -0.314534 0.018136 252 253 252
-0.045986 -0.290370 -0.021352 254 253 252
0.179393 0.291892 0.021071 252 255 253
-0.097084 0.158814 -0.052981 100 126 169
0.196561 -0.307541 -0.013724 253 255 253
-0.077641 -0.276969 0.006325 249 249 249
0.033763 -0.291448 0.053127 252 252 252
-0.029878 0.285242 0.048399 253 253 253
0.430310 -0.311767 -0.013120 254 254 254
-0.025285 0.280195 0.030142 251 251 253
0.083910 -0.296848 0.004327 252 253 253
0.349605 -0.318564 -0.003589 253 252 252
0.101620 -0.298407 -0.018845 251 253 252
-0.097950 -0.168863 -0.007366 100 119 153
-0.009758 -0.294790 0.050569 254 254 253
0.047725 -0.293664 -0.002922 250 251 251
-0.070243 0.250159 0.016018 130 144 162
-0.087065 0.078040 -0.080291 110 111 113
0.349432 0.294958 0.043385 253 255 254
-0.076680 0.279245 -0.041773 111 113 115
0.073731 0.299685 0.015522 249 250 249
-0.089443 0.184877 0.054192 115 120 127
-0.073679 -0.170492 -0.042376 103 142 212
-0.060844 0.292626 0.001594 253 253 252
0.118397 0.302393 -0.012783 253 253 251
0.285292 0.293197 0.035865 252 253 254
-0.088823 0.213055 0.051551 124 133 144
-0.070575 -0.215525 0.043300 99 125 178
-0.099225 -0.058140 -0.056338 115 120 120
0.036933 0.299658 -0.013299 251 252 252
-0.103326 0.126062 -0.052325 96 115 154
0.369875 0.297381 0.057684 252 252 254
0.125590 -0.302451 0.045003 252 253 252
-0.062233 -0.264236 0.030539 126 131 128
-0.075870 0.103511 0.001423 109 137 190
-0.081794 -0.091905 -0.081755 122 126 125
-0.095674 -0.225157 0.008273 107 117 127
-0.079016 -0.271725 0.043002 120 146 191
-0.090392 0.190615 0.052939 105 134 192
-0.074211 -0.128980 -0.003411 108 131 175
-0.059357 0.274357 0.026390 252 252 252
-0.097340 -0.147327 0.046421 115 117 120
-0.083423 0.256983 -0.063213 112 114 111
-0.102652 -0.116710 0.013794 107 125 158
-0.002985 -0.294471 0.057966 253 255 254
-0.080504 0.081071 -0.066507 102 126 167
0.202209 0.307000 0.002070 253 254 254
-0.078443 -0.084847 -0.005582 101 134 198
-0.061216 -0.269351 0.049723 251 251 251
-0.077510 -0.043330 0.025154 112 109 111
-0.099252 -0.046220 0.009389 102 135 195
0.326457 0.294093 -0.006312 254 255 253
0.320172 -0.324144 0.059532 254 255 255
0.120089 -0.310617 0.012405 254 253 254
0.029980 -0.300664 0.050857 251 253 251
-0.077209 0.064841 -0.008608 107 129 172
-0.078599 -0.066812 -0.041980 103 136 199
0.089214 0.300761 -0.006953 252 252 252
-0.074267 -0.215771 0.058489 108 114 112
-0.095307 -0.258363 -0.032793 124 128 127
-0.098672 0.203179 0.050097 92 113 158
-0.073232 0.250380 0.002935 119 122 125
-0.096566 0.210247 0.040052 105 141 207
-0.011166 -0.285801 0.035872 203 204 206
0.249517 0.302651 0.020858 252 253 254
-0.071521 0.170426 -0.085566 114 115 117
0.388420 -0.324591 0.040286 254 253 253
0.029994 0.297105 0.057206 206 206 206
-0.003094 0.298183 0.014735 253 253 252
0.420889 0.290911 0.012352 253 252 254
-0.071755 0.178569 0.053234 99 134 198
0.182071 -0.303749 0.061293 251 252 253
-0.097559 -0.188683 -0.082116 108 113 117
-0.080541 0.193035 0.056507 110 105 107
-0.071981 -0.171955 0.041901 113 119 127
-0.095983 -0.235405 0.009096 102 133 193
-0.076646 -0.058255 0.002227 107 139 196
0.026093 0.299272 0.049150 252 252 253
-0.098844 -0.067513 -0.034313 120 134 143
-0.100813 -0.132240 0.041720 112 116 118
0.246272 -0.308332 0.021820 253 254 253
0.183355 -0.316137 0.037575 253 253 251
-0.078358 -0.212570 -0.078647 114 115 115
-0.014548 0.284204 -0.014332 250 251 251
0.387210 -0.320242 -0.001898 253 254 254
0.019412 -0.300679 0.019827 252 254 254
-0.075202 0.090822 0.045749 116 119 117
0.321145 -0.320132 0.034155 255 255 252
0.208799 -0.313145 0.063583 253 254 252
-0.096938 -0.211580 -0.051990 102 143 212
-0.098202 -0.074589 -0.071582 123 125 125
0.200966 0.302411 -0.001218 253 252 253
0.109627 0.295633 0.064311 252 253 253
0.133874 -0.310106 0.060193 252 253 253
0.044176 -0.299343 0.047792 199 199 198
-0.099942 -0.078219 -0.071768 121 120 122
-0.000662 0.293928 0.049288 250 251 251
-0.041301 0.284984 -0.006659 253 254 252
0.433593 -0.323251 0.045928 253 252 252
0.029117 -0.291672 0.041456 252 252 251
-0.054785 -0.283316 -0.016216 253 254 253
-0.075644 -0.098517 -0.070267 117 118 117
0.237638 0.294499 0.059487 254 253 253
-0.015764 0.289287 0.026911 253 254 252
0.208861 -0.308372 0.001959 254 255 254
-0.097826 0.064216 -0.012018 104 139 202
-0.075740 -0.071873 -0.038781 121 122 121
-0.094682 -0.276232 -0.016123 101 126 171
0.198307 -0.315935 0.040701 252 252 252
0.302753 -0.313152 0.038446 253 252 254
0.250441 0.292811 -0.006843 252 254 253
-0.074017 -0.176530 -0.061422 104 143 210
-0.068923 0.268889 -0.025357 114 117 124
-0.076918 0.092431 0.041793 111 111 113
-0.086731 0.173298 0.053292 115 119 121
-0.078694 0.035507 -0.006558 110 115 123
-0.002258 -0.285796 -0.018467 250 250 250
-0.095732 -0.183189 -0.061499 120 123 124
-0.073811 0.200913 -0.001452 105 129 174
-0.084661 0.076137 -0.079011 113 119 119
0.249510 -0.317453 0.034798 254 254 252
-0.101924 0.129945 -0.023948 105 141 208
0.028673 0.297536 0.021901 252 254 252
-0.073284 0.169995 0.035072 97 131 194
-0.084975 -0.041860 0.021326 106 130 169
0.196158 0.302290 0.046783 252 253 253
-0.076858 0.041655 0.030784 121 128 132
-0.094518 -0.261709 -0.055340 117 120 120
-0.100695 0.139703 -0.006470 118 133 154
-0.096416 -0.180029 -0.064747 119 123 122
0.401025 -0.316080 0.016469 254 255 253
-0.075767 -0.107586 -0.058166 101 136 200
-0.066224 -0.286507 -0.023514 253 254 254
-0.002049 0.286116 -0.004577 254 254 254
-0.078071 0.037928 -0.031065 109 109 110
-0.024419 0.296137 0.045702 251 252 252
-0.091740 0.109878 -0.090307 105 108 110
-0.050649 0.280609 0.058759 250 251 252
0.078804 -0.307154 0.054545 252 253 254
0.197555 -0.307669 0.047182 253 253 252
0.380987 0.295981 0.004611 252 254 252
-0.083799 0.015118 0.010130 110 117 116
0.038061 -0.301856 -0.006600 250 251 251
0.188110 -0.309676 -0.000464 254 254 253
-0.099660 0.193905 -0.079120 119 109 112
-0.092312 0.254185 0.010204 101 133 194
-0.094181 0.133021 -0.091450 124 129 130
0.073274 -0.302982 0.061287 252 254 253
0.050138 -0.298546 0.062399 253 255 255
0.011159 0.286998 0.001583 252 254 252
0.129748 0.288047 0.004547 253 255 254
-0.094279 -0.254882 -0.046387 106 114 124
-0.099596 -0.115194 -0.079605 134 146 161
-0.071806 -0.043540 -0.005366 109 114 118
-0.083412 0.158919 -0.084888 117 116 118
0.078392 -0.305669 -0.021426 249 250 250
0.258621 0.290460 0.044670 252 252 253
0.286910 -0.318891 0.049782 254 254 254
-0.101081 0.146628 -0.078833 104 137 197
0.400864 0.294880 0.035160 253 254 253
-0.095094 -0.158599 0.050406 105 114 130
0.296252 -0.312894 0.016464 253 253 254
-0.071525 0.233823 0.040003 109 110 111
-0.100281 0.142101 0.021263 100 114 138
-0.080329 0.280372 -0.028234 114 119 120
0.006555 0.300508 0.006595 250 252 251
-0.097957 0.216031 -0.001348 98 119 164
-0.067410 0.291401 0.056688 248 249 250
0.236066 0.294791 0.051042 252 252 253
0.401589 -0.322816 0.003248 254 255 254
0.099009 -0.297463 -0.019607 254 254 252
-0.099948 0.101215 -0.073016 97 120 166
0.321732 0.302265 0.039316 254 254 254
0.436720 -0.315935 -0.001725 255 254 254
0.320754 -0.319455 0.029344 255 255 254
-0.049456 -0.277798 0.029195 252 254 253
0.130678 -0.311220 0.028554 254 254 254
-0.071228 0.197597 -0.000104 100 129 179
0.010506 0.287144 0.058334 253 254 254
-0.099928 -0.064533 -0.020445 116 124 129
0.247952 -0.317076 -0.000982 253 255 253
0.115221 -0.300130 0.051169 210 211 211
-0.103247 0.109360 -0.030843 102 122 154
-0.069287 0.248186 -0.017975 125 138 153
-0.076097 -0.250069 -0.068685 114 116 117
-0.075845 0.202254 0.006345 107 112 117
-0.066621 -0.249458 -0.025977 130 140 152
0.336307 -0.313147 0.015515 252 253 253
-0.091821 -0.245303 0.030539 99 122 167
-0.076898 -0.273126 0.055337 251 252 251
-0.052753 -0.273674 0.041014 253 253 254
-0.103815 0.136122 -0.065760 115 117 120
0.142093 0.290148 0.063078 251 252 253
-0.075957 0.153097 0.031756 111 116 117
-0.069836 0.261284 0.027549 105 123 152
-0.087439 -0.131653 0.043238 114 117 119
0.127291 -0.311598 0.055571 250 251 252
-0.102381 -0.173216 -0.004218 116 122 124
0.077064 0.301017 -0.009768 252 252 252
-0.032676 -0.279704 0.027074 253 254 253
-0.078775 -0.275099 0.030531 251 251 251
0.381906 0.300944 0.051033 255 255 253
-0.093746 0.236251 0.046026 114 108 112
-0.104961 0.119187 0.038331 98 123 169
-0.095827 -0.104434 -0.041973 109 111 112
0.281964 -0.318615 0.052090 252 253 254
0.196335 0.293981 0.017745 254 252 253
-0.091039 0.063358 -0.069296 104 138 195
-0.076101 0.198567 -0.071937 113 117 124
0.124875 0.292077 0.004233 252 252 253
0.241282 -0.317436 -0.006704 252 252 254
-0.101339 -0.193880 0.006621 114 119 123
0.003537 -0.297629 0.038368 213 216 213
-0.091206 0.255581 -0.026434 125 132 137
0.087890 -0.299707 -0.017360 252 254 253
0.021961 0.301004 0.000266 249 251 251
-0.082237 0.199674 -0.082434 114 120 122
-0.080439 0.113160 0.043025 105 111 112
-0.101427 -0.044483 0.026994 113 116 119
-0.032555 0.278819 -0.017315 253 253 253
-0.099664 0.229573 0.000467 116 119 123
-0.092407 -0.228821 0.046265 110 117 129
0.187523 -0.314014 -0.017336 254 254 253
0.296508 0.294842 -0.006031 251 252 252
-0.075836 -0.100711 0.028811 125 136 148
-0.078259 -0.256100 0.053107 128 130 130
-0.075675 -0.101176 -0.041261 100 126 172
-0.062583 -0.291812 -0.003990 250 250 253
0.236531 -0.310745 0.053709 253 254 253
-0.071062 -0.171236 0.050153 107 123 154
-0.097975 0.081253 0.014546 104 130 177
0.225736 0.292732 0.009564 253 252 253
-0.072529 -0.065496 -0.048174 117 120 121
-0.070676 0.261505 0.007773 123 127 131
-0.073959 0.150514 -0.014423 107 127 164
-0.076691 -0.040178 0.007079 116 117 117
0.148704 -0.305535 0.061405 254 255 253
-0.092632 -0.146245 0.041775 95 120 169
0.212448 -0.308703 0.032140 252 253 253
-0.076256 0.125716 0.029535 99 124 171
-0.058086 -0.276868 -0.016298 252 254 253
0.354090 -0.322103 0.042040 252 253 253
0.389739 0.295272 0.038160 252 253 252
-0.069710 -0.139532 0.049370 138 145 148
0.147482 -0.304222 0.028317 253 253 252
-0.052895 0.282608 0.052092 253 253 254
-0.066042 0.255793 0.051114 120 127 130
0.181157 -0.316749 -0.007319 252 254 251
-0.095495 -0.167302 -0.075845 101 135 195
-0.076196 -0.123835 -0.060846 104 138 203
0.102612 0.292705 0.053862 253 255 253
-0.006360 -0.296137 -0.004866 253 253 252
-0.066431 -0.254821 0.044308 107 132 181
-0.074416 -0.157449 -0.080693 126 130 132
-0.070719 0.228147 0.055424 125 129 128
0.019705 -0.289246 -0.018022 253 254 255
0.003671 0.300438 0.016469 251 250 252
0.256924 0.302518 0.032168 252 251 253
-0.065768 0.278632 -0.010981 110 116 120
-0.100563 0.049028 -0.049536 118 119 117
-0.097287 0.064008 0.030989 100 121 162
-0.087378 0.253030 0.051427 115 113 116
-0.067150 -0.254691 -0.031962 102 139 207
-0.096763 0.167823 0.009561 110 146 212
-0.073819 0.249776 0.004011 116 115 118
-0.018851 0.298261 0.002935 254 254 253
-0.053360 -0.286413 0.035083 252 254 252
0.077144 -0.297005 0.009238 252 253 252
0.307979 -0.314305 -0.002650 253 254 252
-0.076385 -0.055040 -0.052683 105 122 149
0.169772 0.292969 0.006698 252 252 252
0.010664 -0.300804 0.053891 251 252 252
-0.069048 -0.207194 -0.072490 106 146 221
0.125925 -0.309980 0.005794 250 251 250
-0.044262 0.290082 0.061062 252 252 253
0.372009 0.301646 0.038499 251 252 252
-0.100478 0.091197 0.035433 103 132 187
0.225809 -0.309967 -0.007572 254 254 255
-0.100284 -0.100098 -0.043257 102 128 178
-0.077421 -0.104457 -0.082641 121 126 126
-0.078425 0.194697 0.059335 113 119 133
0.170884 0.301712 0.008333 253 253 252
-0.036112 0.284374 0.042952 252 253 253
-0.070085 0.221044 0.030122 105 113 127
-0.100470 -0.187659 -0.075477 114 114 116
0.112224 -0.310932 0.026041 251 251 250
-0.071576 0.233690 0.051269 113 117 118
-0.065890 -0.261627 -0.019841 128 131 129
-0.077992 0.152500 0.022323 109 117 115
0.081139 0.289963 0.045680 253 255 254
-0.096316 -0.228502 -0.022971 116 124 133
0.262187 0.305558 0.051407 252 253 253
0.054610 -0.301708 0.012799 204 203 200
-0.071758 0.145368 -0.003222 99 138 205
0.332463 0.294876 0.036485 255 255 254
-0.071705 -0.209076 -0.012860 99 126 175
0.028973 -0.293330 -0.001883 192 193 191
-0.092495 0.270851 -0.019716 111 115 116
0.096803 -0.298755 0.057133 252 252 251
-0.078139 0.140781 0.029827 95 124 183
0.081568 0.298625 0.000648 202 204 201
-0.071051 0.281573 -0.037785 101 107 109
-0.096323 -0.053149 0.001297 109 144 209
-0.085644 0.127041 -0.088195 112 120 123
0.048687 0.289630 0.002899 251 253 253
-0.096178 -0.170560 -0.065606 118 123 121
-0.074390 0.164098 0.033191 99 115 149
-0.079509 -0.195704 -0.082817 123 127 126
0.064522 0.298898 0.050213 193 193 192
-0.075866 0.118080 0.036512 97 124 177
0.194961 0.298262 0.003946 253 253 253
0.433080 0.301499 0.052893 253 254 253
-0.098290 -0.165156 0.042661 102 134 196
-0.103422 0.040437 0.017660 109 130 164
-0.073347 0.121437 0.036188 113 115 118
-0.074752 0.224707 0.030382 108 137 189
0.121287 0.300745 0.000291 250 251 251
-0.089535 -0.141411 -0.084041 97 129 195
-0.073294 0.021032 0.014973 114 117 119
0.039301 0.289964 -0.019807 253 254 253
-0.074842 -0.065589 0.025435 114 119 121
0.035322 -0.292797 0.045767 252 252 252
-0.056270 -0.276448 0.011262 252 254 252
-0.083767 -0.162431 0.050445 123 127 132
-0.075136 -0.116373 0.031872 121 126 132
-0.078826 0.097622 -0.004944 111 124 146
0.366765 -0.320406 0.032504 253 254 253
0.456238 -0.319630 0.017485 252 254 254
0.163323 -0.314829 0.037607 253 254 253
-0.073479 -0.275132 -0.033382 100 127 178
-0.087693 0.096971 -0.084241 123 125 124
-0.041579 0.283641 -0.003186 251 251 251
-0.086521 -0.071270 0.027885 100 132 189
-0.068896 -0.234809 -0.067067 109 122 138
0.022188 0.297845 -0.017054 253 253 254
-0.073831 -0.284086 0.029559 252 254 252
-0.022870 0.299521 0.017643 252 252 253
-0.050954 -0.274075 0.056081 252 251 250
-0.086119 0.020191 0.014215 106 115 127
-0.099344 -0.167601 0.010489 123 127 129
-0.097570 -0.148902 -0.077472 114 110 109
0.064963 -0.296433 0.037633 252 252 252
0.048648 0.288740 -0.011385 252 253 251
0.041134 0.298020 0.028184 253 254 252
-0.099539 -0.220009 0.009596 121 126 125
0.166602 0.301764 0.000730 251 252 252
0.351573 0.294861 0.006455 253 255 254
-0.099706 0.217601 0.038595 98 122 167
-0.097909 -0.222741 0.008862 119 120 122
-0.096757 -0.212028 -0.077840 116 117 116
-0.078451 0.093476 0.030130 110 111 112
-0.089366 -0.054158 -0.052186 119 115 119
0.277723 -0.318171 0.021178 251 252 252
-0.069951 0.217699 0.040636 98 127 180
-0.071422 -0.164473 -0.058113 113 116 117
0.222106 -0.308886 0.004703 254 255 255
0.235468 -0.317110 0.014361 253 253 252
0.052140 0.287906 0.025622 254 254 252
-0.079612 0.027978 0.012979 122 127 132
-0.101159 -0.042814 0.016298 106 112 112
0.063677 -0.301000 0.044909 254 253 254
-0.091288 0.085229 -0.081141 116 118 118
-0.093833 -0.167221 -0.061585 101 121 161
0.427178 -0.323301 0.045403 253 255 254
-0.073173 -0.210015 0.039310 98 128 180
-0.087442 0.257368 -0.059051 109 111 115
0.447467 -0.316200 0.012221 252 253 253
-0.080249 0.207421 0.050507 101 137 205
-0.078594 0.098962 0.028207 115 118 120
-0.099546 -0.159864 0.044854 105 143 211
0.212489 -0.315311 0.005628 253 254 253
0.079290 -0.305108 -0.021355 252 253 253
-0.101280 0.079757 -0.082695 103 115 137
-0.083614 0.016176 0.017176 118 125 130
-0.105131 0.048880 0.014354 113 121 128
0.421894 0.294657 0.034859 254 253 252
0.439551 0.297134 0.027990 254 253 253
0.299196 -0.309279 0.010846 253 252 252
-0.091187 0.084144 -0.084016 113 114 115
-0.078944 0.072754 -0.062656 103 143 212
-0.071647 -0.220677 0.061164 103 135 192
0.334012 0.294701 0.055938 254 253 253
0.035197 -0.304104 0.023727 249 251 250
-0.097996 0.170829 0.032514 132 135 138
-0.006236 -0.285587 0.045451 251 252 252
0.001710 -0.288965 0.030974 187 188 187
0.106241 -0.300452 0.013945 251 251 251
0.036082 0.299140 0.052977 253 253 254
-0.079686 0.090409 -0.009956 101 128 173
0.099016 0.298126 -0.012932 252 252 252
-0.072577 0.198650 -0.067771 121 124 124
-0.082817 0.090570 -0.045435 104 127 164
-0.075379 -0.056519 -0.004469 104 133 183
-0.094982 0.084591 0.039968 100 118 154
-0.078697 -0.050726 0.026698 113 119 123
-0.075970 -0.138880 -0.086796 127 131 129
-0.077282 -0.063233 -0.031097 108 114 121
-0.088883 0.039619 0.031011 107 108 111
-0.097914 -0.233510 -0.066843 102 139 206
-0.077865 -0.054642 -0.007444 108 130 169
0.334406 -0.318918 0.012394 252 253 253
-0.076267 -0.050088 -0.033784 98 119 156
0.067147 -0.305814 0.006360 201 201 200
-0.085602 0.046086 0.037702 122 127 129
-0.076188 -0.275462 0.018366 237 238 236
-0.073425 0.201354 0.052908 116 124 126
0.249476 -0.317387 0.020552 253 254 253
0.018910 0.290277 -0.019214 254 255 254
0.378633 -0.315774 0.034314 254 254 252
0.072024 -0.295413 -0.021101 251 254 252
-0.100946 -0.145442 0.031116 104 138 202
-0.075842 -0.060390 -0.035183 124 130 133
-0.080993 0.276110 -0.004399 120 121 122
-0.091896 0.178764 0.049952 100 137 207
-0.076893 0.076505 0.039995 117 121 120
0.154233 -0.303683 0.012452 252 253 254
0.067218 0.290776 -0.005310 252 254 254
-0.074994 0.183309 -0.006164 107 114 122
0.200877 -0.307221 -0.005226 250 252 252
-0.031192 0.283636 0.022939 249 250 250
-0.093386 -0.233380 0.043878 105 118 138
-0.099397 0.194296 0.053249 110 121 145
-0.098846 0.151030 -0.006943 109 125 151
-0.072627 -0.055422 -0.062574 108 115 117
0.118244 0.293558 -0.003480 252 252 253
-0.077079 -0.134213 -0.047537 115 131 148
-0.098868 -0.190937 -0.011499 98 127 180
-0.036514 0.295835 -0.023869 254 254 253
-0.076151 0.154050 0.018044 115 123 131
-0.099129 -0.109389 -0.061435 102 139 204
-0.070998 -0.211630 0.044873 104 140 210
-0.075849 -0.266880 0.039305 251 253 252
-0.028918 -0.291367 0.025481 252 253 252
0.038496 0.298665 0.002987 253 254 254
0.090469 0.300733 -0.005255 252 253 252
-0.072887 -0.133961 -0.050395 109 125 152
0.285320 -0.312482 0.019871 253 253 252
-0.061933 0.277378 -0.013541 251 252 251
0.298549 -0.313714 0.058048 252 254 254
-0.074138 0.186306 0.049940 99 135 197
-0.084387 -0.045026 -0.016155 103 142 209
0.307128 -0.318533 0.013546 251 252 254
0.222204 0.294349 0.058325 252 253 254
0.171764 0.292292 0.042791 253 255 254
-0.070259 0.249438 0.013908 107 123 146
0.244730 -0.310739 0.002657 255 255 255
-0.073760 -0.193421 -0.063752 97 126 180
0.120760 -0.308986 0.051381 250 251 251
-0.065565 -0.288779 -0.008102 252 252 251
0.035279 0.290916 0.063029 251 251 253
-0.087887 0.260714 0.047268 111 127 154
-0.086138 0.091529 0.040620 112 112 115
-0.093973 -0.187368 -0.066999 107 121 139
-0.059147 0.278834 0.062346 251 252 254
0.105324 -0.300379 0.033970 253 254 253
0.004294 -0.296894 0.040900 251 253 252
-0.097539 -0.154568 -0.068615 99 116 147
0.143686 -0.304551 0.047195 254 255 254
-0.099292 -0.124953 -0.021213 106 139 203
-0.033164 0.293934 0.004412 252 252 252
-0.091731 -0.250727 0.011762 110 113 115
-0.100888 0.147463 -0.063206 101 125 166
-0.073839 -0.143890 0.040827 98 122 173
-0.064645 -0.275896 -0.002336 111 128 161
-0.096770 -0.080761 -0.060412 106 140 203
0.329066 -0.320593 0.061638 252 253 253
-0.078336 0.124622 0.027929 101 136 201
-0.000614 0.296570 -0.019601 252 252 252
0.220727 0.302679 0.054042 253 254 254
-0.076897 -0.104776 -0.062913 106 143 212
0.407840 -0.323880 0.040126 255 255 255
-0.100849 -0.094756 0.037106 110 133 170
0.070722 0.299090 0.047192 203 202 201
-0.076680 0.087918 0.026495 114 116 118
0.153486 0.301301 0.025259 252 252 251
0.116346 -0.310641 -0.002761 252 254 253
0.075989 -0.296244 0.059342 253 254 252
0.384165 -0.313197 -0.012698 252 255 255
0.123503 -0.313534 0.038766 253 253 254
0.299186 0.292608 0.003839 252 253 254
-0.097854 0.143788 0.028967 106 123 160
-0.072922 0.259968 -0.054118 119 120 119
-0.010522 -0.284162 0.064417 252 255 254
-0.089453 -0.051927 -0.042735 117 108 109
-0.092769 -0.209725 0.060466 107 108 110
0.297220 0.301406 0.018886 254 253 254
0.112557 0.291820 0.054049 251 253 252
0.179057 -0.313812 0.026110 255 255 255
0.038591 -0.302273 0.011022 252 252 252
-0.017780 -0.293243 0.028821 252 253 253
-0.033877 0.295571 0.053769 251 252 253
0.268061 0.301766 0.010800 253 255 254
-0.088436 0.022791 -0.008346 104 122 153
-0.078737 0.144020 -0.089583 99 120 156
-0.098977 0.106812 0.019946 105 115 133
-0.047692 0.293704 0.054555 252 253 252
-0.072155 -0.155094 -0.084068 104 133 192
0.243890 -0.318536 0.022462 253 253 254
0.425608 -0.322622 0.027454 255 255 255
-0.088083 -0.039660 -0.004870 114 118 118
-0.100893 0.145770 -0.072950 100 136 199
0.195157 -0.318762 -0.004395 254 254 251
-0.093146 -0.216516 0.037735 117 121 123
-0.100439 -0.062358 -0.012008 119 122 128
-0.067950 0.232215 0.050319 104 111 127
-0.096166 0.238399 0.053367 132 144 157
-0.097953 -0.221515 0.017904 130 133 135
0.203204 0.299030 -0.009954 253 255 255
0.046400 -0.292387 -0.009411 251 252 252
-0.094715 -0.216939 -0.005386 101 135 198
-0.048874 -0.276762 0.035729 250 251 250
-0.100343 -0.168173 0.038821 115 119 120
-0.096274 0.165930 -0.068578 98 128 181
0.019588 -0.299449 0.048084 249 251 251
0.180051 -0.314856 0.060392 251 251 252
-0.071686 0.254241 -0.052024 114 143 195
-0.096331 -0.120722 -0.052397 113 117 118
0.411046 -0.316754 0.033456 254 253 253
-0.100884 0.130889 0.047060 116 121 126
-0.097722 -0.099362 -0.033134 96 118 162
-0.101653 0.156487 -0.040975 116 120 119
0.374055 -0.320038 0.002433 251 253 254
-0.058884 -0.267921 0.031150 199 200 202
-0.073435 -0.201786 0.061439 117 149 205
-0.098385 -0.206308 -0.076000 119 125 129
0.037289 0.288940 0.033842 252 254 252
0.267011 0.302265 0.011062 251 253 252
0.002509 0.289786 0.049366 201 202 202
-0.093272 -0.251426 0.038414 123 127 129
-0.097256 -0.163320 -0.084770 100 117 146
0.088660 0.289555 0.064510 254 254 254
-0.099973 -0.176029 -0.008715 101 121 157
0.449006 -0.323900 0.005986 253 254 253
-0.098216 0.143926 0.047473 111 117 116
0.110452 -0.308530 -0.019504 253 253 255
-0.100253 0.080796 -0.029307 100 130 185
0.321861 -0.321994 0.057762 253 254 254
-0.096191 -0.105932 -0.025544 106 140 199
-0.084041 -0.177169 -0.081419 119 124 127
0.193592 0.302114 0.009444 252 254 253
-0.076390 0.154522 -0.057977 106 131 178
-0.098331 -0.215835 -0.072593 120 121 122
-0.076942 0.089934 -0.076039 101 128 176
-0.077985 -0.223335 0.058470 99 114 142
-0.039492 -0.278187 -0.012647 249 249 249
-0.096043 0.204341 -0.001120 99 132 195
-0.096143 -0.250884 -0.065316 113 140 190
-0.076138 0.029904 -0.024693 112 115 118
-0.093308 0.030148 -0.020530 104 132 180
-0.100435 -0.183696 -0.050857 114 119 125
-0.070336 0.250726 0.008994 104 129 168
0.384233 0.295465 -0.001118 253 254 253
-0.077169 0.155724 -0.037348 101 125 169
-0.073111 -0.251802 0.051880 109 139 196
0.427213 -0.324753 0.039604 254 254 253
-0.086117 -0.090114 -0.080171 116 117 118
-0.029769 -0.274939 0.004425 253 254 253
-0.074969 0.184760 -0.080281 101 105 107
-0.049657 -0.276765 -0.003268 250 252 251
0.169216 -0.307966 0.029401 253 254 252
0.023804 -0.289089 -0.014147 252 254 253
-0.083889 -0.229587 0.059768 121 126 132
-0.100837 0.088681 -0.087846 124 125 125
-0.077154 -0.253788 0.055442 133 139 142
-0.101563 0.120214 -0.052621 101 124 164
0.133976 0.300699 0.026049 251 251 251
-0.073728 -0.144770 -0.050628 118 121 125
0.317135 -0.314554 0.039257 252 252 252
-0.086530 0.275560 0.035033 108 109 112
0.020450 0.288121 0.048644 253 254 253
-0.080462 0.093913 -0.064292 111 121 129
0.098500 -0.300861 -0.006097 253 254 255
-0.082490 0.267771 0.036375 115 123 134
0.126256 -0.302905 0.035742 251 251 250
-0.074307 -0.130411 -0.029916 99 130 193
-0.072747 -0.168399 -0.012519 109 118 133
-0.082986 0.078420 -0.003167 101 133 183
-0.079508 0.279059 0.001527 113 105 108
-0.065696 -0.266088 -0.033419 129 134 136
0.169262 0.294429 0.023566 253 253 252
-0.098706 0.021051 0.003179 112 119 127
-0.069796 0.245036 -0.011180 126 130 133
-0.070691 -0.209046 -0.077935 113 113 113
0.053610 0.284045 0.058211 252 253 252
0.398027 -0.311917 -0.023429 251 253 252
-0.086347 -0.130205 -0.083537 99 121 160
0.004388 0.293625 -0.016614 251 252 253
0.150676 0.303480 -0.012938 253 254 253
-0.076142 -0.050846 0.007137 122 128 128
0.082437 -0.307350 -0.020194 251 252 252
-0.066691 0.292700 -0.006082 249 249 249
-0.050271 0.282460 -0.006428 252 253 252
-0.099415 -0.178743 0.043750 107 114 121
-0.089932 -0.142634 0.043807 127 133 140
-0.076075 0.035983 -0.057678 121 125 124
0.023486 -0.289169 -0.005648 252 254 254
0.095654 0.291309 0.004627 251 252 251
-0.074821 -0.274113 0.037792 251 252 251
-0.099120 -0.071767 0.022923 124 128 130
-0.080352 0.054725 -0.072386 125 131 135
-0.008337 0.292089 -0.021007 253 254 254
0.038231 0.298606 -0.000551 250 251 251
-0.072388 0.239155 -0.042409 108 143 208
0.096030 -0.306949 0.052754 252 252 250
-0.097095 0.211212 0.026405 120 129 138
-0.046801 -0.277043 0.068182 252 253 252
-0.074037 0.244593 -0.068720 94 124 185
-0.099721 0.061260 0.035058 96 122 171
-0.094974 -0.197099 -0.060074 102 142 212
0.263400 0.295042 0.031257 254 255 254
-0.072114 -0.138927 0.045738 128 132 132
-0.086335 -0.220799 -0.080022 97 124 178
0.228445 -0.315611 0.062359 251 252 253
-0.096853 0.235410 0.048757 107 137 192
0.053841 0.299597 0.030039 253 253 253
0.428986 -0.321064 0.003619 252 253 253
-0.062244 0.277776 -0.025201 252 253 252
0.145761 0.301637 0.022777 253 253 253
-0.092665 -0.241847 0.055190 140 147 150
-0.092584 0.063365 0.038452 115 120 128
-0.081710 -0.094219 -0.080796 120 120 123
0.030397 -0.293230 -0.015762 253 254 253
0.161721 0.302019 0.026056 252 252 253
0.242009 0.302370 0.022977 253 254 254
-0.097777 -0.167580 -0.084093 101 121 163
-0.091981 -0.265086 -0.016895 111 137 181
0.374112 0.303659 0.023053 255 254 253
0.056277 -0.302157 0.030690 252 253 253
-0.076144 0.238161 -0.006430 106 114 115
-0.096326 -0.068546 -0.064374 100 130 187
-0.078098 -0.104373 -0.037975 102 136 198
-0.046868 -0.287368 0.049273 254 254 253
-0.097805 -0.210569 -0.043347 107 115 128
-0.003757 -0.284599 0.063482 252 253 252
0.011264 -0.297143 0.056927 251 252 251
-0.086581 -0.049693 -0.031361 124 129 133
0.158836 -0.311125 0.064358 253 253 252
-0.074072 -0.187965 0.018873 123 135 147
0.298484 0.301966 0.029205 254 255 253
-0.074070 -0.171523 0.041893 97 129 185
-0.073690 0.255335 0.004517 104 139 205
0.384668 0.295932 0.004741 254 255 254
0.213388 0.301919 0.013890 254 255 255
-0.074454 -0.124132 -0.080147 122 122 124
-0.097675 0.098389 -0.056283 101 120 151
-0.092673 -0.151318 -0.083611 112 117 123
0.079952 -0.304004 -0.019866 253 253 252
0.197977 0.302240 0.008984 254 255 253
0.067847 0.292492 -0.021489 254 255 252
0.126285 -0.302366 0.020371 253 253 251
-0.071693 -0.203489 -0.030394 116 122 131
-0.098955 -0.124712 -0.000715 102 127 172
0.264074 -0.317986 0.033555 253 254 253
0.069952 -0.295649 0.003652 249 250 250
-0.070812 -0.208555 -0.044115 98 125 175
0.311359 0.295714 -0.000872 248 248 249
0.401820 -0.315322 0.011870 254 254 254
-0.076109 0.217405 0.019334 104 112 117
0.148591 0.288337 0.019692 255 255 252
0.251678 -0.316063 0.018855 252 251 251
-0.076469 0.039211 -0.045030 95 124 179
-0.086277 0.133640 0.047521 104 134 192
0.101871 0.291137 0.063271 254 254 254
-0.072936 0.282971 0.012392 251 252 252
0.222500 -0.317655 0.055695 252 253 251
-0.069320 -0.267677 0.020273 101 127 175
0.108149 -0.299492 0.019267 204 207 204
-0.065793 -0.267629 -0.052613 100 130 185
-0.080786 0.121632 -0.065644 118 120 120
-0.098377 0.025045 -0.024377 108 113 118
-0.096400 -0.218836 -0.068845 108 139 193
-0.103203 0.138284 0.045038 122 125 127
-0.073203 0.207779 0.057045 120 131 140
-0.073895 -0.198324 -0.058560 101 124 164
0.096011 0.292696 0.063848 253 252 254
0.206081 0.295455 0.032134 252 253 252
-0.072012 -0.200127 0.047738 111 116 124
-0.018220 0.286797 0.026648 253 253 254
-0.081482 -0.177493 -0.086643 128 131 132
0.157325 0.293310 0.054820 252 252 253
0.152613 0.290719 0.033250 253 253 252
0.109075 0.292294 0.015507 250 251 251
-0.095626 -0.064665 -0.038892 129 133 134
0.036485 -0.301568 0.003170 254 255 254
-0.100108 0.065167 -0.030908 121 125 130
-0.070998 -0.198986 0.061480 112 114 115
-0.095848 -0.079086 -0.020959 101 131 183
-0.104495 0.129549 -0.022672 102 137 198
-0.077778 0.109421 0.007542 106 126 165
-0.079061 -0.092321 -0.045691 105 117 134
0.057418 -0.292888 -0.019812 252 254 254
-0.059672 0.280332 -0.028082 253 253 253
-0.046443 -0.279347 0.066589 253 253 253
0.370680 0.294014 0.053651 253 254 254
-0.067284 -0.223743 -0.064919 103 145 216
0.325324 0.294659 0.058413 255 255 255
-0.070757 -0.165717 -0.058189 118 140 181
