ply
format ascii 1.0
element vertex 1220
property float x
property float y
property float z
property uchar red
property uchar green
property uchar blue
end_header
0.534663 -0.377783 -0.008811 251 251 252
0.265693 0.371250 0.037261 191 190 190
-0.082592 0.255502 -0.086580 29 29 31
0.399930 0.359763 0.014347 252 251 252
-0.056761 0.267118 0.075034 28 28 29
0.293682 0.368768 0.004528 178 179 179
0.007424 0.304178 0.085615 182 182 181
-0.123988 -0.126199 0.072101 29 29 31
-0.073941 -0.218218 0.092933 31 45 121
-0.111679 -0.137576 0.012227 30 35 124
-0.108310 0.177980 0.080093 32 31 36
0.352994 -0.380067 0.001763 253 254 255
0.009642 -0.330225 0.037036 51 74 156
-0.067180 0.238607 0.083018 34 47 106
-0.108832 0.158275 0.099579 27 27 28
0.366884 -0.377867 -0.044132 253 254 253
-0.120418 0.121627 -0.037596 30 32 97
-0.044245 -0.313557 0.061430 29 29 30
0.346686 -0.374172 0.032287 252 254 254
0.199400 0.365058 0.049949 254 254 254
0.361779 -0.378977 -0.003218 31 31 43
0.171243 0.368823 -0.010531 218 218 218
-0.034751 -0.301015 -0.027470 25 31 124
0.091562 -0.353135 0.051499 224 225 224
-0.024153 -0.324349 0.014992 26 28 27
-0.116768 -0.115832 0.093002 247 248 247
0.279847 0.358947 0.044560 253 253 254
0.286873 0.365484 0.018025 167 169 167
-0.126623 0.024101 -0.014983 241 241 243
0.048498 -0.340965 0.075049 31 26 31
0.190900 0.355390 0.037190 251 253 252
-0.091068 -0.188442 0.006367 24 29 129
-0.112211 -0.157038 -0.040037 27 30 113
-0.029445 -0.328763 -0.008755 33 35 33
0.050093 0.342667 -0.023624 28 26 29
-0.124382 0.090197 0.004392 27 29 117
0.464997 0.361396 -0.031693 26 27 46
-0.085254 -0.198151 0.090013 221 223 221
-0.115087 0.038961 -0.002496 31 34 30
0.205684 -0.364831 0.012335 253 254 253
-0.024956 -0.287447 0.096591 30 29 34
0.075004 0.351332 -0.010181 33 33 32
-0.132701 0.006470 0.037766 33 36 35
0.086216 -0.363893 -0.006602 193 192 191
-0.041619 0.296592 -0.085797 182 182 182
-0.132264 -0.009833 0.045796 32 30 31
-0.114539 -0.089844 0.050875 25 27 102
0.550291 0.364745 -0.028775 254 254 253
0.010330 -0.341163 0.077208 199 199 199
-0.079893 -0.227124 -0.080949 22 25 128
0.043543 0.333214 -0.023988 30 30 31
-0.052477 0.231591 0.093260 165 165 163
0.036162 -0.339664 -0.011103 28 32 30
-0.087045 -0.193952 0.089784 25 31 120
-0.062659 0.240783 0.083748 175 176 175
-0.007009 -0.316079 -0.016789 25 37 127
0.403465 0.363669 -0.020647 26 23 27
0.068913 0.354955 0.062472 251 252 252
-0.125771 0.079558 0.030035 30 34 106
0.072582 0.346667 0.035889 253 255 253
0.055825 0.339739 0.016980 29 27 28
0.384997 -0.378786 -0.000024 251 253 253
-0.105839 0.087913 0.085425 30 32 31
-0.066606 0.269540 0.087012 167 167 166
0.013090 -0.339052 -0.008996 105 113 121
-0.103769 -0.229760 -0.092046 37 33 35
0.217746 -0.363089 -0.016280 252 254 254
0.376531 -0.377887 0.025233 251 252 253
-0.122787 -0.120824 -0.035036 26 32 120
0.254497 -0.378296 0.010664 251 253 252
0.072522 0.349829 0.059095 210 209 211
-0.081561 -0.248419 0.086018 219 221 219
-0.008896 -0.332284 -0.041653 27 29 27
-0.127552 -0.031824 0.060777 30 34 33
-0.015320 0.311449 -0.070637 25 26 26
-0.127745 0.077102 -0.030708 28 30 108
-0.051135 -0.254802 0.100496 29 30 34
0.219583 0.357350 0.009357 250 252 251
0.120668 0.354657 0.050142 217 217 217
-0.109239 0.176672 -0.106031 46 36 38
0.140190 -0.359657 0.016712 218 217 217
-0.077717 0.181811 0.097302 26 25 27
0.014723 0.316285 0.002510 28 26 27
0.282779 0.366859 0.038721 253 254 254
-0.131343 -0.037065 0.032716 31 32 30
-0.035825 -0.291769 0.097950 214 214 213
-0.107342 -0.083774 0.067064 29 29 30
-0.132772 0.034818 0.021951 213 213 213
-0.133059 0.061858 -0.052269 250 252 253
-0.105926 -0.139451 0.079400 234 235 236
-0.108383 0.169989 -0.068571 31 32 67
0.056699 -0.343737 0.023460 41 69 148
-0.093731 -0.187736 -0.006498 29 31 117
-0.120810 0.082231 0.090636 30 33 33
-0.133712 0.078259 -0.043000 30 29 29
0.241306 -0.368526 0.015094 252 253 252
0.284501 0.368518 -0.032621 247 247 249
0.048277 -0.349111 0.022662 51 76 156
-0.054128 -0.280780 -0.088715 30 36 128
0.222966 0.356270 0.020695 251 252 252
0.358924 0.359584 -0.032275 251 252 252
0.128839 0.363924 0.058698 248 249 248
0.178888 0.369309 0.015651 249 249 249
-0.048389 0.280305 -0.065269 32 34 44
0.237570 0.361721 0.033432 200 200 199
0.143354 -0.356309 -0.010761 225 225 225
-0.012272 -0.311377 0.058045 36 59 148
-0.091016 -0.167492 0.085204 238 238 239
0.012187 -0.325309 -0.037238 23 34 118
0.120819 -0.369124 0.035126 221 222 220
0.372628 -0.372429 -0.013627 254 254 254
-0.041874 -0.294169 0.003224 34 44 128
-0.019873 0.294035 -0.078875 30 29 29
0.555898 0.356257 0.020451 253 253 252
0.533611 0.365596 -0.003814 254 254 254
0.183416 0.355044 0.015204 252 254 251
-0.098719 0.192461 0.099831 30 29 31
0.012523 -0.333567 0.035465 55 78 156
0.342426 0.371740 -0.022763 32 34 33
0.085290 0.360719 -0.001162 218 218 217
0.149055 0.356568 0.057705 254 253 254
0.243314 -0.364445 -0.007622 243 244 244
0.423730 -0.371875 -0.026012 252 252 251
0.219047 -0.368531 -0.028131 253 253 252
0.393273 -0.373324 -0.014066 253 254 253
0.501404 0.358978 -0.033438 254 254 254
0.109831 0.345739 0.061737 233 233 234
-0.044971 0.299005 -0.061800 24 26 26
-0.110168 0.061126 0.073981 34 36 37
-0.092655 0.195680 -0.099573 153 156 159
0.254211 -0.368925 0.005568 253 254 252
0.474417 -0.380866 -0.010246 253 254 254
-0.042420 -0.311043 0.075391 31 30 32
0.105079 -0.353494 0.004911 199 198 198
0.426471 0.368757 -0.027448 254 254 252
0.484020 -0.376422 -0.022461 254 253 254
0.568112 0.356361 0.016649 254 254 253
0.068352 0.341412 0.012403 197 197 195
0.026366 -0.353554 -0.013246 250 251 249
-0.080504 -0.221677 -0.074832 23 26 117
-0.097309 -0.212676 0.101749 27 27 29
-0.078029 -0.235211 0.050719 22 31 122
0.185331 0.364197 0.044368 210 211 211
0.059915 -0.355987 0.002703 57 79 143
0.152889 -0.359382 0.044812 252 254 252
0.032089 -0.352746 0.061177 199 201 200
0.398517 -0.373983 -0.041754 254 254 254
0.049248 -0.339758 0.056611 47 73 148
-0.123530 -0.107226 -0.042823 22 25 113
0.392680 0.361427 0.021881 25 24 54
-0.070359 0.243786 -0.099705 158 159 158
0.240076 0.370450 0.031848 179 179 178
-0.070014 -0.242057 -0.004470 26 37 121
0.153259 -0.376420 0.004207 253 254 252
-0.131165 -0.066615 0.007788 29 32 29
0.082357 -0.350689 0.005258 30 31 28
0.081609 0.347379 0.053151 250 251 251
0.163288 0.355165 0.036797 252 251 252
0.551425 0.363555 -0.009892 255 252 254
-0.112688 0.019038 0.019987 224 224 222
0.571823 0.353379 -0.025152 253 253 253
-0.054112 -0.245260 0.091346 213 214 213
-0.127025 -0.004313 0.022080 44 38 41
-0.121033 0.076466 0.088196 32 33 35
-0.043845 -0.291628 -0.068954 33 39 127
0.008068 -0.335416 -0.030909 30 29 28
0.068880 0.343009 -0.000682 34 30 26
-0.111675 -0.058949 0.016862 27 28 27
-0.029358 -0.289625 0.089504 230 231 232
-0.107230 0.169013 0.044612 28 33 102
0.502237 0.359587 0.009591 254 254 253
-0.087329 -0.212521 -0.084118 27 30 127
0.145158 0.349698 0.030908 248 249 249
0.073513 0.346085 0.008274 192 191 193
-0.076379 0.232453 0.082174 171 172 171
-0.104667 -0.193139 0.084845 29 28 29
-0.109783 -0.133609 0.078390 238 239 240
-0.045284 -0.289312 0.050363 35 48 135
0.033591 -0.355282 0.037950 91 108 149
0.353254 -0.382119 0.010079 253 254 253
0.059458 0.336289 0.059716 24 26 27
0.434653 0.373756 -0.011074 25 23 26
0.231269 0.369124 0.040610 189 189 188
0.372628 -0.379592 -0.032805 247 248 248
0.585025 -0.372660 -0.064167 250 252 252
-0.038603 -0.282950 0.097492 212 212 212
-0.112901 -0.055942 -0.002426 235 236 235
-0.016332 -0.336971 -0.027631 34 35 37
0.650319 -0.367400 -0.051313 251 253 252
-0.025555 -0.300934 -0.032991 23 30 127
-0.103001 -0.099019 0.066069 248 248 249
0.606839 -0.374046 -0.024309 255 254 254
0.397422 0.363604 -0.008462 253 254 253
0.047060 0.350326 0.001118 249 249 249
-0.106459 0.010187 0.038767 230 230 231
0.151101 0.361651 0.050757 202 202 204
0.030748 0.349320 0.048139 253 255 254
0.066929 -0.359741 -0.024775 253 254 254
0.362540 -0.379435 0.005912 231 232 233
-0.121858 -0.121701 -0.055885 22 20 103
-0.084258 0.188226 0.096951 157 159 159
0.389442 0.369500 -0.029083 28 26 29
0.576727 -0.371853 -0.024583 249 250 250
-0.096602 -0.220201 0.098627 34 33 37
0.036195 0.327950 0.025079 185 185 185
-0.012066 0.326576 -0.054621 193 193 194
0.060461 0.342607 0.041819 253 254 255
-0.129010 -0.070916 -0.011886 251 251 252
0.287348 -0.370865 -0.039760 252 254 252
0.270050 0.372166 -0.004249 203 203 202
0.147162 -0.359362 0.021757 249 250 250
0.068958 -0.354733 0.021307 204 202 203
0.524050 -0.378521 -0.010882 255 255 255
0.070941 0.358389 0.003681 252 253 253
-0.112670 -0.031284 0.023650 31 31 29
0.301206 -0.372736 -0.012847 27 26 29
0.205124 -0.362083 0.045175 192 195 193
0.309928 0.359455 0.040948 252 253 253
0.529737 -0.372876 -0.000035 255 255 255
0.327098 -0.380524 0.031942 253 254 253
0.186204 0.362056 -0.019060 187 187 188
-0.067697 0.237760 0.061609 26 30 78
0.280279 -0.374080 0.030661 253 253 253
0.232913 0.369862 0.006214 249 250 249
-0.092646 0.148375 0.088071 29 29 31
-0.091389 0.208501 0.068944 29 34 104
0.126031 0.365698 -0.020995 218 219 220
-0.066869 -0.243101 -0.071323 36 45 138
0.062111 0.341723 -0.027744 31 30 31
0.601372 -0.366933 -0.045196 251 253 253
-0.081546 -0.255402 0.099384 32 30 35
-0.001492 0.298036 0.054872 25 36 93
-0.096142 0.216252 -0.105433 156 157 158
0.347758 -0.369440 -0.032683 251 251 252
0.284641 0.371144 0.006307 247 248 249
-0.053923 0.277988 -0.095577 32 30 30
-0.127744 0.121561 -0.062452 48 52 61
0.284096 0.371196 0.013119 252 253 253
0.324162 -0.380450 -0.020956 252 254 252
-0.083411 -0.227864 0.005336 26 33 120
-0.006067 0.325807 0.029568 30 25 28
-0.123987 0.050828 0.028885 28 28 29
0.389327 0.362484 0.018357 251 252 252
0.525988 -0.368398 -0.046829 252 253 252
-0.122867 -0.154100 -0.097876 231 231 233
-0.097462 0.218032 -0.092802 28 29 32
-0.015585 -0.316068 0.072453 36 56 136
-0.091800 0.242865 -0.099811 32 33 33
-0.053330 0.262856 0.062727 17 21 90
-0.133028 0.039259 0.033167 33 35 35
-0.094023 -0.190471 -0.065422 28 33 132
-0.004823 0.291131 0.045099 27 38 106
0.431516 -0.379867 0.004689 255 255 254
0.120862 -0.355217 0.060623 251 253 251
-0.072992 -0.235372 0.069442 29 45 135
0.024133 0.326892 -0.028177 27 25 27
-0.101773 0.173839 -0.050063 28 33 73
-0.120005 0.158694 -0.094760 28 28 29
-0.119798 -0.134305 -0.027025 30 35 110
-0.115908 0.137754 -0.016793 27 33 83
0.444209 -0.371659 -0.048656 249 250 250
0.035898 0.341372 -0.013614 251 251 251
-0.113552 0.067060 0.074932 165 165 165
0.257288 -0.367932 0.006513 216 215 215
0.255677 -0.372206 0.040375 251 252 252
-0.103935 -0.175050 -0.070015 33 38 134
0.202210 -0.364626 0.011325 252 253 253
-0.053033 0.256955 0.073033 28 34 92
0.028557 0.330827 -0.033376 30 30 31
0.035501 -0.358051 0.025873 248 248 248
-0.072342 -0.250768 -0.046332 25 31 122
0.336390 -0.379267 -0.040306 255 254 255
0.091062 -0.350753 0.040058 60 84 142
-0.107489 0.202929 -0.095196 176 176 175
0.079727 -0.355229 -0.021868 29 31 31
0.362302 0.364562 -0.031361 254 255 253
0.248304 0.372927 -0.011570 250 251 252
-0.127330 0.035122 0.068635 30 30 28
0.084133 -0.364538 0.043203 249 249 250
-0.101798 -0.207225 -0.106066 33 34 32
0.034976 -0.353361 0.007379 46 69 153
0.551838 0.356686 -0.036259 254 253 253
-0.075625 -0.230697 -0.114008 31 28 28
0.162057 0.352663 -0.015210 160 160 162
-0.115228 0.195900 -0.093811 32 33 33
-0.054178 0.270379 0.047317 27 30 83
0.043003 0.346172 -0.016290 252 254 252
0.121287 0.356370 0.031093 144 146 146
-0.099442 0.186940 0.083196 36 32 38
0.355108 -0.375686 -0.041730 253 254 252
-0.039460 -0.297485 -0.035958 26 32 120
0.030275 0.327646 -0.023234 30 29 31
-0.021947 -0.318327 -0.008480 39 52 141
0.445317 0.367954 -0.017112 22 22 45
-0.126638 -0.125311 0.085229 237 236 238
-0.122990 0.096485 -0.055873 28 32 84
-0.093566 -0.169212 0.047822 32 35 122
-0.068984 -0.249211 0.049235 30 40 133
-0.109474 -0.165914 -0.019239 24 30 116
0.047249 0.351464 -0.015390 236 236 238
0.191460 0.364053 0.000072 191 192 191
0.099192 0.367363 -0.013267 253 253 253
0.057561 0.349917 -0.005372 237 238 238
-0.081083 -0.235128 -0.108308 224 224 222
-0.054143 0.272902 0.036089 24 28 81
-0.102796 0.170433 -0.092563 28 29 47
0.462477 -0.373161 -0.052920 27 24 27
0.554826 -0.367890 -0.034995 252 253 253
-0.095848 -0.191992 -0.096064 30 27 115
-0.133000 0.048129 -0.045912 33 33 30
0.329730 0.371208 -0.033935 251 253 252
0.268546 -0.376914 0.011889 180 179 180
0.000449 -0.325073 0.056782 36 54 134
0.016593 0.340406 0.039532 200 200 199
-0.126373 -0.083504 0.011298 31 30 32
0.165177 0.354923 0.036626 221 221 220
0.355951 -0.379599 -0.016505 253 253 254
0.000555 0.328209 0.068279 196 196 198
0.030044 -0.334301 0.033448 45 65 143
0.640388 -0.369771 -0.049141 253 253 254
0.308000 0.373206 0.036588 249 250 250
-0.129130 -0.072809 -0.025888 240 241 241
-0.135487 0.015646 -0.006119 30 32 30
0.020542 -0.321035 0.078289 51 75 151
-0.025167 -0.308886 -0.039859 32 43 140
0.446981 0.369024 0.033907 253 254 252
-0.105650 -0.146288 0.082301 248 249 248
-0.106605 -0.143532 0.066546 20 25 113
0.323077 0.361638 -0.033101 254 254 253
-0.116359 0.145597 0.012486 24 25 104
0.022861 -0.331170 0.046221 37 32 37
-0.013553 -0.308945 0.059878 31 42 88
-0.104595 0.156115 0.097763 31 32 35
0.043742 -0.349676 0.020658 45 76 153
-0.106284 0.133614 0.076028 36 49 128
0.150124 0.365071 0.054643 252 254 252
0.261432 0.359209 0.027253 252 253 254
0.211834 0.359200 0.034782 192 192 191
0.241755 -0.368743 0.026097 252 253 252
0.504359 0.360338 -0.021142 27 24 28
-0.124374 -0.104612 0.048594 34 31 35
0.210834 0.363645 -0.007862 184 184 184
-0.035861 -0.283769 -0.057454 44 55 145
-0.063336 0.240297 0.096223 176 177 177
-0.133870 -0.045009 0.051460 29 28 30
0.053147 0.350421 -0.011581 202 203 204
-0.122912 -0.079816 0.084655 29 27 31
0.577534 0.355044 -0.027235 254 255 253
0.161941 0.353526 0.001614 253 253 252
-0.127354 0.104354 -0.072660 195 193 194
0.123277 0.368199 0.044363 251 251 251
-0.080118 -0.243975 -0.087238 27 30 125
-0.119124 0.145371 0.082192 29 30 32
-0.125288 -0.094456 -0.007126 27 27 122
-0.006905 -0.323956 -0.050863 206 206 204
-0.097382 -0.188172 -0.032413 30 34 121
-0.090736 -0.213035 -0.043311 22 27 116
0.272800 -0.379159 0.035191 172 171 170
0.073935 -0.362024 0.023215 30 29 30
0.186142 0.368710 0.011756 195 196 196
0.268855 0.371197 0.030849 252 253 253
0.220203 0.368851 -0.007223 191 190 191
0.122984 0.356450 -0.028288 160 160 162
0.042006 0.350317 -0.018522 253 254 253
-0.119577 -0.114955 -0.083047 252 251 250
0.348950 -0.379064 -0.014952 252 253 252
-0.086483 -0.211763 -0.075898 21 24 118
-0.085065 -0.214050 -0.076352 23 24 109
0.491996 0.359443 0.015415 253 254 252
-0.121575 -0.097492 0.063543 29 30 31
0.110758 0.349142 0.062616 247 250 251
-0.070076 -0.258543 -0.094848 30 33 119
0.009028 0.318075 0.024299 189 190 191
-0.123683 0.080643 0.021005 25 22 99
-0.122520 0.064647 0.074539 213 214 213
-0.086813 0.208349 0.017245 20 23 83
-0.097597 0.187901 0.056393 24 27 85
0.072555 -0.351848 0.032017 38 64 136
0.193788 0.371369 0.042703 251 252 252
-0.111250 -0.068948 -0.000029 241 242 242
-0.068098 0.237225 0.054156 30 38 113
-0.119782 0.087194 -0.033656 29 36 77
0.072080 -0.352983 -0.014044 178 178 176
0.251397 0.359811 -0.026552 186 186 186
-0.039477 0.262769 0.093264 28 30 31
-0.078223 -0.273448 -0.090724 35 32 32
-0.048393 0.286504 -0.087688 184 184 183
-0.123095 0.096913 -0.020265 21 21 86
-0.122712 0.103843 0.057056 29 34 113
-0.103828 -0.215194 -0.092240 226 226 226
0.037595 -0.347970 0.019971 50 72 146
-0.116872 -0.114469 -0.048140 247 249 249
-0.133720 -0.004441 0.056763 231 231 232
-0.097630 -0.191158 -0.057745 25 28 117
-0.038973 -0.288112 0.095250 209 210 208
0.141487 0.353083 0.050614 249 250 250
-0.077495 -0.234591 0.082488 26 37 122
0.065585 0.356975 0.030401 251 253 252
-0.039709 0.295924 0.075155 31 31 32
0.208751 -0.375535 -0.028353 218 220 220
0.270794 0.359941 0.032274 170 171 171
-0.060121 0.262205 0.097999 32 27 27
-0.095843 0.236039 -0.103253 34 32 29
-0.126246 -0.098572 0.062306 35 40 52
0.142462 -0.371245 0.054159 238 236 238
0.632507 -0.366653 -0.059675 25 24 29
-0.059831 -0.265751 0.071385 40 54 138
-0.027476 0.315051 -0.069044 184 184 184
-0.045750 -0.292367 -0.057806 24 28 132
0.097198 -0.365305 -0.013573 213 213 212
-0.064471 -0.260162 0.056096 26 35 121
-0.051925 -0.283828 0.098269 216 216 215
0.248820 -0.379041 -0.003478 252 254 252
-0.043975 -0.291223 0.014959 28 36 123
-0.124143 0.047856 0.031724 28 28 29
0.020532 0.309418 0.077006 26 26 28
-0.104626 -0.171216 -0.103152 31 30 31
0.141819 -0.358342 0.005820 254 253 252
0.214891 -0.373357 -0.017663 156 156 156
0.522919 0.358880 -0.023582 22 24 63
-0.110927 0.013645 0.052152 29 28 30
-0.033979 -0.285240 0.063073 37 53 140
-0.124367 0.075965 0.089514 33 35 36
-0.067545 0.245282 0.046265 23 29 97
-0.059071 0.271224 -0.097749 32 28 28
-0.123117 0.071097 0.046933 31 36 125
0.215902 -0.368704 0.024926 192 193 192
0.447464 0.362361 -0.028678 251 253 252
-0.105565 -0.204944 -0.083322 246 246 245
0.505846 0.363883 0.026112 249 249 249
0.277974 -0.380409 0.022176 175 175 175
-0.134991 -0.055262 0.006797 239 239 240
-0.137512 0.039110 0.002335 217 219 220
0.570799 -0.374148 -0.028222 254 254 254
0.242221 0.369528 0.037658 252 252 253
0.553297 0.363025 -0.036723 250 251 250
0.512149 -0.375942 -0.047578 25 23 26
-0.111976 0.117008 -0.090562 195 195 194
0.115269 -0.355154 0.008289 248 249 250
0.324190 -0.378779 -0.017648 226 225 224
0.110353 -0.356303 0.021082 251 252 251
-0.112713 0.143176 0.016943 23 26 107
-0.120447 0.139939 0.093710 188 189 188
0.627092 0.350339 -0.008556 254 253 253
-0.077042 -0.247947 -0.089972 232 231 231
0.207140 -0.370217 0.008633 29 27 29
-0.129012 0.047067 0.063799 37 37 36
0.156110 -0.359293 -0.002602 250 250 250
0.578355 -0.369181 -0.062124 252 254 252
-0.113539 -0.058258 -0.005163 31 30 28
-0.012851 -0.297563 0.072627 210 213 212
0.021677 -0.328716 -0.015298 45 63 147
-0.083612 0.200756 0.099201 30 30 32
0.391715 0.371526 -0.026034 26 23 27
-0.118275 0.083351 -0.062719 33 36 39
0.497947 0.360252 -0.008731 252 253 254
-0.110819 0.156856 0.057548 26 32 102
-0.105842 0.130594 -0.086608 28 28 30
0.073543 0.342273 0.029793 252 253 252
-0.077251 -0.225742 0.066003 23 33 130
0.091435 -0.368151 -0.003412 246 247 247
-0.059625 0.220048 0.090281 185 185 183
0.016024 -0.336167 0.072117 49 74 145
0.123585 -0.365019 -0.023235 254 253 254
0.605117 -0.373001 -0.024074 253 254 253
0.077978 -0.359953 0.058548 187 188 186
0.110447 0.357541 0.052308 206 205 205
0.141430 0.350330 0.001591 247 248 249
0.421326 0.370996 -0.016428 26 23 26
0.376259 0.361421 -0.030916 251 251 252
-0.127565 0.056980 0.033239 28 30 27
-0.128536 -0.052899 0.074627 30 30 33
-0.070625 -0.255335 -0.043146 22 26 115
-0.071356 0.264036 -0.091552 28 30 29
0.025554 -0.330686 0.012023 32 32 34
0.264336 0.367466 0.023012 170 169 168
-0.029894 -0.310369 -0.044606 223 221 222
-0.112618 0.019343 0.006663 33 31 32
-0.134402 -0.038745 0.039241 237 237 239
0.016589 -0.334914 0.035636 37 54 91
-0.114420 0.160954 -0.107062 31 30 31
0.350796 0.372059 0.002791 251 252 250
0.026101 -0.344846 0.058642 232 233 233
-0.100547 -0.182488 0.011154 19 25 113
0.043391 0.338945 0.056675 251 252 255
-0.108439 -0.161730 -0.055381 22 25 116
0.309439 -0.378654 -0.006107 246 247 248
0.466998 -0.376928 -0.054509 28 25 29
0.551291 0.357285 -0.041745 253 252 253
-0.098115 0.240921 -0.099605 33 33 34
0.230557 -0.376632 0.023238 250 250 250
0.061338 0.340190 0.031651 204 204 202
-0.054584 0.286727 0.087244 169 170 170
-0.129233 0.063023 0.008597 29 33 124
-0.121728 0.119979 -0.030573 23 27 103
0.183922 0.357075 0.050523 252 253 252
0.051064 -0.348660 0.049780 251 253 251
-0.115047 0.131588 0.015469 31 36 110
-0.032258 -0.295908 -0.096203 34 30 32
0.064018 -0.361681 -0.011367 189 191 188
-0.060319 0.268630 0.072069 24 27 47
0.222560 -0.375634 0.000144 248 250 249
-0.113702 -0.166595 0.092965 248 250 249
-0.122953 0.110107 -0.022296 23 26 95
0.229181 0.358089 -0.017566 182 183 183
0.177775 -0.373872 -0.023243 210 210 209
-0.056005 0.282755 -0.081730 26 27 28
0.026862 -0.354060 -0.016526 192 192 191
0.058772 0.342517 0.040842 194 195 194
0.021986 0.343329 0.024175 201 201 199
0.193397 -0.366002 0.046772 143 146 146
-0.113817 0.094666 -0.065168 204 203 202
-0.066110 -0.217739 0.084909 31 33 34
0.235981 0.369457 -0.025901 254 255 254
0.025201 -0.328002 0.061974 49 69 141
-0.076242 -0.251453 -0.110802 32 31 30
0.342857 -0.381284 0.002770 252 252 252
0.565024 -0.372254 -0.035444 25 25 27
0.472091 0.369224 -0.017177 251 252 251
-0.123264 0.082109 0.028275 20 22 108
0.133096 -0.364501 -0.020745 246 246 245
0.004265 0.318415 -0.044998 31 29 29
0.183339 -0.373284 0.036570 217 217 216
0.188757 -0.362979 -0.014716 222 222 221
0.580612 0.357615 -0.034050 27 26 26
0.286689 0.367620 0.017641 175 176 174
0.186690 0.354078 -0.018458 154 156 156
-0.120900 0.108483 0.048189 32 38 119
0.224556 0.370454 0.031307 208 208 207
-0.059663 -0.279459 -0.098510 217 219 218
0.257025 -0.379447 -0.023596 168 167 166
-0.134293 -0.043055 0.012223 239 240 240
-0.124355 0.097944 -0.023609 19 21 106
0.006300 -0.323165 -0.045883 23 31 123
-0.113679 0.036248 -0.001557 30 30 30
-0.063185 0.238605 -0.088370 42 22 30
-0.017219 -0.331400 0.050904 28 30 30
0.096324 0.359196 -0.022670 253 253 252
0.121149 0.356197 0.057038 252 252 253
-0.112960 -0.009986 0.071864 247 248 248
0.611788 -0.366245 -0.026878 251 251 252
-0.110039 -0.007739 0.050631 28 28 29
0.039667 0.342175 0.001200 254 254 254
-0.081434 -0.220802 -0.110693 31 32 32
0.182471 -0.376488 -0.025299 242 244 245
-0.110057 -0.119061 0.093557 231 234 232
0.255769 -0.380480 0.011570 226 227 226
0.217384 0.356327 0.007357 252 253 251
-0.071060 -0.235331 -0.018534 34 44 122
0.534674 0.357027 -0.004669 252 252 253
-0.013383 0.321305 0.038398 28 29 28
0.153771 0.353861 0.034823 163 163 163
-0.008902 0.321954 0.065352 27 29 30
0.113698 -0.368180 0.024304 250 250 251
-0.017882 0.311481 0.031245 27 28 32
0.135161 -0.361314 0.052618 28 26 28
-0.005287 -0.328703 -0.037824 26 36 133
-0.064548 -0.219232 0.085413 34 32 35
-0.122824 0.104224 0.005711 31 36 108
0.091109 -0.367807 0.020939 83 94 104
-0.065891 -0.278070 -0.096723 221 221 220
0.291635 0.371851 -0.003350 42 52 96
-0.104664 0.128016 0.095413 30 29 33
0.073599 -0.347597 -0.009854 28 28 29
-0.112222 0.140113 0.082712 30 30 29
-0.112832 0.191371 -0.103883 30 31 28
-0.112816 -0.052667 0.027157 32 28 32
0.000654 0.317432 0.041874 29 28 31
0.346313 -0.379428 -0.039920 251 251 252
0.425988 0.369839 0.005002 252 253 253
-0.112039 0.141958 0.027080 23 25 99
0.612789 0.354212 -0.028146 253 252 253
0.428973 0.369498 0.010365 25 22 27
0.012658 0.319820 -0.044317 27 27 26
0.042743 -0.345624 0.075883 29 28 29
-0.036701 0.281070 -0.075615 32 22 30
0.230553 -0.369959 0.038387 253 254 254
0.051262 0.330152 0.074204 32 27 25
0.161788 -0.368917 0.056078 251 250 251
0.074273 0.358913 0.031304 252 253 252
-0.135589 0.051655 -0.018488 28 27 29
-0.020294 0.310134 -0.058284 196 197 196
0.131635 -0.369830 0.025875 28 27 27
0.053138 -0.343288 -0.013313 204 204 203
0.415484 0.363354 -0.003397 253 252 252
-0.110301 -0.189212 -0.097764 234 235 235
0.599323 0.357142 -0.037007 252 252 252
-0.070974 0.203906 0.088573 26 26 28
0.324939 -0.377885 -0.028148 253 254 254
-0.109191 0.197884 0.084136 32 34 36
0.083381 0.358419 0.040509 248 249 249
0.272908 -0.378129 -0.023253 225 226 225
-0.068083 0.270932 -0.092673 31 30 30
0.416892 0.361777 0.018577 254 254 253
-0.021959 0.306067 0.018953 26 31 40
-0.103817 0.167258 0.077083 30 35 112
0.231958 -0.366658 0.011009 215 216 214
0.074037 -0.353335 0.056564 252 253 254
-0.094486 -0.183144 -0.068379 29 27 108
0.208935 -0.365487 -0.019592 252 254 252
-0.115719 -0.077864 0.089285 244 244 245
0.193041 0.355853 -0.006080 199 199 200
0.531078 0.356889 0.005259 24 25 61
0.486706 -0.376904 -0.047914 31 36 75
0.226927 0.358960 0.001468 180 180 181
-0.000463 0.311548 0.044464 182 183 182
0.303539 -0.379114 -0.021174 254 254 254
0.119811 -0.357388 0.047689 221 223 221
0.033675 -0.340151 -0.014694 34 35 31
-0.109359 -0.120038 -0.080740 247 248 249
-0.116707 0.079892 0.070925 35 37 38
-0.036909 0.272954 0.086607 184 185 182
0.280972 -0.378816 0.010942 248 249 249
0.278048 0.362325 -0.010319 174 175 174
-0.089581 -0.252177 -0.097084 220 220 218
0.050322 0.352444 0.018680 202 203 201
0.358929 -0.373665 0.001390 252 252 253
0.304793 -0.369674 -0.017615 254 254 253
-0.069913 -0.277766 -0.071848 51 63 98
-0.024441 0.319118 -0.018155 29 32 31
-0.124896 0.067162 0.067018 30 31 125
-0.085738 0.189734 0.096475 167 168 166
-0.065930 0.215988 0.094172 29 28 30
-0.000976 0.301269 0.067571 184 183 181
-0.121915 -0.081863 0.045632 31 30 33
-0.014367 -0.311205 -0.000447 28 41 130
0.499848 -0.371281 -0.024744 28 27 30
0.541503 -0.376912 -0.035633 253 253 251
-0.133835 0.035396 -0.012664 219 218 219
-0.056137 -0.255076 0.066832 38 52 138
0.034949 -0.355582 0.015901 239 239 240
-0.028250 -0.280100 0.094711 29 31 34
0.555369 0.365290 -0.025024 253 254 254
0.086317 0.346037 0.009480 251 253 252
-0.115586 0.154795 -0.106066 28 27 27
0.128833 -0.368649 0.028683 254 254 255
-0.024687 0.305525 0.020939 24 29 41
-0.035757 -0.281838 0.010805 42 58 148
-0.131813 -0.064080 0.038083 237 237 237
-0.134797 0.027879 0.007383 218 219 217
-0.026267 0.305279 -0.058061 182 181 181
-0.017585 -0.332513 -0.000046 32 32 32
-0.110008 0.151024 0.039323 23 27 98
-0.070132 0.250001 0.094499 178 179 178
0.084592 -0.367189 0.007814 228 227 229
0.052846 0.349909 -0.020912 235 236 236
0.226314 0.359596 0.048074 252 253 255
-0.010980 0.306942 0.076564 182 182 182
0.218904 0.362219 -0.028279 251 252 250
0.625451 -0.369195 -0.052324 20 21 56
0.299710 -0.378921 -0.036364 245 246 247
0.000018 0.313646 0.036786 28 29 32
-0.122555 -0.144178 0.093334 244 246 246
-0.113062 0.147458 0.092392 157 157 153
-0.038755 -0.281455 0.050211 25 41 133
-0.095396 -0.196366 0.083637 28 35 122
0.078723 0.351804 -0.021537 247 248 248
0.125250 -0.371280 -0.003249 250 252 250
0.437019 0.371785 0.002130 250 249 249
0.059853 -0.356883 -0.008956 254 253 254
0.163154 -0.373461 -0.015445 81 92 100
-0.106890 -0.116083 0.084178 28 33 93
0.105906 0.353243 0.000880 164 164 165
-0.075133 0.222434 0.080176 28 34 34
-0.065790 -0.284894 0.079808 33 32 34
-0.060580 -0.247310 0.057733 38 51 136
-0.122288 0.125314 -0.025579 22 24 105
-0.129053 0.054477 0.050562 29 32 123
-0.117154 0.120854 -0.009031 31 36 104
0.040578 -0.354011 -0.010307 250 250 251
-0.000951 -0.323748 -0.046568 35 37 64
0.085043 0.351986 0.006988 33 32 30
-0.093645 -0.202729 -0.109500 29 29 29
0.264095 0.365128 -0.009256 251 253 252
-0.090547 0.183656 -0.103128 36 33 29
0.543735 0.357149 0.003863 253 252 251
0.132018 0.364397 0.046461 254 255 255
-0.012536 -0.337121 -0.048180 30 32 32
-0.085280 0.218188 0.013493 30 39 73
-0.120584 0.074453 -0.077553 30 29 28
-0.121023 0.089863 0.009279 28 32 100
0.347031 0.366440 0.040723 255 254 254
-0.131527 -0.020136 0.049504 33 30 31
0.204190 0.370690 -0.006101 253 252 253
0.327141 0.361059 -0.021937 252 251 253
0.243034 -0.369510 -0.009930 253 253 252
0.191355 0.370484 0.015056 248 249 249
-0.135374 -0.056762 0.046751 235 236 238
-0.077586 0.247797 -0.101188 33 31 32
0.548727 0.356833 0.005992 255 254 253
-0.112528 0.110168 -0.088957 28 27 27
-0.128176 0.121743 -0.092305 32 33 31
0.597055 0.358899 -0.017472 28 26 35
-0.115725 0.068426 0.018505 35 42 65
0.249569 0.371064 0.035106 252 254 252
0.234793 -0.379459 -0.023000 203 201 200
-0.085716 -0.175417 0.094884 228 226 227
0.636189 -0.367675 -0.057345 253 254 253
-0.038818 -0.284770 -0.065884 35 44 142
0.591925 -0.369391 -0.067678 29 25 28
0.107599 -0.355705 0.013795 253 254 253
-0.134515 0.027717 0.008248 243 245 246
0.018693 0.320608 -0.041248 188 187 187
0.246008 0.360933 0.044913 253 253 252
-0.115339 -0.097602 0.037598 24 28 117
0.132954 -0.365068 0.015600 253 253 255
-0.105779 -0.068296 0.012456 229 230 229
-0.060141 -0.288498 -0.079833 29 29 31
-0.113845 -0.107527 0.025267 23 24 110
0.133034 0.347079 0.042889 253 254 254
0.069896 -0.349423 0.014614 27 25 26
0.204844 -0.376323 -0.016731 227 228 227
-0.126052 0.066188 -0.062794 204 204 204
0.057312 0.336791 0.016269 23 22 23
-0.082317 0.235812 0.089385 29 32 30
0.275884 -0.381528 -0.024968 251 254 253
0.044921 0.334072 -0.002532 25 25 27
0.143829 0.351842 0.034737 247 248 248
0.098858 0.346784 0.031440 252 254 253
0.038793 -0.339016 0.054732 227 227 228
-0.133180 -0.016234 0.046452 32 34 33
-0.106256 -0.128444 -0.066057 27 27 27
0.016552 -0.321468 0.061949 28 26 27
-0.104718 -0.098914 0.092046 252 251 252
-0.114279 0.133031 0.080966 29 30 32
-0.081899 0.229517 -0.001033 24 32 82
-0.125808 0.070670 0.028098 31 35 114
0.068001 0.353953 -0.018982 251 251 252
0.222879 0.363907 0.045222 217 217 217
-0.112731 -0.134021 0.093913 251 251 252
0.243072 -0.372041 -0.036252 251 253 252
-0.097886 -0.214059 0.086184 230 230 231
-0.111845 0.017777 0.038129 217 216 217
-0.112877 -0.028123 0.039417 28 26 28
0.391039 0.371771 -0.025666 25 24 28
0.423923 0.371461 0.031922 253 254 252
-0.111574 0.145037 0.009821 23 25 91
0.046923 -0.352313 -0.012530 200 200 200
-0.011509 -0.320210 0.088156 75 94 144
0.269082 -0.377897 0.038287 253 254 252
-0.014422 -0.310488 0.045341 30 44 135
0.371670 0.363430 0.013599 251 251 252
0.069423 0.343245 0.060144 254 254 254
-0.122132 -0.139365 0.091905 31 32 34
-0.054953 0.247174 -0.096088 32 31 31
0.594051 -0.370120 -0.071426 255 255 254
-0.044257 0.292225 0.084502 171 171 169
-0.042648 -0.289381 0.039374 28 44 128
0.123459 0.364269 -0.022882 245 246 247
-0.115657 0.097039 0.007125 26 28 89
0.527276 0.359009 0.005037 255 255 254
-0.104845 -0.155978 0.045796 28 33 118
0.568310 -0.369938 -0.068564 25 25 27
-0.118892 0.129599 -0.066794 24 25 80
-0.046358 0.268649 0.074428 22 27 92
0.127313 -0.368439 0.019386 251 253 252
-0.044555 -0.281709 0.081952 225 226 226
0.301960 -0.380679 -0.010721 190 189 190
-0.083849 -0.216232 -0.108240 30 29 31
-0.065116 -0.236727 -0.103535 30 27 28
-0.117224 0.134022 -0.017073 42 53 124
0.267762 -0.376858 0.038469 176 176 176
0.086803 -0.364934 0.020301 251 252 252
0.147579 -0.356497 -0.020704 251 251 250
0.017331 -0.325967 0.075787 28 26 28
-0.112592 -0.076802 -0.033911 30 29 29
0.554953 0.359519 0.018822 254 254 253
0.161029 0.353734 0.005161 251 251 252
0.063520 -0.357476 -0.006962 197 197 196
-0.025739 -0.306933 -0.031348 25 31 132
0.067655 0.343620 0.013825 254 255 254
-0.007366 0.323882 0.045153 27 29 27
0.300690 -0.375734 0.019560 254 254 253
-0.024043 -0.283890 0.088421 217 217 216
-0.045084 -0.273891 0.100178 55 78 134
0.631966 0.349125 -0.015015 253 253 254
0.108340 0.359551 -0.019720 225 224 225
0.147747 -0.371120 0.052513 248 248 248
-0.115769 0.119184 0.013775 20 23 98
-0.026989 0.318490 -0.044182 26 27 27
0.492143 -0.379603 0.008102 251 252 251
-0.083932 0.219394 0.047840 27 30 83
0.249633 0.363384 -0.022506 250 251 251
0.353016 0.361212 -0.020351 252 252 253
0.210362 0.364359 0.050466 248 249 250
0.358665 -0.378081 -0.045488 255 254 255
0.522586 0.359594 -0.000423 255 254 254
-0.009754 0.296426 -0.069352 168 169 168
0.294655 -0.377870 -0.040615 253 255 254
0.072578 -0.366165 0.013346 193 192 192
0.004296 0.303976 0.059877 26 26 28
0.249648 0.358509 0.010683 254 255 254
-0.122342 0.094196 0.015407 20 23 116
-0.041187 -0.300042 0.076659 214 215 214
-0.127536 -0.083153 0.048259 241 242 243
-0.101721 -0.230009 -0.109563 221 222 221
0.062063 -0.346070 0.001653 223 225 225
-0.085272 -0.204608 0.076717 27 39 132
0.044209 -0.358135 0.021142 251 252 250
-0.116808 0.131920 0.061325 23 25 116
0.137644 0.360772 -0.022142 215 217 217
0.123529 0.364591 0.001041 253 253 253
-0.011224 -0.333109 0.044432 30 32 33
-0.073559 -0.226160 -0.044374 26 34 126
0.537718 -0.371336 -0.045223 28 23 25
0.203892 -0.375927 -0.009355 219 217 216
-0.000182 0.301050 0.041212 20 24 88
0.160193 -0.374397 0.024268 208 208 209
0.462263 0.369296 -0.005676 253 254 253
0.545882 -0.372135 -0.027183 251 253 252
0.226352 0.358296 -0.014458 178 178 179
0.029997 -0.336000 0.004003 72 92 151
-0.108024 0.187335 0.096508 38 37 39
0.585340 0.353593 0.001956 251 252 252
-0.027827 -0.311318 0.079448 96 110 133
-0.028474 0.310421 0.062271 30 31 33
0.307550 0.374581 -0.009601 23 23 37
-0.130951 0.084278 -0.078850 30 29 29
0.278468 -0.377405 0.007874 207 206 205
-0.064126 0.231894 -0.094981 31 28 31
-0.086794 -0.212674 -0.094978 30 30 29
0.139262 -0.361046 0.046377 167 168 164
-0.054250 -0.260251 -0.094532 215 215 213
0.001212 -0.324943 -0.036409 211 213 213
0.143892 -0.359160 0.000596 253 254 253
0.133507 0.365490 -0.013450 253 253 253
-0.025902 -0.318569 -0.076261 203 205 204
0.355606 0.371016 0.040126 252 254 252
-0.024209 0.306886 -0.044385 29 32 33
-0.013383 0.287025 0.085683 26 27 30
-0.084028 -0.215139 0.021888 32 42 142
0.390859 -0.376190 0.020604 250 250 250
0.085079 -0.367449 0.005021 130 132 131
0.195989 -0.363091 0.046858 222 222 220
0.586837 -0.371144 -0.073434 29 27 27
-0.060920 -0.245366 0.081700 33 32 37
0.296722 -0.371272 0.035561 252 252 252
0.059695 -0.352029 0.041158 42 74 150
-0.043975 -0.280985 -0.068242 32 33 33
0.000144 -0.325861 -0.004629 53 71 143
0.272785 -0.381969 0.037730 254 255 255
0.259134 0.371761 0.021715 252 253 254
-0.092652 0.201017 0.062507 18 22 97
-0.127394 0.114296 0.080241 202 204 202
0.000617 0.308242 -0.049436 183 182 181
0.428869 -0.373145 -0.048337 29 28 27
-0.122484 -0.154601 0.082141 239 241 242
-0.097523 -0.234976 -0.094001 44 45 45
-0.090275 -0.190119 -0.106634 33 33 31
0.566373 0.355235 -0.020458 23 24 62
-0.029054 0.316920 -0.066275 29 31 29
-0.056333 -0.278257 0.094149 220 220 219
0.109368 -0.365815 0.056501 252 252 255
0.055630 -0.355597 0.023732 38 65 131
-0.132738 0.053949 0.073257 34 36 37
-0.122596 -0.063278 0.080504 28 27 29
-0.130318 -0.067518 0.057365 252 252 252
0.215572 0.368909 -0.021845 219 219 220
-0.127200 0.060188 -0.016288 19 19 95
-0.011318 -0.320014 0.075944 53 74 152
0.137070 0.366633 0.005952 215 213 215
-0.117253 0.113765 0.018932 20 23 107
-0.079993 -0.226899 0.025057 22 28 113
-0.084074 -0.190842 0.099896 225 227 227
-0.087414 0.172014 0.087729 30 30 33
0.062472 -0.364245 0.034435 197 198 198
0.539212 -0.377021 -0.025596 25 23 25
0.530965 0.365120 -0.032638 253 255 254
-0.059080 0.275040 -0.099333 28 30 26
-0.054661 -0.301398 -0.082634 29 30 31
-0.093888 0.228851 0.086966 171 169 168
0.244598 0.371846 -0.009867 193 195 194
0.603415 -0.375607 -0.011637 252 253 253
0.481207 0.361623 -0.032829 26 25 28
0.019539 -0.330828 0.046239 26 26 28
-0.010459 -0.314912 -0.049241 26 32 136
0.520939 0.354808 -0.000495 252 252 253
-0.005797 -0.321233 0.063939 43 64 138
0.232999 0.358755 -0.003537 194 193 194
-0.105149 0.143047 0.082607 40 55 129
-0.029541 -0.317897 -0.048568 209 210 210
-0.066755 0.228487 0.095811 26 29 29
-0.110046 0.057508 0.070002 28 30 30
0.143157 0.361908 0.051839 253 253 255
-0.079212 0.206583 -0.097754 31 32 32
0.528788 -0.370933 -0.053929 251 252 253
-0.111405 -0.135429 -0.083433 28 23 108
0.579343 -0.374428 -0.043227 253 253 252
-0.093022 0.210326 -0.016514 22 27 80
0.586426 0.353943 -0.003917 252 252 252
-0.115550 0.136029 -0.046720 27 31 99
0.561197 -0.374640 -0.028812 253 255 254
-0.092332 -0.204197 0.046720 38 49 140
0.503345 0.363482 -0.033025 254 254 255
-0.114419 -0.127533 0.017076 18 22 109
-0.118314 -0.118725 -0.089611 31 32 31
0.632407 -0.366238 -0.056451 253 254 255
-0.108403 0.124165 -0.093689 29 28 28
-0.078026 -0.237531 0.022768 29 36 128
0.201740 0.371333 0.012910 213 213 211
0.035189 -0.334520 0.084497 87 107 150
0.258905 0.370208 0.022331 177 176 176
-0.111304 -0.146793 0.097898 243 244 245
0.073267 -0.359553 0.058823 250 252 252
0.144227 -0.367304 0.021235 252 252 253
0.028326 0.344168 0.045176 205 206 207
-0.017238 0.319542 0.015702 27 26 28
0.432870 -0.375031 0.018955 251 250 251
-0.060853 -0.278876 0.097811 229 230 229
-0.079451 -0.230774 -0.073486 33 38 57
0.038868 -0.346166 0.031587 36 54 131
-0.098564 0.137234 0.080196 37 35 38
0.030136 0.344239 0.049562 30 28 31
-0.047501 -0.254271 0.084036 218 216 218
0.059998 -0.341000 -0.024540 249 250 249
-0.127513 0.079349 -0.031062 24 23 93
-0.124333 -0.109219 0.071165 235 235 236
-0.131628 -0.106826 -0.062967 246 247 247
-0.021747 -0.303262 -0.083256 207 207 206
0.046544 0.337703 0.058990 253 253 251
-0.043125 -0.271405 0.099212 217 218 218
-0.104727 0.177211 -0.017613 30 35 88
-0.046842 -0.288810 0.048540 26 39 123
0.154776 0.352048 0.027077 253 253 251
-0.116789 0.118686 0.045244 27 31 111
0.271849 0.359321 -0.004740 176 176 176
0.561998 -0.371844 -0.067387 253 254 254
-0.007015 -0.333047 0.067165 200 198 199
0.238798 0.361451 -0.023891 185 185 185
-0.121836 0.098658 0.030129 25 27 99
-0.122723 0.084323 -0.023210 32 34 104
0.547945 -0.368744 -0.065280 27 28 30
-0.101070 -0.176061 -0.008170 23 28 121
-0.058001 -0.242819 0.068572 24 28 84
-0.098955 -0.227011 -0.089701 32 33 33
0.340130 -0.367548 0.016654 247 248 249
0.259421 -0.374748 0.004824 170 170 170
-0.000166 -0.337908 0.061316 63 85 155
-0.126788 0.072153 0.014236 20 23 106
-0.098188 -0.193912 -0.033909 21 24 124
0.128527 0.365510 -0.019798 253 254 254
0.216356 -0.378711 -0.027249 251 252 251
-0.128929 -0.006821 0.079037 222 223 221
-0.049286 0.278862 0.002172 25 26 77
0.419008 -0.383553 -0.006838 245 246 246
-0.111951 0.109216 0.082849 40 49 131
0.501345 0.366773 -0.020806 252 253 253
0.077923 -0.364971 0.042059 200 199 198
-0.038911 -0.274478 0.093002 227 230 229
-0.116253 -0.142005 -0.055351 22 22 112
0.012645 -0.333121 -0.019646 204 206 204
0.240887 0.357523 -0.006787 249 251 250
0.406160 0.366340 -0.027730 251 251 254
0.230598 -0.375504 0.043751 254 255 254
-0.093227 -0.207506 0.063678 22 29 119
0.009289 0.307785 0.080670 184 183 183
-0.119143 0.141495 -0.035547 34 41 91
-0.106169 0.160427 0.078520 23 27 103
0.257294 0.370568 0.015802 251 253 251
-0.102104 -0.109890 0.084639 31 31 31
-0.035751 -0.320807 -0.074122 33 33 33
0.076139 -0.359404 0.057306 163 164 161
-0.111359 0.121729 0.000641 25 31 111
-0.041272 -0.303267 -0.073846 29 33 113
0.401104 0.371768 0.038290 252 252 254
0.213852 -0.371337 0.046105 195 193 194
0.083620 0.347228 0.058731 25 24 25
-0.122300 0.088884 0.084072 89 105 158
-0.126201 0.033332 -0.025112 35 34 32
0.330693 -0.372299 -0.036650 28 26 29
0.489167 0.363689 0.029335 253 252 252
-0.007553 -0.326042 0.063749 214 215 214
0.204100 0.354860 0.005804 249 251 250
0.083932 -0.368082 0.020842 250 251 250
0.319653 -0.371731 0.017308 253 254 253
-0.118557 -0.099757 0.022771 27 31 127
-0.110073 -0.137055 0.005734 27 34 134
0.190835 -0.375008 -0.017076 213 212 213
0.547353 0.363834 -0.022900 252 252 254
-0.105955 0.159547 -0.039403 22 25 76
0.541602 -0.376226 -0.037484 249 251 252
0.369169 0.372471 -0.029507 250 249 251
0.269201 -0.380462 -0.024906 251 251 250
0.442564 -0.379978 0.018206 253 253 252
0.546371 0.366893 -0.022415 252 251 251
0.010857 -0.345583 0.054406 27 28 28
0.015207 -0.332041 0.072665 64 88 157
-0.089711 0.224999 0.035899 30 36 86
0.014014 -0.343986 0.042353 45 68 129
0.414311 -0.375578 0.017495 253 254 253
-0.127792 0.071074 -0.041182 211 212 211
-0.132368 -0.082924 -0.034444 29 30 30
0.050012 -0.358634 0.035750 29 29 30
0.388737 0.370075 -0.029363 252 254 253
0.221243 0.362125 0.047153 250 252 251
0.022308 0.325950 -0.037628 30 26 24
0.091287 -0.375813 0.032107 193 195 193
-0.108468 -0.064224 0.016151 241 242 242
-0.107747 0.092048 0.081543 32 34 35
-0.105931 0.028494 0.081530 30 29 30
-0.062057 0.258018 0.067321 27 33 74
-0.116467 -0.127831 -0.003063 22 24 112
-0.088841 -0.218342 0.036143 22 29 122
0.491019 -0.370147 -0.052217 252 252 252
0.062568 -0.360832 0.031738 26 26 27
-0.110579 -0.121379 0.055610 26 25 103
-0.101258 0.180875 0.085845 30 35 109
0.004703 -0.328134 0.019268 34 53 145
-0.076502 -0.228299 -0.003604 25 31 120
-0.050692 -0.289021 -0.052764 22 26 122
-0.080391 0.221879 0.076023 20 26 99
-0.003816 -0.323849 0.018635 34 52 139
-0.064687 0.250213 -0.084925 188 185 186
-0.129148 -0.049611 0.069570 27 28 29
-0.100459 -0.105770 0.088724 30 31 31
0.073110 0.337616 0.066301 33 26 27
0.277813 -0.379137 0.035271 225 224 223
0.241099 0.371067 0.039631 194 194 193
-0.132105 -0.088980 -0.056830 30 31 29
-0.074750 0.236557 -0.024519 32 41 59
-0.072775 -0.248379 0.072641 43 58 140
-0.116935 0.054199 -0.031556 32 33 32
0.534010 0.363944 -0.017773 35 41 79
0.216659 -0.363241 0.023331 211 211 210
-0.032546 0.297778 0.084319 29 29 30
-0.088211 -0.183513 0.059410 34 44 125
-0.103730 0.211378 -0.101743 29 30 30
0.130575 -0.353074 -0.028831 252 253 255
0.146387 -0.357564 0.040972 252 253 253
0.027501 0.337307 -0.002676 192 192 191
0.406532 0.363614 0.003252 254 253 255
0.277158 -0.370290 -0.022090 251 252 251
0.305209 -0.381820 -0.035677 251 253 253
-0.052572 0.280304 -0.091073 37 38 37
0.216914 0.371410 -0.017273 201 201 201
0.257734 -0.376946 -0.031690 187 186 185
-0.075751 0.219594 -0.104243 34 32 36
-0.108767 -0.169673 -0.041055 31 35 118
-0.117519 -0.148437 0.080143 237 239 239
0.529407 0.366893 0.020332 252 254 253
-0.074455 0.262360 0.076907 28 31 31
0.043744 -0.354551 0.033669 203 205 204
0.021164 -0.336034 0.048656 30 30 29
0.232825 -0.378146 0.009851 203 204 205
0.496412 0.360713 -0.033207 253 253 252
-0.109954 0.160963 0.005368 30 36 100
0.262068 0.371622 0.012261 187 186 187
0.370340 0.364379 -0.032703 28 24 28
0.241103 -0.379042 0.004164 202 202 203
0.218929 0.354376 0.049345 253 252 254
-0.059896 0.280344 -0.062996 29 32 33
-0.073277 -0.248625 0.085573 224 226 224
-0.056505 -0.259864 0.044755 23 36 113
-0.024865 -0.294871 0.030119 22 33 126
-0.092874 -0.192529 0.072612 32 33 60
0.372217 0.370748 0.020624 252 253 252
0.132995 0.358510 0.021709 190 190 190
0.326250 0.361467 -0.024643 251 253 251
-0.002336 0.309877 -0.059083 41 29 30
-0.061333 -0.283629 -0.085875 38 43 87
-0.038172 -0.315228 -0.067436 32 32 33
-0.113042 0.112652 0.064236 43 56 125
0.162739 0.351198 0.046815 249 250 250
-0.124564 0.149692 -0.089050 161 160 159
0.261815 0.370415 -0.029470 252 253 251
0.187460 0.363023 0.042172 30 28 30
0.149346 0.352311 -0.007764 221 222 222
-0.058394 -0.287983 -0.100751 53 34 40
-0.051027 -0.270227 -0.021340 31 38 132
-0.021091 -0.293188 -0.040206 36 48 135
-0.110964 0.110131 -0.075331 30 29 32
-0.031703 -0.295454 0.025844 40 55 144
0.180474 -0.376502 0.042105 198 199 198
0.042623 0.346461 -0.013483 246 247 247
-0.051068 0.280031 0.087295 182 182 183
-0.124815 -0.108874 0.082881 250 251 250
-0.113164 0.147774 0.054078 33 37 121
0.369308 0.363314 0.039504 253 252 253
0.129874 -0.354265 -0.024563 218 218 218
-0.004489 -0.336116 -0.022901 203 203 202
-0.065719 -0.237651 -0.106919 32 30 30
0.083367 -0.350704 0.022266 252 253 254
-0.058293 -0.284634 -0.081145 232 232 233
0.132553 -0.355089 -0.011003 246 247 246
-0.118228 0.113308 0.023797 26 32 100
0.520077 0.359406 -0.027458 252 254 253
0.203524 -0.375276 -0.028717 251 253 252
0.143227 0.352136 0.028801 232 233 233
0.485433 -0.377994 -0.013074 254 255 255
-0.113358 -0.053258 0.033034 232 232 231
-0.108798 0.012419 0.057327 32 32 32
0.060988 -0.347945 0.017292 35 55 120
0.292497 -0.373687 0.034342 223 223 222
0.222971 0.357964 -0.000472 174 173 174
-0.045892 0.294516 0.085269 177 177 177
-0.071717 0.212462 0.079699 46 44 48
0.050128 0.331889 -0.033514 165 167 168
0.015398 0.324554 0.075057 28 28 27
0.282308 0.361769 0.037492 253 253 253
-0.113007 0.130139 0.080310 20 22 115
0.201047 -0.368573 0.039196 181 180 181
-0.133117 0.026809 0.011200 214 213 212
-0.094125 -0.217237 -0.040656 26 29 118
0.239098 0.368741 0.044811 253 252 254
-0.119469 -0.164420 -0.078251 34 31 33
-0.006329 -0.317739 0.067274 48 67 100
0.075064 -0.363122 0.051386 192 191 191
-0.109918 -0.133068 -0.080834 24 23 90
0.060974 0.346844 -0.011925 228 228 228
0.286436 0.366455 -0.025490 184 184 184
0.489138 0.366453 0.026251 254 253 252
0.204688 -0.363769 0.051563 191 190 191
-0.110275 0.142985 0.089461 190 190 188
-0.098531 0.231005 -0.098938 32 32 32
0.597559 -0.376102 -0.015752 252 251 252
0.363964 0.371896 0.008336 253 253 253
-0.135080 0.093590 -0.083200 33 33 34
-0.005807 -0.306589 0.088498 201 202 202
0.108672 0.348390 0.054693 218 217 217
-0.106145 0.185668 0.076208 42 52 122
-0.114928 -0.132636 0.025689 23 24 127
0.016112 -0.336532 -0.016356 31 44 138
0.181380 -0.357681 0.002484 221 222 220
0.212069 -0.365884 0.017987 221 221 221
-0.011593 -0.312417 0.051961 32 46 128
0.222046 -0.367404 -0.015491 204 203 204
-0.125008 0.110509 -0.067863 26 34 64
-0.117264 0.043275 0.085254 252 252 252
-0.132296 -0.002722 0.060854 230 231 232
-0.125250 -0.111995 -0.031902 26 26 122
-0.007880 -0.329415 -0.027564 33 44 122
0.558237 0.355626 0.009444 26 26 30
-0.069216 0.269656 -0.090924 30 32 30
0.206892 0.368117 -0.009686 188 188 189
0.188987 -0.374475 -0.022119 254 255 255
-0.009135 0.283823 0.081533 27 28 31
-0.069689 0.262056 -0.089160 75 72 75
0.191622 0.355603 -0.002105 251 254 252
-0.088597 0.192452 0.070927 25 27 75
0.456590 -0.379555 -0.029727 250 252 252
-0.054088 0.273988 -0.016602 31 37 55
0.128799 -0.370762 0.051634 252 254 253
-0.114982 0.030717 -0.029421 29 29 29
-0.111492 0.049570 0.062409 64 71 74
0.090089 0.345913 -0.002043 254 254 252
-0.097401 -0.196123 0.044380 26 33 120
-0.052489 -0.259668 0.072726 34 45 101
0.284393 -0.374601 0.035974 253 254 254
0.175045 -0.374276 0.018744 252 253 252
0.174895 -0.364636 -0.032255 251 252 252
-0.114613 0.028275 0.011411 218 219 217
0.535741 0.356014 -0.038223 252 253 252
0.208815 -0.369716 0.039448 253 254 254
0.026370 0.345651 0.001296 33 26 31
-0.076136 -0.239534 -0.066807 24 31 133
0.199372 -0.376362 0.024344 252 254 254
-0.104232 0.162853 0.040005 29 31 103
0.547175 0.356861 0.002401 253 252 254
0.400196 -0.374827 -0.045842 26 23 27
0.074513 -0.354313 -0.016569 187 186 185
0.083196 0.359935 0.039512 247 248 248
0.061661 0.354723 0.043190 249 250 251
0.591731 0.358395 -0.040709 251 251 252
0.617885 -0.368960 -0.069362 255 255 255
-0.120296 0.128462 -0.022538 18 20 97
0.416733 0.372399 -0.025606 254 254 255
0.542695 0.356745 -0.038779 253 253 251
0.038430 -0.355268 0.034511 206 207 207
0.001404 0.285135 0.010445 26 40 108
0.328534 -0.378887 -0.025466 254 255 254
-0.040806 0.265648 -0.091273 172 171 172
0.029781 0.349436 0.030489 252 254 254
-0.012361 0.326220 -0.029010 31 31 33
0.260554 0.369682 0.007029 28 33 79
0.017857 0.319943 -0.054847 189 189 189
-0.068921 -0.227528 -0.053081 37 42 131
0.520938 0.367801 0.020383 24 23 52
0.245447 0.373279 -0.028202 197 197 199
-0.101496 0.165583 0.090772 31 31 34
-0.127626 0.129095 -0.084146 121 127 136
-0.117578 -0.167177 0.091782 242 243 244
0.240948 -0.382241 0.027821 251 254 254
0.244137 -0.376429 -0.010061 203 202 201
-0.097666 0.196040 0.029110 20 22 91
-0.032937 -0.292484 0.076388 26 28 28
0.133726 -0.365387 0.031302 191 191 189
-0.010225 0.294804 0.087753 30 27 29
-0.109634 0.061523 0.086060 38 38 40
-0.088542 0.212910 0.067073 19 23 91
0.077914 -0.351782 -0.012509 222 221 222
0.010773 0.312875 0.010305 28 29 33
0.245080 -0.381652 0.028678 252 255 254
0.063028 -0.355108 0.040941 251 253 253
-0.047582 0.288737 -0.074413 35 26 28
-0.132610 -0.069718 0.005325 33 30 32
0.499222 -0.369727 -0.056651 252 253 254
0.568440 0.358338 -0.035162 253 254 254
-0.131544 -0.032401 0.020487 31 34 34
0.277301 -0.368950 0.019404 212 212 210
0.578806 0.357909 0.012939 253 253 253
0.245249 0.370388 0.039186 196 195 195
-0.017011 -0.307548 0.057109 60 78 154
-0.031636 -0.298193 0.061989 29 45 129
-0.116077 -0.111803 -0.052489 30 26 100
0.107299 0.358486 0.045775 221 222 221
0.149239 0.366005 -0.008024 251 252 253
-0.106896 -0.162390 0.041314 21 24 109
-0.116963 0.123055 0.035587 24 29 109
-0.083662 -0.193591 0.095788 29 42 100
-0.064131 -0.227975 0.085446 29 28 31
-0.072669 0.267248 -0.089410 28 31 31
0.214100 -0.376793 -0.003409 251 252 250
-0.043404 -0.276325 0.095858 209 210 209
-0.073116 0.256408 0.081884 29 30 31
-0.031309 -0.298903 0.057367 32 45 128
0.482598 0.360074 -0.032723 28 27 27
0.289853 -0.374155 0.035440 253 252 253
-0.019379 0.322337 0.062854 28 31 30
-0.091460 -0.211095 0.087680 239 239 240
-0.093697 0.225304 0.095939 28 29 30
