ply
format ascii 1.0
element vertex 1210
property float x
property float y
property float z
property uchar red
property uchar green
property uchar blue
end_header
0.306143 0.328988 -0.015070 250 251 251
-0.051760 0.253186 -0.012175 77 90 113
-0.061143 0.266903 -0.010706 53 61 60
-0.083371 -0.068273 0.008295 89 110 152
0.213439 0.335645 -0.018422 249 250 250
-0.061147 -0.232601 -0.014270 64 81 146
0.049636 -0.322419 -0.023731 252 252 253
-0.066572 0.221954 0.069389 100 112 128
0.031879 0.319545 0.060306 246 246 247
0.127026 0.326893 0.056334 183 183 182
-0.083962 -0.062432 0.032390 60 66 61
-0.053977 0.281831 -0.008173 245 247 247
-0.090050 -0.064140 0.052936 69 73 72
-0.050164 -0.222199 -0.077557 82 66 66
0.218917 -0.344650 0.041009 254 255 253
-0.011721 -0.301532 0.050341 117 134 159
0.400062 -0.360403 0.023273 253 255 255
0.500223 0.330438 0.014993 252 254 252
-0.100334 0.069268 0.065125 69 72 69
-0.067746 -0.187415 0.073996 66 73 99
-0.085689 -0.071042 -0.028651 61 61 63
-0.043212 -0.259683 0.050354 71 82 105
0.036179 -0.299874 0.034851 194 195 192
-0.082478 -0.111260 -0.040005 80 98 136
0.258184 0.326855 0.040309 251 251 250
-0.077130 -0.264760 0.001470 83 107 163
-0.081063 0.145260 -0.087574 131 140 155
-0.060814 -0.279250 -0.028094 246 247 246
0.458640 -0.357523 -0.027410 254 254 254
0.068242 -0.331116 0.011887 252 252 252
-0.091411 0.085310 -0.022739 66 78 130
-0.068643 -0.278325 0.020053 67 82 148
-0.069754 -0.249024 -0.079357 66 66 64
0.410104 0.336627 0.007358 251 252 252
0.154224 0.334498 0.052290 253 254 252
0.133471 -0.342414 0.039890 252 251 251
-0.100016 -0.049011 -0.009473 250 251 252
0.282316 -0.349496 0.007270 250 251 250
-0.095671 0.197530 0.070680 59 63 66
0.195495 -0.347459 -0.013403 201 201 200
-0.087018 0.062244 0.062063 62 65 65
0.019361 -0.315975 0.006283 253 254 254
0.444136 0.328928 0.002895 252 252 252
-0.091513 0.049749 -0.001747 82 83 82
-0.058559 -0.252979 -0.039401 82 110 176
-0.089747 0.101415 -0.018215 72 88 150
0.347624 -0.358195 0.002150 251 251 250
0.401544 0.336037 -0.002164 252 253 252
-0.077842 -0.212295 -0.089332 79 84 79
-0.108035 -0.071437 -0.030000 63 65 61
0.250188 -0.353942 -0.013663 248 249 247
0.068277 0.315409 -0.010209 252 254 253
0.470609 -0.355040 -0.025288 252 252 250
-0.017975 0.297361 -0.025437 61 64 59
-0.106463 0.101596 -0.062862 69 80 124
-0.087402 -0.176133 0.068042 69 71 76
0.195457 0.331918 0.052972 252 253 252
-0.067247 0.275318 -0.043420 64 71 68
0.180642 0.324729 0.036648 249 250 249
0.058457 0.316312 0.007664 165 167 170
0.185302 -0.341637 0.047683 199 201 200
0.092590 0.321850 0.005894 176 176 176
-0.082530 -0.053517 0.022065 175 175 174
-0.078041 0.184931 -0.088147 96 119 164
-0.106679 -0.075510 -0.036477 117 124 127
-0.087725 0.237733 0.001330 62 67 94
-0.066700 0.227716 0.043124 70 88 143
-0.088949 -0.176208 0.065984 66 78 116
0.186392 -0.348884 0.031486 200 200 198
-0.041993 -0.271726 0.066711 63 68 89
0.214797 0.326585 0.041541 251 252 250
0.024127 -0.302998 -0.021270 250 251 251
-0.085558 0.130323 -0.073588 70 83 159
-0.072417 -0.142264 0.064553 64 63 63
0.178669 -0.344053 -0.021190 251 253 252
-0.107460 0.082263 -0.070441 68 69 69
-0.068953 0.226003 -0.057591 70 84 141
-0.084325 0.216994 -0.055018 67 70 74
0.294057 -0.356536 0.013547 251 252 252
-0.092139 0.226332 -0.040786 79 96 147
0.435576 -0.360199 -0.003533 253 254 252
0.412210 -0.361913 0.017173 252 253 253
-0.089247 0.052508 0.042752 66 86 161
0.048559 0.311631 0.045009 251 253 252
-0.094472 -0.163023 0.048282 61 76 137
-0.105008 -0.078636 -0.006162 65 68 69
-0.078185 0.157277 -0.088933 63 66 62
-0.064629 0.206188 -0.086503 172 173 171
-0.047123 -0.260933 -0.061935 64 64 60
-0.087404 -0.178765 -0.082061 61 71 150
0.053257 -0.313199 0.045531 160 162 160
-0.101159 0.161419 -0.063282 89 104 137
-0.069641 -0.186181 -0.084610 65 75 124
-0.043116 0.305466 0.045207 252 253 252
-0.097041 0.174287 0.071164 78 86 85
-0.107558 -0.057489 0.044983 252 252 253
0.131578 0.327714 -0.003948 200 200 197
0.073701 -0.316233 0.005492 142 145 143
-0.100016 0.161819 0.067093 63 70 80
0.412376 -0.359113 0.013917 254 255 255
0.206840 -0.348460 0.004786 209 210 208
-0.022783 0.287516 0.001941 60 67 65
0.472254 0.329462 0.000239 251 252 250
0.477904 0.329965 -0.010320 251 252 253
-0.086260 -0.041447 0.025880 55 53 57
-0.036452 0.273848 0.053559 71 73 75
0.044717 -0.312324 0.009253 218 218 218
0.374690 0.334346 -0.013846 253 254 253
-0.112589 0.060917 -0.036390 71 73 71
-0.109375 0.029574 0.026912 65 62 65
-0.077434 -0.246213 -0.016520 68 81 138
-0.005337 0.303102 0.038347 251 251 251
-0.098137 0.020753 0.047675 60 60 62
-0.095385 -0.082822 0.060615 77 66 74
-0.104147 0.153213 -0.086892 90 98 99
-0.109064 -0.059835 0.024990 76 91 140
-0.002837 0.302585 -0.004491 104 117 147
0.041886 -0.315754 -0.021253 251 253 252
-0.070245 0.207077 -0.084760 102 121 163
-0.098212 -0.076828 0.027028 58 69 140
-0.049951 -0.288999 0.025994 249 250 249
-0.017651 -0.278647 0.063355 58 58 61
-0.087768 0.180281 0.070924 186 185 183
-0.061127 -0.281342 0.032228 82 100 155
0.247415 -0.350570 0.048157 251 253 252
-0.073813 0.196714 0.060933 59 58 58
0.468190 0.330613 0.037447 253 252 252
0.094954 -0.330339 -0.016872 188 188 186
-0.023481 -0.278800 -0.019207 66 69 71
-0.090020 0.232545 -0.036125 67 73 78
0.366014 -0.360941 0.027282 250 250 249
0.205263 -0.350740 -0.020721 251 250 250
-0.091957 0.131963 -0.087646 77 85 75
-0.070239 -0.217975 -0.084668 68 81 123
-0.068758 0.197313 0.070953 188 187 187
0.032143 -0.304876 -0.020614 187 187 186
-0.103087 0.022633 0.048141 249 250 249
-0.078073 -0.243182 0.001938 74 85 105
0.466865 0.330094 0.033132 250 250 252
-0.081611 -0.138578 -0.002050 61 75 138
-0.093551 0.242471 0.009140 91 108 145
0.016602 0.312693 -0.008755 165 168 174
-0.076825 0.204156 -0.089228 91 103 126
0.496138 0.331232 0.036458 253 253 253
-0.108209 0.041436 0.060718 64 67 67
-0.110590 0.049146 -0.020625 62 62 58
-0.089394 -0.208593 -0.053035 75 95 162
-0.100330 0.141613 -0.087337 105 126 165
0.425381 -0.363383 0.018806 255 255 255
-0.106578 -0.127207 -0.006823 67 82 148
0.275640 -0.350566 -0.002032 249 249 248
0.043155 0.311262 0.008808 253 254 254
0.139348 -0.336155 0.057202 252 253 253
0.221578 0.326882 -0.014205 253 254 253
-0.098618 -0.169079 0.064122 104 110 113
-0.077912 0.247056 0.041771 86 101 126
0.347993 -0.354167 -0.020511 254 254 253
-0.047014 0.258977 0.018481 60 63 75
-0.071347 -0.159932 -0.069871 119 135 163
0.370600 0.328772 0.004084 253 255 253
-0.088460 0.241106 0.034506 119 132 156
-0.016376 -0.284843 -0.042434 110 124 145
-0.100596 0.172213 -0.087226 82 92 108
0.063839 0.312687 0.005623 250 250 250
-0.083033 0.173421 -0.092823 72 64 64
0.127734 -0.337727 0.021287 251 252 251
-0.097369 0.206641 -0.083527 84 83 87
-0.110747 -0.043341 0.017366 233 235 236
-0.055666 -0.270723 -0.066141 94 107 126
0.024179 -0.297301 0.025065 66 64 69
-0.051434 -0.298325 0.009519 241 243 243
-0.085645 0.081853 -0.066382 119 128 140
-0.072670 0.207542 -0.051602 66 80 136
-0.098055 0.191328 -0.067057 82 91 107
-0.055031 0.235470 -0.051989 74 76 85
0.108450 0.319063 -0.024211 247 247 247
-0.090369 0.053517 0.046936 63 67 70
-0.108411 0.048239 0.018642 60 72 133
-0.035116 -0.299447 0.008499 81 105 167
-0.040780 0.290459 0.004118 216 216 215
-0.100159 0.133177 -0.088879 58 60 56
-0.077578 -0.131567 -0.076385 115 132 162
-0.055667 -0.292189 -0.026946 77 89 119
0.185447 -0.339384 0.013475 248 248 248
-0.054649 -0.248942 -0.053787 74 90 146
0.067459 -0.319097 -0.028533 252 252 253
-0.093239 -0.054792 0.032380 250 250 252
0.246103 -0.353136 -0.017152 254 254 254
-0.061824 -0.282809 0.048564 74 81 87
-0.043689 -0.289195 -0.006799 66 77 115
-0.104648 0.088953 0.055862 60 72 134
0.257648 -0.347628 -0.000501 253 253 254
0.448739 -0.359315 -0.012673 251 254 252
-0.087552 -0.073010 -0.039762 83 89 86
-0.084631 -0.045652 0.011545 125 138 159
-0.012277 -0.286802 0.031527 103 121 154
-0.064416 0.295702 0.022647 62 64 65
0.373012 -0.361090 0.019165 253 254 254
0.115058 -0.331083 -0.016645 180 181 179
0.157939 -0.338103 0.036740 251 252 253
-0.092415 0.089222 -0.077026 71 66 65
-0.020680 0.300728 0.062066 252 253 252
-0.104080 0.145859 -0.088868 67 66 67
-0.103796 -0.138318 -0.057422 80 97 129
-0.017627 0.291595 0.009394 97 107 123
-0.062861 -0.223967 -0.020692 77 96 147
-0.099215 -0.147424 -0.074802 81 83 83
0.422058 -0.359857 0.005965 254 255 254
-0.076104 0.153619 0.041177 67 75 105
-0.055000 -0.286221 -0.000818 68 71 73
-0.102762 0.163812 -0.016878 67 78 112
0.399421 -0.362957 -0.006659 250 253 251
0.113734 -0.334123 -0.016524 251 252 249
0.011469 -0.298800 -0.028676 248 248 248
0.024537 0.321739 0.015126 251 252 252
-0.098888 0.018955 0.050514 248 248 249
-0.086291 -0.082759 0.059602 80 94 125
0.416215 0.329351 -0.017044 250 250 250
0.262574 0.337361 0.041312 251 251 253
-0.027739 0.295132 -0.043389 53 58 54
0.226089 -0.349308 -0.013254 252 252 252
-0.079152 -0.247970 0.012247 65 80 142
0.001338 -0.302928 0.025977 250 252 253
-0.058435 -0.267300 -0.056623 235 236 236
0.136176 0.329781 -0.016118 183 182 183
-0.068273 -0.261821 -0.076719 83 88 84
-0.084131 0.123038 0.062315 44 52 111
-0.004530 0.298428 0.022010 148 157 174
-0.094649 0.206737 -0.053553 69 79 128
0.007671 -0.311196 0.016398 142 150 159
0.245466 0.332909 -0.015677 252 252 251
-0.096781 0.145777 0.071166 73 75 79
-0.025105 -0.299330 -0.000630 105 128 175
0.234790 0.337849 0.014192 242 243 244
0.362872 -0.357330 0.026392 253 254 254
0.222395 -0.350118 -0.016896 250 252 252
0.383438 0.334127 -0.013494 252 253 253
0.286025 0.336503 0.042998 252 253 253
0.218686 -0.352922 0.050768 250 251 251
-0.097510 0.086321 0.066079 66 67 69
0.125198 -0.341071 -0.004883 253 255 254
0.054768 0.322564 0.048980 251 253 253
0.180380 0.326486 0.025972 253 253 252
-0.073482 -0.207691 -0.090521 84 87 84
0.283940 0.331208 -0.010861 253 254 253
0.433284 0.328524 0.039442 252 252 252
-0.084102 -0.186048 -0.073451 86 65 74
-0.045687 -0.265971 -0.074157 115 129 151
-0.027288 0.309543 0.011372 252 253 252
-0.058272 -0.209062 -0.076866 104 120 152
-0.028656 0.280326 0.026681 76 99 159
0.195967 0.325528 0.050529 251 251 251
0.284428 0.335660 0.004661 251 252 253
-0.104905 -0.061148 -0.007655 247 247 247
-0.001568 -0.298561 0.019455 251 251 250
0.438063 0.335761 0.019620 250 249 250
0.143939 -0.344691 0.023992 251 254 253
-0.107041 0.098688 -0.067392 83 103 156
0.348559 0.335717 0.015796 252 253 253
0.393578 -0.358642 0.018370 254 255 254
-0.080889 0.112534 0.064281 80 82 84
0.373008 0.329177 0.044485 252 252 253
-0.090426 -0.055549 0.017150 250 251 251
-0.058600 -0.223446 0.050550 71 92 161
0.031467 0.308242 -0.021816 251 251 250
-0.023455 -0.276856 -0.040976 112 125 147
-0.068680 -0.267211 -0.001356 55 68 135
-0.110798 0.027658 0.030435 227 227 226
-0.087926 0.104866 -0.065902 89 102 125
0.278333 0.329715 -0.013033 249 250 250
0.082782 -0.328007 0.059442 239 239 239
0.067696 -0.316097 -0.014191 251 253 252
-0.040637 -0.296370 -0.022404 232 232 230
0.291687 0.336604 0.034366 252 252 253
-0.076707 -0.155991 0.068273 68 87 152
0.441659 -0.362181 0.007245 250 250 249
-0.101888 -0.096361 0.067645 245 247 247
0.360363 -0.351668 -0.021754 250 253 250
0.023806 0.320050 -0.025593 252 254 252
-0.028313 0.313241 0.031285 251 252 252
-0.071717 -0.263030 -0.030994 69 79 112
-0.112251 0.089833 -0.060987 74 78 71
0.175374 -0.346176 0.053532 250 250 250
-0.106938 -0.089625 0.008157 70 73 75
-0.064398 0.205689 -0.087102 67 66 66
-0.026003 -0.290971 0.034687 244 244 244
-0.051065 0.249495 -0.004913 70 80 102
0.210024 -0.350351 -0.000502 251 251 250
0.331260 -0.356327 0.002532 252 251 252
0.436541 0.333886 0.021081 253 254 253
-0.084811 0.242274 -0.072401 76 79 81
-0.004138 -0.309300 0.006514 152 161 174
0.324248 0.336494 -0.014357 253 252 252
-0.076573 -0.218552 0.081498 246 246 245
-0.073217 0.279638 -0.024004 80 81 75
0.295817 -0.352120 0.048554 249 250 250
-0.058072 0.248691 0.061508 76 98 152
0.144098 -0.342369 -0.005956 250 251 250
-0.056923 -0.212083 0.074438 106 119 142
-0.019134 -0.299449 0.039697 92 113 157
0.438089 -0.356495 0.014795 252 252 251
-0.022542 -0.274551 0.056640 62 64 70
-0.092382 0.071011 0.015872 63 74 145
0.192045 -0.351639 0.003606 208 210 209
-0.079136 -0.121398 0.050973 74 82 93
-0.064901 -0.266950 -0.047747 226 227 226
-0.031988 -0.272389 0.049941 116 135 167
-0.017865 0.309727 -0.021510 253 254 254
0.298347 -0.355447 -0.000776 252 253 252
-0.082528 -0.214816 0.062992 98 119 169
0.129380 -0.327831 0.007717 249 249 248
-0.107059 -0.078675 0.006022 75 92 142
-0.095211 -0.184899 -0.090130 70 69 73
-0.081349 0.208199 -0.086559 173 173 173
-0.109416 0.022706 0.053042 65 71 71
0.239007 0.327393 -0.007678 252 252 253
-0.057102 -0.279700 -0.007543 67 81 138
0.212532 0.332128 0.050247 252 252 252
-0.085686 -0.094867 -0.059728 77 85 103
-0.090239 0.068305 -0.052629 106 124 157
0.015551 -0.309837 0.040222 202 203 202
0.010027 -0.294811 -0.019143 188 190 190
-0.073618 -0.162314 0.067604 67 67 71
-0.065698 -0.218004 -0.031032 63 75 144
-0.096682 0.058998 -0.046019 63 74 133
-0.077863 -0.134652 0.038026 65 71 78
-0.084955 -0.074794 0.052543 64 63 67
-0.111020 0.087652 -0.076230 69 75 71
0.256468 0.333303 -0.010226 251 254 253
-0.107341 -0.030477 0.024176 250 252 253
0.092752 0.327548 0.023853 182 183 182
-0.069673 0.215845 0.015865 73 86 118
-0.060465 -0.290325 0.028015 78 77 80
0.125781 0.332030 0.006397 252 252 251
0.273894 -0.355831 0.027164 248 249 249
-0.089851 0.072920 0.036512 57 67 104
-0.006142 0.300448 0.034125 252 254 253
-0.107122 0.032295 0.020948 241 242 244
-0.012342 -0.304543 0.064231 250 251 249
-0.049015 0.259090 0.063535 123 135 153
0.468224 -0.355418 -0.033874 252 254 253
-0.052521 0.276259 0.061483 243 245 245
0.031218 -0.317868 -0.020189 252 253 252
-0.097412 0.034012 0.042656 76 87 123
0.232307 -0.353050 0.005458 254 254 254
0.009563 -0.306199 0.025383 119 135 167
0.006018 0.317752 0.060464 250 249 249
0.139185 0.322003 -0.012172 168 169 169
0.109052 -0.326964 0.059548 252 254 254
0.192325 -0.350267 0.036163 252 254 253
0.292000 0.326386 0.003110 252 254 252
-0.082322 0.140935 0.053002 75 90 126
-0.037761 -0.271042 0.012771 90 110 154
-0.075993 0.272328 0.045993 67 76 92
0.119407 0.322999 0.019697 180 181 179
-0.078547 0.261805 -0.064875 88 93 88
-0.084733 0.248468 -0.035640 81 100 147
-0.067774 0.207976 0.053052 52 64 117
-0.094214 0.205303 -0.084209 105 120 142
-0.107840 0.025345 -0.014057 250 251 251
0.491993 -0.357341 0.014892 252 252 254
-0.091163 0.080089 0.008845 60 70 119
-0.096380 0.138784 -0.079081 76 77 76
0.452806 0.328924 0.019935 253 254 252
0.037138 0.309388 -0.003355 248 248 248
-0.103890 0.099588 0.051308 66 79 138
-0.099167 -0.127696 -0.015042 70 72 81
0.422106 0.334255 -0.016406 253 254 251
-0.045628 0.294724 0.061141 251 250 250
0.455120 -0.358472 -0.006606 251 252 252
0.438513 0.334369 -0.004892 252 252 252
-0.067587 -0.191334 0.061759 81 88 95
0.162012 -0.335649 -0.005477 250 251 251
-0.053382 0.247797 0.048307 55 60 74
-0.102234 0.013421 0.030505 253 253 253
-0.108567 -0.074168 -0.036050 64 71 96
-0.062280 0.222706 -0.072364 51 56 74
0.158807 0.329335 -0.023567 252 253 252
-0.060309 -0.200312 -0.081061 71 70 69
-0.112431 0.077854 -0.026346 85 101 139
0.420698 -0.352506 -0.030669 252 253 254
-0.077523 -0.241715 -0.018063 70 72 74
-0.067178 0.277512 -0.044090 193 194 193
-0.109410 0.022483 0.047778 240 240 241
-0.085129 0.091126 -0.066630 96 103 110
0.292360 -0.350654 -0.017690 252 253 253
-0.022374 0.310322 -0.009672 251 252 251
-0.074845 -0.156764 -0.022571 74 79 93
0.499733 0.332112 0.014099 254 253 252
0.273371 -0.351925 0.030951 249 250 249
0.148315 -0.338417 -0.021488 203 203 201
0.117003 -0.339742 0.013517 248 249 249
-0.067192 -0.273778 -0.022789 77 83 92
0.472675 0.331708 -0.015855 249 250 252
0.044440 0.312300 0.059369 252 253 253
-0.080010 0.247059 -0.036147 65 76 131
-0.086406 0.070077 -0.007820 75 76 83
-0.016082 -0.288457 0.061872 127 142 174
-0.024791 -0.299220 -0.012449 71 75 82
-0.067670 0.198121 0.071203 59 59 58
0.501972 -0.351547 -0.036538 251 252 249
0.472920 0.332727 0.031297 252 252 251
-0.051429 0.297629 -0.000014 85 72 78
0.026648 0.310400 0.057840 252 252 253
-0.075058 0.275970 0.003942 75 68 70
0.045576 -0.311204 0.002980 159 162 160
0.152382 0.323260 -0.017130 250 251 252
-0.090590 0.217904 0.056539 89 96 104
-0.063746 0.278165 0.048758 67 72 67
-0.027089 -0.272121 0.000153 82 104 147
0.186366 -0.349348 0.011837 253 254 253
0.171351 -0.349441 0.034589 251 253 250
0.077982 -0.320757 -0.024842 252 253 254
0.207785 0.325849 0.026982 253 254 254
-0.091914 0.180239 -0.006337 67 75 93
0.440038 -0.360454 0.001444 251 252 251
0.185126 0.327485 -0.012228 252 252 251
0.178995 -0.343806 0.046351 192 193 190
0.065623 -0.317793 0.058547 253 253 254
-0.060919 -0.278586 0.031886 249 250 250
0.179354 0.325584 0.056738 253 253 253
0.426789 0.330018 0.021781 250 251 250
-0.096443 -0.152763 0.000864 61 73 147
0.339781 0.331036 -0.017970 251 252 253
-0.004537 -0.301577 -0.032758 248 249 247
0.198834 0.335712 -0.001620 217 219 220
-0.089020 0.233363 0.048426 63 77 149
0.005260 0.302464 0.025686 250 252 250
0.452452 0.329114 -0.012609 252 252 251
0.489448 -0.361940 0.019651 254 254 253
-0.100327 0.189409 -0.051003 64 75 118
0.042266 -0.321924 -0.016695 251 253 252
0.185353 -0.341002 0.007591 251 251 250
-0.094054 -0.176939 0.077359 237 237 237
0.407219 -0.360971 0.019068 252 253 252
-0.101623 0.165975 -0.087118 104 112 112
0.363481 -0.351816 -0.022981 249 252 252
-0.007888 -0.289816 -0.022472 96 118 168
0.398495 -0.354006 0.014530 253 254 252
0.267255 0.331836 0.045689 252 254 254
0.016175 0.309364 0.012064 252 252 252
-0.053526 -0.265058 0.036495 62 67 71
0.362797 0.338794 -0.003521 251 254 252
-0.101207 -0.129442 -0.078284 64 65 70
-0.107329 0.035342 -0.013837 126 139 164
0.251383 0.335119 0.030569 254 255 254
-0.035644 0.288675 0.021885 249 249 249
-0.052520 0.267116 0.063460 126 135 145
0.142659 0.322028 -0.013231 250 251 251
-0.014741 -0.288383 0.034637 63 58 61
-0.073499 0.273186 0.020539 105 111 119
0.028409 -0.314578 -0.031420 127 131 130
-0.090715 0.047549 -0.017347 90 104 135
0.446952 0.336436 0.022385 254 254 254
-0.032526 -0.285235 0.064027 119 128 132
-0.034867 0.305182 -0.007324 252 252 252
-0.048399 0.290226 -0.041673 78 72 71
-0.085591 0.220939 -0.086893 58 58 56
0.079509 0.316738 -0.000793 251 252 253
-0.019884 -0.307040 0.007926 135 147 170
-0.104300 0.131539 -0.023163 68 76 100
0.215847 -0.352764 -0.012756 251 253 252
0.204130 0.324544 -0.006921 249 250 249
-0.081670 -0.067978 -0.012058 63 58 68
0.501285 0.332064 0.029223 251 252 251
-0.094042 -0.204894 -0.011696 71 85 136
0.004968 -0.293985 0.017855 65 70 64
-0.059029 -0.228301 -0.021719 63 79 137
0.252264 0.332971 0.053018 253 253 252
-0.076115 0.258810 -0.050936 67 69 74
-0.106055 0.031638 0.001296 109 115 116
-0.055040 0.235212 0.049031 61 69 70
0.085901 0.319053 0.002817 250 252 250
-0.078719 -0.205051 0.081413 62 60 72
0.135882 -0.340480 -0.000398 179 180 179
-0.029322 -0.296940 0.061728 102 110 116
-0.058622 -0.287306 -0.003212 62 65 66
-0.000791 -0.313454 -0.024423 246 248 248
0.115493 0.330358 -0.023609 250 252 251
-0.023348 -0.301005 0.004475 245 245 245
-0.086197 -0.052842 -0.005886 250 250 249
-0.034112 0.299088 0.013118 62 58 61
-0.089545 0.031255 0.002104 68 64 63
0.288333 0.339017 0.014367 252 252 252
-0.077570 0.181446 0.070792 84 96 115
-0.089215 -0.051782 0.053809 250 249 248
-0.086408 0.064953 -0.050129 93 101 111
-0.100992 0.098006 0.068507 129 145 173
-0.101057 -0.066064 0.032957 118 123 126
-0.110301 0.091123 -0.061095 94 104 113
-0.080019 0.233380 0.046913 66 68 80
0.446037 0.335127 0.013760 254 254 253
-0.075958 0.152466 0.068440 115 135 174
0.068644 0.320516 -0.021832 251 252 251
-0.087652 0.216454 0.068227 190 190 188
-0.046472 -0.292963 -0.030441 61 66 66
0.449357 -0.356359 -0.018891 252 253 252
0.315276 0.331427 0.047845 252 253 252
0.320902 -0.351516 -0.021313 249 250 249
-0.085116 -0.103471 -0.011271 68 72 74
0.038899 -0.307298 0.023385 105 110 108
0.001759 0.318582 0.039908 249 250 249
-0.025695 -0.279682 0.035470 91 110 149
0.097497 -0.324948 0.021999 249 250 251
-0.035010 -0.300075 0.064229 254 254 255
0.018375 0.320639 -0.005438 250 251 251
-0.103552 0.052917 0.057556 63 63 68
0.129577 -0.341424 0.011615 253 254 253
0.062799 0.316350 -0.002819 250 251 252
0.023317 -0.307365 0.019039 251 252 252
0.179528 -0.344908 -0.024041 250 252 252
-0.099675 0.045028 0.053781 229 230 229
-0.097825 -0.119983 -0.050296 66 68 68
-0.108074 0.049543 0.035470 71 75 74
0.025814 0.308371 -0.011600 243 245 245
0.281592 0.338412 -0.012346 252 254 253
-0.042028 0.279073 0.060728 66 69 65
0.087898 -0.326094 0.034500 170 173 177
-0.069307 0.210223 -0.040820 68 73 85
-0.095194 -0.072395 -0.032410 75 72 74
-0.049998 -0.248433 -0.046236 60 75 139
0.220772 0.324253 -0.011403 253 253 253
-0.093832 0.179643 0.030954 68 75 86
-0.065238 0.277586 0.056026 64 67 79
-0.060538 0.226821 -0.054372 94 110 136
-0.005319 -0.308902 -0.003254 166 171 178
-0.105715 -0.098922 -0.031888 71 78 76
-0.050294 0.274023 -0.061220 203 203 201
-0.109335 0.047641 0.010839 63 77 138
-0.087983 0.230555 0.057981 90 97 106
-0.104451 0.087246 -0.074804 70 72 66
-0.062583 -0.261528 0.038785 55 69 138
0.403072 -0.357235 -0.023916 253 253 251
0.069402 -0.327573 -0.008697 250 250 249
-0.104306 0.024947 0.041654 64 64 65
-0.072771 -0.130920 -0.083077 112 118 120
-0.106885 0.045081 0.042897 78 92 125
0.037682 0.313055 -0.001614 252 253 251
-0.097471 -0.055920 0.000377 66 69 71
0.477409 0.327062 0.009096 251 252 251
-0.072961 -0.259041 0.047112 85 99 119
0.066589 -0.315449 0.029806 249 250 251
-0.099055 -0.147432 -0.049411 63 78 147
0.085810 0.331069 0.014352 248 248 248
-0.021524 0.311169 0.059662 249 251 250
-0.027196 0.293087 0.002531 59 63 64
-0.097574 0.188354 0.068784 57 59 68
0.301647 -0.356088 0.018684 254 255 254
-0.102163 -0.148375 -0.076192 91 102 112
0.127476 0.329495 0.004167 201 203 201
0.355442 0.336521 0.008557 251 252 252
0.139270 0.321980 0.007429 252 251 252
0.214219 -0.353467 0.036496 252 253 253
-0.103351 0.151015 -0.089334 166 166 162
0.233131 -0.346669 -0.019755 250 252 251
-0.082999 -0.090584 -0.043751 69 72 72
0.136081 0.322325 -0.011768 248 250 249
0.024504 -0.309326 0.021922 250 250 251
0.064588 0.321751 -0.021385 252 252 252
-0.072177 0.179347 -0.090938 134 144 160
-0.111032 -0.070490 0.011345 87 90 98
-0.014182 0.290154 0.060290 96 111 132
-0.079641 0.123663 0.067820 65 63 69
-0.070505 0.250054 -0.073368 100 111 129
-0.089185 -0.233042 -0.086581 88 91 89
-0.106773 0.045647 -0.029563 67 81 141
-0.106968 -0.073197 0.041604 65 65 71
-0.083920 0.146833 0.074352 98 101 102
-0.098651 0.183541 -0.088176 123 133 144
-0.018970 0.301795 0.015937 247 248 247
0.229599 0.335858 0.034647 252 253 252
-0.038596 -0.290143 -0.020342 222 224 223
0.289004 -0.352208 -0.021105 254 254 254
0.334552 -0.354149 0.035129 250 253 252
0.056987 0.313886 -0.006761 230 231 231
-0.079736 -0.183964 -0.046358 87 106 147
0.165209 -0.340105 0.017887 188 187 184
-0.039282 0.302555 -0.013794 250 251 252
-0.079192 0.228063 0.071614 58 60 63
0.132318 -0.337822 0.053335 253 253 254
0.467555 0.327257 -0.003215 254 254 251
-0.086674 0.190835 0.072318 189 189 188
-0.061459 0.285550 -0.018774 59 59 60
0.442623 0.333887 0.018858 253 253 254
0.005300 -0.293896 0.043415 111 122 131
-0.076533 0.162885 0.060735 61 73 118
-0.049068 0.255638 -0.047279 68 75 74
-0.059607 0.253840 0.056780 187 187 185
0.073114 0.313888 0.006716 248 250 249
-0.058073 -0.232600 -0.076298 122 139 175
-0.076758 0.249094 -0.034611 65 79 144
0.314052 0.337123 0.035719 254 253 253
-0.016561 -0.282010 0.064655 247 248 246
0.254596 -0.347011 0.052814 217 217 216
0.138538 -0.342526 0.001103 209 211 210
-0.110886 0.063657 -0.002869 72 78 95
-0.075839 -0.221286 -0.091204 63 63 63
0.171508 0.332729 -0.004591 251 251 252
0.441162 -0.354537 -0.027857 251 253 251
-0.036498 0.294001 0.057290 249 251 252
-0.090219 0.067617 0.008735 89 108 154
0.026762 0.311981 0.023141 136 139 139
-0.086894 0.070228 0.052984 62 64 73
-0.107518 -0.076262 -0.015412 65 74 141
-0.066732 0.267100 -0.063049 66 72 64
0.335645 -0.356173 0.031071 252 252 253
0.048975 -0.321445 0.023424 140 142 141
-0.051940 0.296832 -0.016481 252 253 253
-0.075767 -0.125184 0.064688 89 109 159
-0.009651 -0.300734 0.063475 248 248 248
0.385232 -0.357056 0.040294 254 255 254
-0.086570 -0.063813 -0.023462 63 68 66
-0.093882 -0.134308 -0.078955 81 74 74
0.076409 0.324109 -0.020632 252 252 253
-0.034041 0.284885 -0.047983 82 82 93
-0.041728 -0.277540 -0.014773 128 144 170
-0.052122 -0.224180 0.060153 68 71 78
-0.065751 0.264747 -0.025812 60 72 132
0.139290 0.333841 0.048666 251 251 251
0.195034 0.335612 0.053301 252 253 251
-0.027320 -0.296305 -0.016705 227 230 229
0.450463 0.333620 -0.025163 252 254 254
0.025389 0.309572 -0.015386 251 253 252
-0.016220 0.301396 0.010846 58 53 60
-0.093567 -0.063359 -0.008905 59 66 113
-0.064094 -0.198180 -0.080935 104 124 165
-0.070623 -0.158190 0.062221 90 107 134
-0.102437 -0.061800 0.029458 240 241 240
-0.049501 0.303143 -0.013827 253 254 254
-0.035643 0.281702 0.013878 60 66 69
-0.081107 0.236584 -0.052005 72 76 85
-0.077034 0.256653 -0.008887 59 63 71
-0.090989 0.143916 0.070689 171 172 170
-0.110327 0.038739 0.042498 64 75 114
-0.080845 -0.139119 0.005987 55 65 132
-0.098805 0.137057 -0.077047 76 80 79
-0.107224 0.075764 -0.057301 83 61 64
-0.102881 0.137142 0.059549 79 89 107
0.402100 -0.360964 0.002531 252 253 251
0.510192 -0.356269 -0.014422 253 255 254
0.064822 -0.329257 -0.000996 248 250 249
0.451872 -0.362665 0.004118 250 250 250
-0.088620 0.211187 -0.088879 86 92 103
-0.037347 0.306955 0.058841 248 250 249
0.036263 0.325171 -0.017668 249 250 250
-0.104839 0.137444 -0.085146 70 74 74
-0.065020 -0.225144 -0.077485 132 147 176
-0.109464 -0.053854 0.001947 250 250 249
0.018059 0.321296 -0.024000 251 253 251
-0.110591 0.080737 -0.049991 71 86 124
0.153858 0.332736 -0.019281 246 247 248
-0.086817 -0.214386 -0.010286 63 80 139
-0.082685 0.245519 -0.043974 64 77 134
-0.099439 -0.060688 0.009812 109 127 165
0.189564 -0.344042 0.051458 250 251 251
-0.088023 0.047327 -0.017928 67 70 71
0.476434 0.327761 0.034472 252 251 252
-0.087149 0.074652 -0.065775 76 87 106
0.227190 -0.354107 0.033250 250 250 250
-0.104461 -0.097847 -0.040920 88 110 167
0.334940 -0.352682 0.002441 248 250 249
-0.083273 -0.238182 -0.086809 71 75 67
0.057408 0.313147 0.034628 112 118 125
0.241838 -0.346065 -0.012158 253 254 254
-0.062986 0.234265 -0.057251 70 86 135
0.169890 -0.348437 0.025141 249 251 252
0.151866 0.329699 0.051775 251 252 251
0.006354 -0.298220 -0.010122 108 128 167
0.129611 -0.341339 0.037180 203 204 204
0.381874 -0.359377 0.005630 250 251 251
-0.089086 -0.189962 -0.082034 68 70 79
-0.060316 0.294681 0.027191 67 65 72
0.017083 -0.304970 0.022254 252 253 252
0.240864 -0.352921 0.046483 252 254 253
-0.010282 -0.288736 0.061560 62 64 63
0.371485 -0.353256 0.011173 251 251 253
-0.091672 0.017660 -0.000889 74 81 79
0.067880 0.316748 -0.002728 181 181 182
0.142846 0.322720 0.057811 252 253 252
-0.043248 -0.292888 0.051230 81 99 157
0.100830 -0.335275 -0.016720 244 245 245
-0.105877 0.089262 -0.049362 106 124 157
-0.051173 -0.295092 0.035177 251 251 253
-0.029591 -0.291534 0.062825 100 130 183
0.048944 -0.316836 0.005877 190 190 190
-0.104523 -0.077505 -0.036400 50 56 124
-0.088151 -0.195048 -0.088755 63 62 58
-0.021345 -0.287744 -0.045998 68 64 67
-0.070782 0.192371 -0.086038 68 63 62
0.137916 -0.333433 -0.016754 192 191 189
0.504667 0.329562 0.014230 253 253 254
0.038740 0.325573 0.047395 253 253 254
-0.087316 0.031416 0.051850 249 249 250
-0.024710 0.314521 -0.012438 253 254 254
-0.095096 0.182177 -0.041171 57 68 119
0.004287 -0.313183 0.061423 248 248 247
-0.078868 -0.127724 0.075015 72 67 73
-0.080751 0.236762 -0.059813 63 70 120
0.039041 0.310236 0.057352 249 250 250
-0.062374 0.217960 0.059511 81 100 146
-0.028740 0.291087 0.021006 194 191 191
-0.086287 -0.064541 0.040246 61 71 132
0.313886 0.338505 0.010441 253 254 253
0.342501 0.335781 0.014097 252 252 252
0.460026 -0.360319 0.006082 249 251 251
0.218605 0.337595 0.004905 250 252 251
0.043114 -0.313885 0.031664 145 147 144
-0.024740 -0.296285 0.071976 248 251 251
0.159023 -0.342470 -0.021889 253 254 254
-0.104523 0.126014 -0.075978 106 122 153
-0.051543 0.270862 -0.040915 60 67 69
0.270043 -0.355597 -0.001248 250 250 251
0.160862 -0.339120 -0.006493 185 185 184
-0.105857 0.085569 0.067698 127 131 134
-0.060149 -0.229909 -0.081626 62 65 76
0.363420 0.330780 -0.014343 251 251 250
0.080185 -0.322950 0.026209 247 247 247
-0.072884 0.202159 -0.006684 54 64 135
-0.032462 -0.281593 0.008994 70 74 89
-0.104119 0.116980 -0.011995 70 81 116
-0.112729 0.041368 0.000912 79 90 105
0.348898 0.336526 0.040176 252 252 252
-0.064889 0.271286 -0.061193 76 62 60
-0.055924 -0.281804 0.000154 131 143 158
0.153278 0.333162 0.035602 253 254 253
0.151932 0.330590 0.049282 196 196 196
-0.096870 0.152077 -0.087563 130 135 137
-0.080908 -0.208852 0.070501 100 114 136
-0.070668 -0.160150 0.036976 71 86 124
-0.024678 0.288592 0.027436 61 66 68
-0.085984 0.089219 -0.021523 73 91 160
0.376198 -0.353450 0.038663 252 253 251
0.264694 -0.352823 0.036444 224 226 224
-0.096716 0.167451 -0.080047 75 96 165
-0.038565 0.290910 -0.026900 249 250 249
0.423506 0.332108 0.036442 252 252 253
-0.096495 0.206358 0.001132 62 75 142
0.148039 -0.339542 0.019040 251 253 252
-0.056132 -0.216777 0.066571 71 81 97
0.016885 -0.301681 0.018334 89 94 104
-0.085639 0.057045 -0.052160 103 108 111
-0.096442 -0.058638 -0.020684 250 249 249
-0.073394 -0.254613 -0.007257 74 88 123
0.239411 -0.347676 0.001529 250 253 252
-0.052982 0.291720 -0.024692 59 59 54
-0.087643 0.089140 -0.064394 78 71 71
-0.031978 0.293353 0.008215 239 240 240
-0.048956 -0.285012 0.028765 66 85 141
0.034101 -0.318636 0.029468 168 173 183
-0.010432 0.314310 -0.011549 252 253 252
-0.077830 -0.119273 0.058894 72 74 76
0.113100 -0.334080 -0.023171 248 249 249
-0.078087 -0.151639 -0.040401 78 99 160
-0.021520 -0.282815 0.050271 105 129 181
0.018253 -0.301932 0.009086 107 128 169
0.405473 0.328956 0.035133 255 255 255
0.130059 0.329199 0.041768 168 168 168
-0.081327 0.160077 -0.068102 64 77 135
-0.078257 0.108160 0.061873 55 58 77
-0.035212 -0.271946 -0.029100 101 122 167
0.241645 -0.346671 -0.012836 253 252 253
-0.027989 -0.274328 -0.065610 81 84 84
-0.110862 0.072627 0.034482 69 85 129
0.207666 0.327707 0.001677 252 254 254
-0.073862 0.187910 0.050437 65 78 124
0.453330 0.330706 0.025021 253 254 254
0.144770 -0.335913 0.005915 201 205 202
0.448610 0.328253 0.030156 246 247 247
-0.065711 0.281238 0.048046 65 71 70
-0.084895 -0.071818 0.052714 88 98 110
0.136021 0.333824 -0.005587 249 249 250
-0.026136 0.292274 0.008627 200 199 197
-0.090672 0.145402 0.067383 55 66 129
-0.098719 -0.036854 0.046520 91 95 95
-0.085225 -0.073549 0.026154 78 97 142
-0.090878 0.080022 -0.054760 63 68 119
-0.049575 -0.282896 0.062223 118 125 131
-0.104969 -0.074985 0.057160 69 67 67
-0.066149 0.195785 0.068089 180 180 178
-0.095458 0.171139 0.061364 133 139 145
-0.031657 -0.284504 -0.058539 76 66 68
-0.062652 -0.269049 0.057632 61 68 68
0.071288 0.329825 0.038264 253 254 252
-0.035421 0.310063 -0.005974 243 244 244
-0.073624 0.241151 -0.047311 55 68 127
0.157869 -0.336851 -0.010633 250 250 250
-0.085613 -0.117873 0.000687 68 80 150
-0.000440 -0.312773 0.000049 249 250 249
-0.075023 -0.262709 -0.012363 64 70 65
-0.027692 -0.292784 0.000830 120 141 182
0.113971 -0.333144 -0.013588 247 248 247
-0.072432 0.186888 0.074299 187 187 183
0.358002 0.329459 0.032955 254 254 254
-0.001973 0.312928 0.062033 249 250 251
0.493253 0.329714 0.013844 253 254 253
-0.006565 -0.308956 -0.006277 151 158 170
0.174029 0.333680 -0.001676 250 250 250
-0.102201 -0.051626 0.049781 77 79 88
-0.053621 0.296625 -0.009158 60 57 55
-0.103782 0.118967 0.021973 71 82 97
0.183623 -0.339070 -0.018967 247 249 249
0.298371 0.335690 0.005816 249 249 250
-0.056824 -0.233878 -0.056461 77 96 153
-0.092455 -0.172312 0.045923 57 67 121
-0.085742 -0.220689 0.052296 70 87 147
-0.103406 -0.134393 0.066169 93 106 124
0.381992 0.338960 0.025572 254 255 252
0.312382 0.331532 0.049073 253 252 251
0.067080 0.323656 0.002817 183 182 183
0.404772 -0.357279 -0.024215 248 250 251
0.218281 0.330644 -0.014907 252 253 252
-0.088704 -0.140029 -0.081946 67 64 64
-0.058187 0.296792 0.010034 93 116 173
-0.107899 0.064657 0.041412 75 90 142
-0.095100 -0.070520 -0.028504 67 71 66
-0.102305 -0.127448 -0.028683 68 78 112
-0.074315 -0.140083 0.064844 89 101 120
-0.060622 0.234888 -0.075121 80 97 138
0.194271 -0.342486 0.023168 249 251 252
-0.024723 -0.301930 -0.005575 106 126 163
0.398600 0.336725 0.040561 250 250 249
-0.098561 -0.011505 0.035028 244 245 244
-0.020950 -0.298254 0.034212 206 205 204
-0.100223 -0.121313 0.060721 96 103 112
-0.107578 0.127835 -0.029296 82 99 140
-0.065758 -0.172740 0.061399 60 60 72
0.470781 -0.357991 -0.015813 248 250 249
0.307540 0.331856 -0.012340 251 252 251
0.125800 0.321934 0.053016 250 250 251
-0.040641 0.289832 0.017492 89 108 150
-0.068501 0.212864 0.071192 55 57 55
0.318296 0.328534 0.038533 255 255 255
-0.109516 0.117019 0.021028 76 92 130
0.452939 0.329198 0.009730 254 254 252
-0.055265 -0.291618 0.030929 248 249 248
0.090190 -0.320672 -0.024680 253 254 254
-0.074467 0.153422 -0.013937 64 72 84
0.092424 -0.334864 -0.014450 253 253 254
-0.014845 0.316607 0.061797 248 249 249
-0.093104 0.211803 -0.006875 76 85 104
-0.068308 -0.202369 -0.046692 62 79 153
-0.061200 -0.222857 0.075807 88 110 169
0.284065 -0.349723 0.040869 251 254 253
-0.036045 -0.302909 0.034115 87 91 95
0.227366 -0.348710 -0.007860 251 252 252
0.023835 -0.299315 0.028977 129 139 151
-0.106922 0.102356 -0.019829 74 89 152
0.356335 -0.356516 -0.007174 252 253 253
0.368237 -0.356757 0.007498 253 254 253
-0.073476 -0.248348 0.034212 71 87 136
-0.107990 0.080192 0.004858 78 95 134
0.204648 -0.353119 0.025108 252 252 253
-0.105501 -0.121974 0.001719 68 83 131
0.152410 0.328804 0.001874 179 178 177
0.158249 -0.337042 -0.024609 250 250 250
0.176552 0.334765 0.001701 192 194 192
-0.090280 0.092245 0.002067 70 78 111
-0.100092 0.028208 -0.009354 78 85 90
-0.026560 0.278786 -0.034355 62 65 88
0.034900 -0.305416 0.058139 251 252 252
-0.080945 -0.142545 -0.062709 74 71 70
0.252611 0.328578 0.020586 253 254 254
0.267448 -0.354093 0.047363 249 249 249
-0.028458 0.292671 0.032945 89 95 102
0.328388 0.326691 0.049282 252 252 251
0.320513 0.335917 0.045577 253 254 253
-0.055722 0.231509 0.021029 67 72 79
0.023360 0.318517 0.057753 249 251 251
-0.042969 0.257816 -0.059184 185 184 181
0.067517 -0.323998 -0.024112 217 219 219
-0.111013 -0.050536 -0.003590 243 243 243
-0.034382 0.290761 0.008100 65 73 68
-0.067240 0.206334 0.073100 90 106 131
-0.044148 -0.258210 -0.037532 66 78 138
-0.088456 -0.205924 0.058264 65 80 141
0.003054 -0.306268 0.061910 251 251 251
0.348584 -0.358081 0.026346 254 254 252
0.099002 0.330231 0.019851 250 252 251
-0.000289 -0.291382 0.040642 103 124 170
-0.014000 -0.293524 -0.020535 239 240 239
-0.083837 0.106309 0.060133 86 87 95
-0.071547 -0.246107 -0.052018 50 58 126
0.050539 0.318115 -0.010762 249 251 250
0.194655 0.333632 -0.005535 249 250 250
-0.015694 -0.291596 0.027012 63 64 76
0.053031 0.319603 -0.005243 254 254 254
-0.095097 0.038614 0.059619 211 212 209
-0.064330 -0.269150 -0.063828 244 244 246
-0.046427 0.258222 -0.055935 55 61 60
-0.091100 0.102524 -0.081801 90 101 114
0.192305 -0.350018 -0.003388 248 249 250
-0.085217 -0.096685 -0.060503 162 165 167
-0.049153 -0.268703 0.065894 61 66 65
-0.068600 0.270357 -0.026284 64 68 78
-0.047822 -0.235688 0.068395 87 107 151
0.102226 0.332205 -0.018769 248 250 251
-0.098011 -0.040252 0.002324 251 252 253
0.427790 0.337248 0.001545 253 254 252
-0.042161 0.276575 -0.002803 74 79 103
-0.053649 -0.217684 -0.089645 59 57 53
-0.058403 -0.210057 0.077716 74 63 68
0.096044 0.319308 -0.017242 251 252 252
0.376734 0.327296 0.040821 253 253 254
-0.088698 0.048211 -0.020551 66 68 60
0.144951 -0.342816 0.020582 251 252 251
-0.040516 -0.294237 -0.016607 106 124 159
-0.091504 0.070897 -0.037159 75 95 159
0.166561 -0.339913 -0.008037 190 192 190
-0.081909 -0.157804 -0.090139 70 74 76
0.089804 -0.330649 0.007218 201 203 199
0.054041 0.322580 -0.018664 229 228 229
-0.098686 0.144808 0.053840 60 71 124
0.105116 0.329675 -0.011272 251 252 253
-0.092069 0.068376 0.019294 56 70 129
0.039945 0.309553 0.053083 250 251 251
0.341653 -0.351191 0.000214 251 252 253
-0.033924 -0.277888 -0.008556 64 64 70
-0.014717 -0.287576 -0.021295 114 134 176
0.068874 -0.326777 -0.015739 239 242 242
-0.081151 -0.141425 0.018076 60 71 115
-0.039856 0.301218 0.038706 98 118 162
-0.113365 0.033932 0.009151 72 76 71
0.052260 -0.316023 -0.028761 252 252 251
-0.107428 0.088579 -0.015372 59 69 111
0.422822 -0.359074 -0.011688 250 251 251
-0.070869 0.209352 -0.087481 61 65 65
0.382247 -0.354949 -0.010571 250 252 250
0.152765 0.330936 -0.015238 187 188 188
-0.034694 0.308406 0.035171 251 252 251
0.291569 0.336309 0.009822 254 254 254
-0.068440 0.248622 0.069311 197 198 199
0.369637 -0.355692 -0.013671 252 253 251
-0.065483 -0.279843 -0.022100 62 76 139
-0.047392 -0.243067 -0.069630 75 92 148
-0.011311 -0.281824 0.060592 137 141 143
-0.014574 -0.287766 0.048008 63 66 76
0.293858 -0.355937 0.013545 251 251 250
-0.085689 0.137276 -0.023269 81 101 152
-0.091840 0.195135 0.063313 75 86 115
-0.023034 0.297862 0.063940 250 250 251
-0.104782 0.085931 0.035558 46 54 126
-0.059189 0.213729 0.063173 66 68 71
0.201856 -0.345009 0.010456 195 194 191
0.264966 -0.349183 -0.021182 250 250 250
0.468138 0.332738 0.029809 254 254 254
-0.048063 0.294321 0.010291 65 74 94
-0.069756 -0.273972 -0.062114 66 68 68
-0.085856 0.100481 0.004468 62 74 118
-0.086468 -0.097481 0.053693 62 66 69
0.354462 0.335733 0.031794 250 250 251
-0.110932 -0.046753 0.038804 230 230 231
0.053535 0.313752 0.006134 249 250 250
-0.106836 -0.074219 -0.011635 60 73 137
-0.034626 -0.250394 0.061838 61 56 60
-0.101419 -0.136628 0.029530 64 77 136
0.166232 0.333579 0.002594 246 247 248
0.264177 -0.355165 0.044597 252 252 250
0.382323 -0.355406 -0.023523 252 253 254
0.304771 0.336795 0.038692 250 250 250
-0.098824 0.031730 0.007277 242 243 243
0.084113 -0.324139 0.032560 249 250 250
-0.086167 0.073666 0.055191 76 82 93
-0.106337 0.125703 -0.029851 66 76 128
-0.089724 -0.077708 0.027587 73 91 148
-0.040089 0.268012 0.041747 59 64 70
-0.042290 0.269453 -0.030137 63 59 63
-0.109332 0.040096 0.035765 210 212 209
-0.082369 0.146206 0.031964 65 75 111
-0.097671 -0.059565 -0.002204 247 247 247
-0.064725 0.289300 -0.004110 56 60 56
-0.110682 0.102596 -0.080428 70 65 65
-0.005394 0.314137 0.058551 249 250 250
0.459342 -0.361151 0.018118 251 254 252
-0.061579 0.221126 0.045416 67 80 134
0.006793 0.304542 -0.025689 167 169 169
0.372436 -0.351930 0.040525 249 250 251
-0.094362 0.023808 0.001616 251 252 252
0.464099 0.329387 -0.000905 253 253 253
-0.033922 -0.273924 -0.035255 62 69 64
-0.069777 0.286612 -0.012203 64 53 52
-0.084271 0.232422 0.059695 67 74 74
0.206035 0.327772 0.018698 252 252 252
-0.064460 -0.258478 0.061847 57 72 141
-0.019223 -0.273496 0.042905 95 116 157
0.000285 -0.294451 0.009591 92 116 168
-0.040802 0.274576 -0.051968 66 69 71
-0.108295 -0.027727 0.015992 252 253 254
-0.101967 0.169315 -0.081352 130 141 157
-0.061056 -0.224727 -0.057559 59 73 148
-0.111247 0.059436 -0.044877 82 87 88
0.286527 0.329612 0.043909 255 255 255
-0.102842 -0.119013 0.029601 68 82 129
0.211420 -0.340995 0.037401 254 254 254
-0.080384 0.183757 0.069110 112 129 161
-0.071602 0.204966 0.008415 61 71 123
0.190308 0.325138 0.009415 252 251 252
-0.100903 -0.051587 0.059669 249 250 250
0.174776 -0.344862 0.008297 193 195 192
-0.042840 -0.292462 -0.004027 67 80 121
0.372588 0.330711 -0.013594 253 254 252
0.010222 0.320186 0.054501 252 254 254
-0.105596 0.138407 -0.078997 62 66 67
0.047188 -0.325528 0.036393 250 250 251
0.371477 0.336863 -0.019122 251 250 249
-0.059147 -0.251417 0.066915 67 85 149
-0.095783 0.149852 -0.090167 85 88 81
-0.053770 0.301085 0.050170 63 67 63
0.417836 -0.356737 -0.022771 254 254 253
-0.028334 -0.305922 -0.009095 110 124 147
-0.007294 0.314143 0.059591 248 249 249
-0.025221 -0.284089 0.032315 63 65 72
-0.089427 0.109317 -0.049057 70 88 143
0.106974 -0.327533 0.009243 250 251 251
0.319853 0.336605 0.030186 252 254 253
0.071348 -0.317412 0.001930 240 241 242
-0.106411 0.032096 0.049526 241 242 243
-0.022926 -0.283621 0.068576 247 248 247
-0.010578 0.315383 0.037804 250 252 250
0.400750 -0.355188 -0.008631 252 253 251
-0.089827 0.070866 -0.021985 71 83 108
-0.081129 0.188796 0.062617 126 139 160
-0.055787 -0.289052 -0.007613 245 247 247
0.419411 -0.360068 0.008272 251 252 253
0.406313 0.337844 0.033565 250 249 250
0.116864 0.329749 -0.000238 250 252 251
-0.103975 0.119905 -0.032601 63 73 126
0.188537 -0.349857 0.014401 227 228 228
-0.065302 0.280149 0.044114 111 118 125
0.201233 -0.341426 -0.014551 253 254 254
-0.042565 -0.292131 -0.032175 249 251 250
-0.087909 -0.073840 0.021283 71 72 77
-0.107824 0.099886 0.061431 71 68 73
-0.087954 -0.051512 0.001032 59 58 56
-0.087458 -0.041424 0.019557 250 250 249
-0.074142 -0.248992 0.052136 72 75 76
-0.009846 0.305632 0.030916 246 247 247
-0.042701 -0.291316 0.053237 86 116 183
-0.031608 -0.301988 -0.030360 251 252 253
-0.029692 0.293605 -0.019394 59 66 60
-0.087875 0.223558 -0.002199 62 72 113
0.363281 0.338201 -0.006177 247 247 248
-0.085709 -0.086899 -0.044743 106 126 165
-0.082828 -0.109728 0.057068 88 89 96
-0.092335 0.217666 -0.082322 132 138 145
0.322900 -0.357193 -0.021131 254 255 254
-0.102723 0.145336 -0.079419 124 132 139
-0.034021 0.277196 -0.035803 60 63 66
0.152248 0.323587 0.053978 252 252 254
0.204396 -0.341395 -0.012254 253 252 253
-0.076029 -0.150303 -0.085396 97 120 167
0.296791 -0.356543 0.001777 250 250 251
-0.111868 -0.074607 -0.031715 73 84 123
-0.036925 -0.300852 0.030949 249 250 249
-0.111039 0.102650 0.067805 84 89 87
-0.077675 -0.261153 -0.020165 83 88 94
0.447980 0.327185 0.025152 252 252 254
-0.053609 0.272091 0.011732 58 60 61
-0.078825 0.168621 -0.061872 83 97 120
-0.021003 -0.279240 0.058716 71 71 75
0.208125 -0.349877 -0.017588 252 251 252
0.214981 0.326518 -0.008587 252 254 253
-0.060164 0.246537 0.063130 61 58 65
0.304639 -0.348742 -0.010107 251 251 252
0.293248 -0.349301 -0.002865 251 250 250
-0.047831 -0.281972 0.031122 58 69 124
-0.094547 0.066748 -0.065142 154 157 162
-0.036283 0.299041 -0.020068 252 253 252
0.130357 0.326129 0.050372 192 192 189
0.502223 0.329713 0.007363 253 254 253
0.114392 -0.338497 -0.002979 219 220 218
0.116312 -0.329104 0.015696 244 245 243
0.313626 0.334039 -0.016126 250 251 251
0.343324 -0.355196 0.034828 249 250 250
-0.079451 -0.110596 -0.030369 67 71 76
-0.100263 -0.105046 -0.068608 66 70 71
-0.099466 0.198060 -0.034767 96 118 167
-0.037201 -0.277275 0.052193 60 67 65
0.489322 -0.355285 -0.036324 251 252 251
0.124059 0.328060 0.001588 179 179 179
0.007223 -0.306318 0.062259 226 226 225
-0.017994 0.303265 0.013096 250 250 250
-0.072717 0.186114 0.069687 91 93 98
0.101799 0.320943 0.006020 249 251 250
0.086713 0.319966 0.018029 189 188 186
-0.039055 -0.281391 -0.043749 69 84 118
-0.036959 0.288392 0.036458 109 123 152
-0.067057 0.206601 -0.087520 81 83 83
0.437327 0.331705 0.042887 253 253 253
-0.033289 -0.277013 -0.056288 141 145 146
0.186549 -0.347826 -0.006221 202 203 203
0.064269 0.325406 0.046361 224 223 225
-0.103486 0.108248 -0.038956 51 61 138
0.362752 -0.353831 -0.012906 252 253 251
-0.086475 0.176602 -0.089208 91 80 81
0.390221 -0.357849 0.007889 253 254 253
-0.038012 -0.293319 -0.043400 99 106 112
-0.037818 0.309938 0.026142 51 53 51
0.315302 -0.353873 0.008584 253 254 253
-0.053200 0.259199 -0.016921 53 63 115
-0.100925 -0.043797 0.004677 251 253 251
-0.092281 0.047889 -0.021759 86 87 88
-0.082941 0.110848 -0.078020 66 65 66
-0.091145 0.207481 0.067635 108 128 165
0.272695 -0.356535 0.047696 246 248 247
-0.091937 0.034219 0.000050 64 70 70
-0.058417 0.220109 0.069558 59 61 69
0.348859 0.335608 0.042204 253 253 251
0.152105 -0.338925 -0.018990 173 174 172
0.404164 0.336176 -0.019231 254 252 254
-0.051631 -0.279076 -0.050376 56 66 141
-0.086873 0.059120 0.036185 65 68 75
-0.105829 0.009499 0.048870 246 247 246
-0.027853 0.281240 0.039068 73 63 77
0.490333 0.328213 0.020290 252 254 253
-0.110401 -0.057028 -0.012758 249 250 251
-0.035622 -0.303359 0.026591 75 63 70
0.141728 -0.342512 0.032470 250 251 249
-0.095774 -0.179241 -0.089162 108 114 114
0.010205 0.314066 0.063936 253 253 254
0.259352 -0.346674 0.031469 251 252 251
-0.080996 0.247436 0.044934 86 95 115
-0.052456 -0.265568 0.027856 61 60 63
-0.040121 0.302476 -0.014620 57 60 60
0.170548 0.325867 0.021602 251 251 251
-0.075925 0.279492 0.008678 61 68 66
0.029194 -0.319436 0.050121 250 252 252
0.185496 -0.349071 0.024701 194 193 190
-0.067596 -0.271761 0.009002 55 69 139
-0.070221 -0.055000 0.008582 97 111 132
0.048334 0.313226 0.035908 251 252 250
-0.035614 0.278134 0.059549 53 50 52
-0.093313 0.191345 0.040111 51 60 136
-0.105843 -0.087790 -0.012279 75 90 141
0.263421 -0.348318 -0.020700 250 253 251
0.160659 -0.342872 0.001537 193 195 193
0.174767 -0.345854 0.045661 254 254 255
-0.099751 -0.149072 0.068085 68 71 73
-0.066790 0.242220 0.056782 191 191 187
0.279410 -0.354443 0.045743 251 251 249
0.423752 0.329464 0.039722 254 254 253
0.191334 0.331966 0.003453 196 196 194
-0.086720 -0.203992 0.034057 52 64 138
0.076585 0.330046 0.021607 249 250 249
0.270543 -0.353916 -0.022576 248 249 248
-0.085914 0.113474 -0.062920 46 50 115
0.004742 0.319426 -0.017069 249 251 250
0.131915 0.331956 0.054363 253 253 253
-0.099334 0.114594 -0.065077 88 95 99
0.141331 0.321383 -0.019942 253 253 253
-0.107751 0.074992 -0.059961 105 122 158
-0.076606 0.264408 -0.021284 63 77 131
0.104951 0.331313 -0.007440 249 250 250
0.268771 -0.354374 0.031338 244 244 243
-0.081067 0.156204 -0.038652 69 79 136
-0.086838 0.231881 -0.043461 50 57 102
-0.048700 -0.242007 -0.071528 64 63 72
-0.077964 -0.143474 -0.084836 75 73 74
-0.034395 0.270990 0.061251 63 65 69
-0.046712 -0.258439 -0.049478 72 93 165
-0.079153 0.227915 0.065880 57 60 77
0.374985 0.330203 0.040554 252 254 254
0.344462 0.330368 -0.014524 249 249 251
-0.110536 0.074443 -0.041900 71 76 75
-0.091505 0.073222 -0.026922 71 84 138
-0.028103 -0.301891 0.030472 66 65 69
0.493734 0.331055 -0.006059 250 250 251
-0.049937 -0.287129 -0.050580 94 106 121
-0.083964 0.127553 -0.080666 90 116 169
0.231401 -0.348300 0.000421 199 202 198
0.469822 -0.360409 0.011296 252 252 251
0.357286 -0.356143 0.034388 252 253 253
-0.033198 -0.278266 -0.015962 91 110 154
0.239099 0.333506 -0.014399 251 250 252
0.434838 -0.356823 -0.027034 252 253 251
0.009308 -0.291983 0.040412 82 87 95
-0.110324 -0.036445 0.027247 249 250 251
0.110315 0.328923 -0.026854 252 253 253
-0.024841 0.285890 0.004944 59 66 74
-0.094611 -0.193097 -0.072277 80 74 75
-0.066754 -0.207434 -0.051245 68 86 152
0.081698 -0.332984 0.020544 252 253 252
0.142111 0.334024 0.026190 252 253 251
-0.083303 0.134208 0.032565 50 61 126
-0.080313 -0.241073 -0.034331 59 73 138
-0.058403 -0.282442 0.034433 106 130 174
-0.057718 0.235382 -0.031156 56 60 65
0.026372 0.311777 0.057141 250 252 252
0.145637 0.330016 -0.022327 248 250 249
-0.038601 0.283852 0.006912 204 204 202
0.016461 -0.315559 0.015313 252 252 253
-0.074865 0.192375 -0.028917 44 52 128
-0.040973 -0.278478 0.060071 69 86 148
-0.060636 -0.225195 -0.065260 70 89 160
-0.032483 0.309583 0.019054 253 254 254
-0.077366 0.262303 0.063416 154 160 169
-0.055665 0.290302 0.040498 69 69 76
-0.052051 -0.235542 0.070487 100 122 172
-0.090466 -0.050481 0.026903 64 66 70
-0.079732 -0.098486 -0.025372 94 114 152
0.481814 0.333023 -0.012438 249 249 249
-0.105988 -0.101421 -0.021697 80 97 144
0.019043 0.323332 -0.009597 253 253 252
-0.055477 -0.294503 -0.022578 249 251 251
-0.045651 0.285991 -0.020194 158 161 164
0.173731 -0.337460 -0.021385 252 252 253
0.092698 0.320776 0.041611 250 251 251
-0.100023 -0.065908 0.031928 251 251 251
0.241660 -0.351223 0.020370 220 220 220
0.327663 -0.356119 0.040353 252 254 253
-0.054198 -0.226174 -0.080572 98 118 159
