ply
format ascii 1.0
element vertex 1234
property float x
property float y
property float z
property uchar red
property uchar green
property uchar blue
end_header
-0.136177 0.093462 0.030849 7 11 76
0.049661 0.358526 0.092966 11 12 14
-0.009921 -0.318720 0.112028 12 13 15
0.218289 0.390358 0.056736 253 254 255
-0.134060 0.051770 0.074928 206 206 205
0.242137 -0.413246 -0.008960 253 255 254
-0.119696 0.010133 0.063650 16 14 15
0.143133 0.386814 0.033837 221 222 221
-0.050201 0.278115 0.018238 10 14 42
0.303635 -0.406388 -0.045457 161 161 162
0.356557 0.383732 -0.018726 158 159 158
-0.126500 -0.172362 -0.048033 9 8 117
-0.136860 0.133985 -0.079202 15 16 16
0.141865 -0.388614 -0.008260 219 219 219
-0.112389 0.133701 0.109372 13 13 13
0.672884 -0.367639 -0.083858 254 253 254
-0.123894 -0.038810 0.009113 228 227 228
-0.136609 0.113184 -0.012585 8 13 82
0.337411 -0.397540 0.023488 147 148 148
0.165455 -0.405217 0.037528 170 171 169
0.070986 0.355663 0.072358 11 13 13
0.172476 0.396478 0.032332 12 13 13
0.633582 0.364503 0.009094 8 9 45
-0.047430 -0.298348 -0.108122 208 208 208
0.319989 -0.391857 -0.051668 154 154 153
0.103627 -0.390914 -0.025405 187 188 188
0.095953 -0.380557 0.026426 195 194 196
-0.118377 -0.138843 0.095165 14 14 15
-0.123726 -0.161591 0.095468 237 238 239
0.177079 -0.413346 0.029530 14 13 15
-0.133567 -0.132607 0.053071 10 8 120
-0.025849 0.307189 -0.085277 10 11 14
0.609671 0.373838 -0.017943 255 255 255
-0.136984 -0.079453 0.070731 12 12 13
-0.130152 -0.128764 -0.099220 245 244 244
0.379487 -0.390875 -0.007474 6 8 50
0.417517 -0.403619 0.012503 6 7 45
0.123436 -0.411895 -0.003128 237 236 237
-0.103130 -0.191410 0.116951 227 229 229
-0.129991 0.137210 0.068181 8 11 96
-0.127716 -0.142530 -0.011895 9 10 119
0.742733 0.350181 -0.063151 14 12 14
0.488638 0.378110 -0.047569 6 6 52
-0.122975 -0.161863 0.058896 8 11 122
-0.141020 0.124945 -0.071293 15 12 13
-0.116202 -0.197849 -0.109739 9 6 117
0.358776 -0.405003 -0.032071 255 255 255
-0.124253 0.143029 0.060357 11 11 88
-0.109136 0.188151 0.100971 14 14 15
-0.121932 -0.019219 0.089920 253 254 255
-0.124895 0.180014 -0.107695 14 14 15
0.032129 0.345142 -0.021358 11 14 19
-0.134451 0.028555 0.064133 15 14 14
0.636251 -0.370606 -0.043837 9 8 54
0.094719 0.403001 0.049386 13 11 12
0.597084 -0.370295 -0.033986 255 255 255
0.331041 0.384998 0.021480 146 150 148
0.075215 -0.394414 0.075138 14 15 16
-0.139771 0.104518 0.048727 7 7 100
-0.144788 -0.078803 0.097279 244 243 245
-0.022355 -0.288377 0.101429 212 214 212
0.300392 0.401059 0.040278 255 255 255
0.258722 0.402338 0.020396 214 215 213
-0.071320 -0.266782 -0.058011 12 13 125
-0.066148 -0.264013 0.046583 8 17 121
0.437810 -0.392700 0.014567 6 8 50
-0.103160 0.204907 0.089706 9 14 83
0.225953 -0.403656 -0.030894 255 255 254
0.340905 -0.397999 -0.011886 148 149 149
0.112137 0.381634 -0.012793 12 12 14
0.000687 0.335876 -0.100724 165 165 166
0.181120 -0.411027 -0.006323 231 231 230
0.626077 -0.371570 -0.090848 12 11 19
0.199128 0.405279 0.042402 254 254 255
-0.139310 0.138680 -0.081147 182 182 182
-0.134221 0.135589 -0.047012 10 16 63
-0.125614 0.099146 -0.060141 191 191 191
0.496198 -0.380157 -0.077457 253 254 255
-0.155501 0.026203 0.017057 14 13 13
-0.156484 -0.027234 0.007434 224 223 223
0.186542 0.399239 0.004209 152 154 154
0.282007 -0.411390 -0.041700 230 230 231
-0.090856 0.215212 0.103493 16 16 17
0.720237 0.357577 -0.013377 10 7 55
-0.133949 -0.154243 -0.075444 8 6 115
0.515330 0.385131 -0.002999 8 8 52
-0.117838 0.153022 0.072593 6 9 89
-0.118121 -0.190163 -0.081044 12 10 118
0.104741 -0.394812 -0.003141 187 187 186
0.056619 0.378069 -0.006108 14 14 14
-0.118653 -0.180375 0.085076 7 10 124
0.530931 -0.385857 -0.064394 11 11 13
-0.152912 0.053879 -0.034531 14 13 13
0.744325 -0.357322 -0.082717 6 6 51
-0.128071 -0.072251 0.029364 235 235 236
-0.120869 0.127974 0.107123 111 113 113
-0.144653 0.079226 0.022692 9 11 102
0.019457 0.331958 0.104462 164 165 164
-0.117154 0.023065 0.083820 17 16 16
0.014187 -0.343238 0.032603 11 27 125
-0.150857 -0.064307 0.058687 231 230 232
-0.125446 -0.042134 0.055411 228 228 227
0.006451 -0.362840 0.066830 195 195 197
-0.035957 -0.337211 -0.114318 13 14 15
0.505646 0.374288 -0.047189 14 13 17
0.441724 0.378001 -0.038632 12 11 14
0.302052 0.385692 -0.034225 253 255 252
0.726499 0.346481 -0.039101 255 253 255
-0.067198 0.256933 -0.117485 155 155 155
-0.142027 -0.143594 -0.075415 248 246 249
-0.042543 -0.329088 -0.103207 18 18 18
0.523187 0.387940 0.019602 254 253 252
-0.132153 -0.041448 0.102287 223 223 223
0.343594 0.382549 0.007036 255 255 253
-0.064629 0.267109 -0.048543 8 12 29
-0.027331 -0.283305 0.098442 208 209 209
0.237623 -0.414107 0.036000 77 77 83
-0.072592 0.249203 -0.120283 155 156 154
0.474597 0.381048 -0.048560 6 6 55
-0.149367 0.074406 -0.028387 14 14 14
0.230204 -0.394624 0.026997 203 204 203
-0.140283 -0.148732 -0.084896 241 241 242
0.392528 0.390458 -0.043693 255 255 254
0.044958 -0.382247 -0.014292 193 194 193
-0.124907 0.189612 -0.103139 13 12 14
-0.042094 -0.296415 0.002435 13 21 125
-0.042985 -0.287050 -0.118551 210 210 211
0.205857 -0.414191 0.019945 185 186 185
0.377920 0.378148 0.017123 7 7 54
0.030329 -0.347148 0.081679 14 15 16
0.288746 0.393059 -0.033718 253 254 253
0.316209 -0.398172 -0.051371 252 253 255
0.244170 -0.416272 0.038181 151 150 152
0.282369 -0.392735 -0.037737 181 181 182
-0.135894 -0.088930 0.045234 11 8 117
-0.012550 0.333962 -0.101005 12 13 13
-0.010746 0.320516 -0.047055 5 10 19
0.648774 0.365854 -0.036730 253 251 254
0.007144 0.336577 0.090307 169 169 169
0.050806 -0.367895 -0.018035 8 23 127
-0.125528 0.123863 -0.091132 186 186 187
-0.047800 -0.307954 0.096629 15 15 16
-0.119491 0.153634 -0.103070 179 179 180
-0.056285 -0.279434 0.032190 9 18 127
-0.144862 0.061272 0.013055 6 9 95
0.504518 0.382023 0.025973 255 255 253
0.307601 -0.390929 -0.009006 208 208 208
-0.122577 0.130976 0.108700 183 184 184
0.018849 -0.345450 -0.032849 11 21 130
0.018226 -0.372833 -0.072790 191 191 191
-0.041348 0.290822 -0.076871 12 14 20
-0.029201 0.326383 -0.107032 168 168 168
-0.030312 -0.301883 0.043789 11 23 129
-0.046598 -0.290120 0.006434 10 17 120
0.284435 -0.410476 -0.042636 168 168 169
-0.147187 0.093417 -0.037448 195 193 194
0.024682 -0.346660 0.026319 9 28 128
0.037272 -0.389155 -0.040631 16 16 16
-0.152147 0.025955 0.032671 214 214 216
0.599077 -0.379402 -0.034574 9 9 44
0.512717 -0.378953 -0.086049 12 11 14
-0.132511 -0.148797 -0.017939 8 9 118
-0.094126 -0.226087 -0.040723 12 11 119
0.133168 -0.391007 -0.005265 14 14 15
-0.050702 0.259515 0.121352 154 156 154
-0.128865 -0.220151 -0.103110 14 15 17
-0.085787 -0.241832 -0.025438 9 13 122
0.122278 0.386895 0.030048 255 255 254
-0.123456 0.155683 -0.001214 10 16 71
-0.079119 0.217516 0.116092 16 15 17
-0.042348 -0.318317 -0.109744 201 200 202
0.323227 -0.392485 -0.031750 154 152 150
-0.131643 -0.097242 -0.071079 17 17 16
-0.142102 -0.147942 0.099883 234 235 235
0.207030 -0.410673 0.023020 255 255 255
0.230451 -0.411334 0.002377 197 196 196
0.458706 0.389369 -0.022925 253 255 253
0.517721 -0.378086 -0.082123 6 7 49
-0.139118 0.077286 0.005753 8 12 95
-0.132160 0.149928 -0.025021 12 18 61
0.748316 0.349996 -0.050851 12 12 12
-0.100080 -0.202380 0.091786 7 10 118
-0.036598 -0.306486 -0.071581 10 14 128
-0.149671 0.134124 -0.075733 14 13 13
0.432786 -0.388600 -0.033704 12 11 15
-0.147655 -0.019048 0.055485 9 14 88
0.123205 0.390732 0.028364 252 252 253
0.561983 -0.379659 -0.024880 255 255 255
-0.144808 -0.086884 0.079515 234 236 236
-0.109985 -0.233129 0.109768 14 16 17
0.563938 0.377692 -0.002338 255 255 255
-0.104024 0.200509 0.103120 15 14 15
0.017272 0.338181 0.021115 10 15 23
0.312941 0.387750 0.031627 154 156 156
0.208431 0.388284 0.021305 223 223 223
0.121127 -0.411590 0.048119 15 14 15
-0.132985 0.036140 0.096909 212 211 213
-0.144668 0.093315 -0.003071 7 8 82
-0.106731 -0.193669 -0.110416 14 13 15
0.591292 0.372578 0.019312 252 252 252
0.514544 0.379327 -0.047387 13 12 15
-0.033191 0.326848 -0.101250 11 13 12
0.183465 0.384072 0.048169 253 254 252
0.650609 -0.358495 -0.065171 15 12 17
0.353739 0.396664 -0.035186 251 251 252
0.053558 -0.383358 0.078425 190 191 191
-0.140269 0.077448 0.068449 198 199 199
-0.106585 0.220988 -0.126362 156 156 155
-0.013166 0.303947 0.064679 9 17 46
0.751919 -0.351353 -0.098335 252 253 255
-0.146182 -0.072179 0.001114 8 7 112
-0.082098 0.267287 -0.131315 14 13 14
0.209069 -0.396127 -0.014721 252 254 255
0.396001 0.396553 -0.043165 255 253 253
-0.126529 0.028706 0.025877 214 213 214
-0.033424 0.298858 -0.073099 10 14 19
0.360664 -0.405620 -0.041208 211 212 213
-0.139357 0.092333 -0.031159 9 13 84
0.136377 0.386785 0.050719 253 253 255
-0.050981 -0.295515 -0.072124 9 10 122
-0.136610 0.108949 -0.050939 8 16 69
-0.127963 0.197909 -0.120231 164 163 165
0.150661 0.384314 0.059214 243 243 243
0.399224 0.381813 0.033022 255 254 255
-0.113115 0.184833 0.050211 8 14 74
-0.134035 -0.114821 0.045616 9 6 116
-0.104504 0.198301 -0.108238 14 14 16
-0.124447 -0.201197 -0.120772 15 15 15
-0.110068 -0.200554 -0.028514 11 11 122
0.443287 0.396788 0.027177 252 254 251
0.076018 -0.387530 -0.029689 193 192 192
0.339816 0.380742 -0.004890 152 155 154
-0.088517 0.233211 -0.058966 11 16 36
-0.027445 0.300522 0.085914 10 16 47
0.519697 0.381385 -0.043984 8 6 50
-0.102556 -0.265955 -0.120467 214 212 214
-0.084062 0.238244 0.075258 10 15 75
-0.125301 0.013644 0.030153 217 217 217
-0.133829 0.128756 -0.056812 10 16 58
0.732347 0.353672 -0.044543 254 252 255
-0.128533 -0.159207 -0.040862 7 7 116
-0.053362 0.288472 0.100640 13 13 13
-0.115543 -0.116702 0.104404 245 246 245
0.299868 0.397557 -0.016442 253 255 254
-0.070826 -0.264893 -0.043760 11 14 120
0.018752 -0.345494 -0.026038 8 20 124
0.616416 -0.364568 -0.048141 14 14 21
-0.047148 -0.292223 0.064460 13 28 128
-0.154343 -0.097756 -0.068778 14 16 15
-0.145661 -0.122386 0.092649 14 16 16
0.111192 -0.407372 -0.005463 253 255 255
0.156358 0.410292 0.013829 12 13 13
0.169718 -0.411335 -0.029347 255 255 254
-0.121801 -0.176935 -0.095224 14 15 17
-0.120823 -0.029941 0.090735 253 254 253
0.357894 -0.390828 0.000886 250 251 251
0.339510 -0.392098 -0.010552 156 156 157
0.487115 0.373438 -0.036708 254 253 252
0.454498 0.389337 0.005737 17 18 66
0.097766 0.378380 0.050695 11 13 14
-0.110449 0.156943 0.098286 9 12 105
0.144279 -0.408745 0.056569 252 252 252
-0.144678 -0.156071 -0.104264 15 14 14
-0.109832 0.188402 0.088362 8 10 82
-0.042219 0.283200 -0.118711 155 156 155
-0.125428 -0.166011 -0.012755 11 13 116
-0.144470 0.026537 0.089848 206 207 207
-0.097321 -0.210588 -0.122106 14 13 14
-0.095556 -0.279957 -0.127667 14 14 13
-0.124459 -0.030583 0.027537 224 223 224
-0.132633 0.074594 -0.023422 15 15 15
0.271556 0.397422 -0.030744 254 254 255
0.172637 0.410129 0.032336 211 212 211
0.124912 0.382312 0.036564 14 13 13
-0.142264 0.069307 -0.051016 198 198 198
-0.139581 0.128103 0.105231 187 185 186
-0.137894 -0.102487 -0.033937 10 7 116
0.020008 -0.368041 0.072338 191 190 191
-0.022959 -0.318025 0.093387 206 207 208
0.434945 0.381611 0.028497 253 254 253
-0.129325 0.078067 -0.037052 18 18 18
0.561479 0.365321 -0.032904 253 254 254
0.528459 -0.376893 -0.082098 15 11 15
0.676627 -0.365668 -0.039727 253 254 255
-0.001993 0.331980 -0.101614 165 165 166
0.145636 0.389955 0.039367 12 14 13
-0.102272 -0.243487 0.103340 16 15 16
-0.114120 -0.185683 -0.118360 234 235 234
0.236768 -0.409083 0.046194 223 223 222
-0.141259 0.125440 0.099097 14 13 14
-0.029577 -0.301174 0.036661 16 29 131
0.675874 -0.364084 -0.044162 255 255 254
0.083419 0.394942 0.008811 11 12 12
0.426931 -0.386094 0.004235 7 8 47
-0.125954 0.126862 0.086588 7 10 98
0.250522 -0.404238 0.027385 149 151 151
-0.138112 0.101769 0.042794 7 6 98
-0.085597 0.232920 0.041716 8 15 63
0.118585 0.402887 0.030457 193 193 193
0.159890 -0.387927 -0.015420 253 254 255
-0.059705 -0.271619 0.089257 10 26 127
0.460442 0.375292 -0.005113 254 252 254
-0.065821 0.276997 -0.100298 11 13 15
-0.040945 0.296623 -0.079458 6 8 16
-0.143718 0.023517 0.030498 7 8 109
0.679367 -0.355166 -0.080354 255 255 255
0.338379 -0.395424 -0.045197 149 150 149
-0.156594 0.005096 0.039009 241 241 244
0.184718 0.400648 -0.017088 253 253 253
0.616791 -0.362897 -0.035994 10 9 52
0.255923 -0.394438 0.002078 205 205 204
-0.050933 -0.265398 0.100076 216 215 215
-0.097691 0.223006 -0.062864 8 12 30
0.484154 0.388619 -0.018489 254 253 253
0.182831 -0.405889 0.061314 103 106 104
0.241739 0.401346 -0.019448 255 253 252
0.193040 0.406166 0.039621 189 188 189
0.416311 0.396320 0.025038 6 5 54
0.110581 0.402124 0.012835 13 14 13
-0.140716 -0.040658 0.098040 226 225 227
-0.066650 0.277423 -0.121800 151 153 152
0.010963 -0.344422 0.074912 199 198 199
-0.122152 0.078590 -0.010120 200 200 202
0.266091 -0.394630 0.003678 252 252 253
-0.074822 0.243606 -0.113498 13 13 14
0.139492 -0.392959 0.029416 14 14 15
-0.148602 0.067456 -0.053288 16 14 15
0.672291 0.356946 -0.046737 8 8 40
0.012935 0.338996 0.106914 12 14 14
0.150388 0.396867 -0.012190 13 13 14
0.766530 -0.353839 -0.073105 254 253 255
-0.139914 0.066445 0.074227 11 11 112
0.308943 0.398839 -0.019612 155 155 156
-0.125931 -0.180190 -0.073691 14 14 123
0.454282 0.378275 -0.026535 10 10 37
0.177912 -0.399168 0.034898 14 12 14
0.044103 0.373863 -0.005149 177 177 177
0.017847 -0.375146 -0.057881 188 188 189
-0.098577 0.201284 0.067367 8 16 72
-0.032526 0.286688 0.113465 12 13 13
0.103762 -0.393017 0.021707 189 189 190
0.091494 -0.403808 0.017560 14 13 15
-0.123041 0.155218 0.054560 7 10 81
0.350979 0.382590 -0.003488 153 155 154
0.156427 -0.412195 0.027816 15 14 15
0.138776 0.402604 0.066904 12 13 13
0.259909 -0.393194 0.004504 254 254 255
0.138267 0.388592 0.018415 254 255 254
-0.057218 0.262595 -0.108839 13 13 14
0.642874 0.360505 -0.051517 12 11 13
0.113792 -0.392674 0.011843 13 15 14
0.435553 -0.395628 -0.063187 253 254 255
-0.099455 0.210645 0.056405 10 17 67
0.432236 -0.405130 0.011045 255 255 255
-0.129529 -0.055773 -0.012094 231 231 232
0.137031 -0.397729 0.030289 13 13 16
0.010245 -0.363549 -0.091877 13 13 15
0.744824 0.345595 -0.057593 11 12 12
-0.035052 -0.326400 0.092556 202 203 203
0.398411 -0.390318 -0.017510 254 254 254
0.284427 0.391088 0.040157 254 253 254
-0.133285 -0.174485 -0.096208 14 13 15
-0.102164 -0.215382 -0.039287 9 10 121
0.051241 0.378873 0.002325 183 183 183
-0.093244 -0.235905 -0.068952 8 9 121
-0.129460 0.144705 -0.002474 9 14 70
-0.086393 -0.233679 0.044932 11 18 125
0.570940 -0.374432 -0.068386 7 9 44
0.736545 -0.351588 -0.103083 14 12 15
-0.127300 0.199192 0.103677 15 14 13
0.027814 0.338620 0.004832 10 14 23
-0.022207 0.287527 0.111054 16 15 15
-0.010961 0.309817 -0.103853 14 13 13
0.587461 0.364169 -0.037119 255 253 255
0.104221 0.392064 -0.012839 14 13 15
-0.016133 -0.298492 0.111261 209 209 211
0.705689 -0.360500 -0.091492 255 253 255
-0.120063 -0.001718 0.048284 216 216 215
-0.146347 -0.066869 0.072935 16 13 16
0.210233 -0.394490 0.047099 202 202 202
0.002837 -0.351907 0.080648 12 13 13
-0.131710 0.072906 -0.060998 14 13 13
0.531327 0.382737 -0.005621 6 6 51
-0.132099 -0.141505 0.044660 10 10 118
0.358189 0.398260 -0.012601 12 11 14
-0.060896 0.262885 0.026886 9 15 47
-0.000915 0.328577 -0.104855 15 12 12
-0.020167 -0.314677 0.026161 9 22 123
-0.132834 -0.143459 0.007797 9 8 120
0.354170 0.381226 -0.037416 255 253 254
0.660328 0.356485 -0.049217 8 9 47
0.189742 -0.392420 -0.025560 254 254 252
-0.144592 -0.092014 -0.024444 14 13 14
-0.001180 0.331344 -0.104789 16 13 14
0.718144 -0.361331 -0.052383 255 255 254
0.132462 -0.405084 0.019255 253 254 255
-0.141659 -0.131651 -0.098202 16 13 13
0.553676 -0.386826 -0.029634 251 251 252
0.328779 -0.391780 0.004656 12 13 54
-0.152013 0.081047 -0.059848 15 15 15
0.389413 -0.387822 -0.011837 253 253 252
-0.084962 0.232751 0.053783 9 18 58
0.050412 -0.392106 -0.023853 183 184 182
0.412835 0.385249 0.031180 8 7 51
-0.099512 -0.217817 0.006868 8 12 126
0.346155 0.387293 -0.032058 154 157 155
-0.147919 -0.086699 0.086750 235 234 234
0.583793 -0.372739 -0.042339 5 6 51
-0.146347 0.027832 0.068090 13 13 13
0.176006 0.402188 0.011488 16 16 14
0.496647 -0.378906 -0.082015 255 255 255
0.364351 -0.388119 -0.059278 253 254 255
0.248352 -0.408633 -0.018664 208 208 208
-0.129720 0.080305 -0.021921 197 194 196
-0.120930 -0.167265 0.053258 8 12 123
0.126937 0.396127 0.056832 13 13 14
-0.106495 0.171772 0.099090 13 13 14
-0.122357 -0.191911 0.118959 230 230 230
0.514897 -0.390935 0.000513 253 253 252
-0.067012 0.250188 -0.121055 158 158 159
-0.155309 0.027357 0.003801 215 216 216
0.125057 0.392519 0.063574 255 255 255
0.196008 -0.414599 0.016882 255 255 255
0.655968 0.358953 -0.019911 7 8 50
-0.124215 0.029924 0.071706 212 211 210
0.091228 -0.379034 0.049779 15 14 15
0.420167 -0.403968 0.022622 255 255 255
-0.153250 -0.138955 -0.079855 16 17 17
-0.123064 -0.040154 0.031934 14 12 14
-0.118255 -0.199593 -0.087324 9 8 122
0.761265 -0.345912 -0.079138 254 255 255
0.059308 0.347138 0.076230 19 14 15
-0.122198 0.059876 0.094924 200 199 199
0.059444 0.346494 0.095115 173 174 172
0.525159 0.386139 0.020864 7 6 48
0.242027 0.385477 -0.019239 254 254 255
-0.052344 -0.284430 -0.003899 11 16 120
-0.120443 0.170171 0.071773 8 10 87
-0.098533 -0.223806 -0.034987 11 13 125
0.211987 -0.404361 0.009536 150 150 150
0.253392 0.404769 0.037772 201 199 199
0.325812 -0.388787 -0.045741 144 145 144
0.565961 0.378790 -0.013873 251 251 252
-0.071654 -0.270094 0.119690 14 14 14
-0.138739 0.004684 0.002541 255 255 255
-0.136121 -0.128157 -0.096736 240 239 240
0.698355 -0.352668 -0.086238 252 253 255
-0.067817 0.248391 -0.122403 155 154 155
0.217150 -0.391551 -0.027451 205 205 204
-0.042489 0.305947 0.097052 13 13 13
0.417516 -0.390997 -0.071275 13 11 15
0.132205 -0.412864 -0.000523 74 84 96
0.082898 -0.374354 0.061250 13 43 125
0.492104 0.381497 -0.050352 15 13 16
-0.069202 -0.268273 0.010512 8 15 124
-0.117272 0.180895 0.083010 8 12 74
-0.143805 0.083592 -0.041205 9 11 73
0.471852 -0.382980 -0.031229 254 254 255
0.244811 -0.396044 0.035164 203 202 203
-0.004758 -0.326961 0.013735 11 25 129
-0.120739 -0.022428 0.082098 223 223 224
0.074036 -0.372738 0.029725 14 36 129
0.108586 0.392529 0.061343 184 185 185
-0.143913 -0.084820 -0.053401 15 17 16
0.367056 -0.396246 -0.061221 157 158 157
-0.132081 0.089856 -0.063937 15 15 16
-0.091515 0.220341 -0.110928 12 10 14
-0.118729 0.091294 0.101327 16 14 14
0.165655 -0.402389 -0.023999 254 254 255
0.554920 0.373848 0.018673 254 252 255
0.387290 -0.398106 -0.069402 14 12 16
0.082887 0.369146 0.083692 179 179 180
-0.135859 0.116595 -0.029974 8 16 77
0.642959 -0.360777 -0.060215 252 252 253
-0.107683 0.227935 0.104922 13 13 14
0.559739 -0.382685 -0.055951 254 254 252
-0.133123 0.206420 -0.118413 157 157 157
0.361382 0.381790 0.029351 253 254 254
0.136132 -0.382030 0.013918 193 194 193
0.108459 0.389326 0.069776 13 14 14
0.271017 0.400201 -0.013562 190 191 191
-0.142310 0.027384 0.001937 14 13 14
-0.125017 -0.123632 0.110209 244 243 244
0.170449 0.383932 0.010423 254 255 255
0.161063 0.385903 0.009739 228 229 229
0.074176 -0.375515 -0.001625 16 32 129
0.302009 -0.392582 0.019499 255 255 255
0.167827 0.392838 0.060923 15 13 15
-0.123677 -0.151766 0.047783 8 11 119
-0.115560 0.189169 -0.029675 13 20 56
-0.152475 -0.081961 -0.014346 14 15 15
-0.153173 0.051443 0.025297 203 203 203
-0.126026 0.078178 -0.026132 195 195 195
-0.043998 0.285510 -0.114496 14 14 17
-0.129005 0.064705 -0.036297 13 13 14
-0.136018 0.119037 -0.063539 9 14 61
0.479716 0.378155 -0.022715 14 13 27
0.047485 -0.364834 0.066664 11 40 131
0.330668 -0.406874 -0.047021 167 165 167
0.496189 0.385350 -0.047572 8 8 50
-0.029267 -0.324852 0.108849 204 203 203
-0.008980 0.338956 -0.088597 11 13 13
0.082490 -0.379057 -0.033122 14 13 13
0.004470 -0.340778 -0.037888 11 19 127
0.227343 0.390564 0.018132 209 208 209
0.144930 0.387553 -0.018330 180 180 179
0.624276 -0.362993 -0.069061 8 7 51
0.138921 -0.408989 0.015313 235 235 234
-0.003743 -0.335738 -0.023415 9 20 123
-0.085544 0.251015 -0.117278 157 158 158
-0.126615 -0.083699 0.080933 252 253 253
0.733700 0.354744 -0.011057 255 254 255
-0.100418 0.202480 0.039055 11 15 68
-0.110373 0.225931 0.109511 14 15 16
0.314293 -0.403399 0.029702 255 255 255
-0.123003 0.063225 0.071785 201 200 202
0.213347 0.409317 0.033246 251 251 252
-0.117654 0.200731 0.111915 16 16 17
0.117681 -0.397039 0.073096 13 14 14
0.364297 0.395704 -0.004311 253 254 254
-0.101001 0.240305 0.106734 13 13 15
0.547983 0.368938 -0.018676 252 252 254
-0.112158 0.189166 0.089685 9 13 86
0.617945 -0.368833 -0.087586 7 8 45
-0.122949 0.002899 0.079555 15 16 15
0.105918 0.374983 0.062551 12 13 13
0.109021 0.401759 -0.004202 12 11 58
-0.082908 -0.247300 0.003205 8 12 120
-0.033795 -0.306573 0.090304 200 200 200
0.148855 0.394451 0.035811 190 190 189
-0.100590 -0.252657 -0.127266 13 14 13
0.210777 -0.412697 0.018607 252 252 252
-0.094279 0.230074 0.024016 9 18 53
-0.000722 -0.339685 -0.095776 201 201 203
-0.114107 -0.255226 -0.121910 15 14 15
0.254365 0.385242 -0.028263 252 255 251
0.122620 0.404684 0.010542 16 15 14
-0.118210 0.136462 -0.084576 183 182 183
-0.086745 -0.281465 -0.113142 14 13 14
0.302388 -0.412875 0.007980 253 255 255
0.152239 0.392087 -0.020029 213 212 213
0.128024 -0.404738 0.009101 179 181 178
0.303668 -0.388089 -0.032963 13 15 56
-0.130945 0.043024 0.040129 14 15 17
-0.140686 -0.189106 -0.115283 17 17 16
0.145626 0.404433 -0.001916 187 187 186
-0.141637 -0.075400 0.070445 10 11 121
0.535131 -0.386286 -0.006812 251 251 252
0.095417 -0.387098 -0.004319 7 29 125
0.023549 0.339680 0.008439 9 14 22
0.221803 -0.397282 0.040639 250 250 251
0.050639 -0.379750 0.085166 12 13 15
0.306086 0.399188 -0.021955 171 170 171
0.288465 0.382119 -0.031826 158 158 159
0.432052 0.383115 -0.052578 8 6 50
0.001376 -0.344904 0.088037 195 196 193
0.017871 0.361926 -0.083256 178 176 177
-0.148052 0.025946 0.076942 214 214 215
-0.073473 -0.272511 -0.082113 11 15 126
-0.029457 0.290362 0.069026 10 18 53
0.053084 -0.352264 0.079356 13 14 13
-0.152937 -0.078007 -0.000475 14 15 16
-0.023228 0.321456 0.110636 12 12 13
-0.120982 0.172249 0.100342 170 171 171
0.120745 -0.377118 0.010830 192 191 190
-0.122801 0.149210 -0.096550 175 174 175
0.079983 -0.383298 0.066718 23 49 132
0.076224 0.393360 0.049619 14 12 12
0.013811 0.333458 0.082987 167 167 167
0.089449 -0.381486 0.032395 12 12 14
0.405516 0.375235 -0.025302 255 255 254
-0.135270 0.126340 0.040140 11 9 96
0.176321 0.387510 -0.000695 223 221 223
0.128414 0.387077 0.005401 255 255 254
-0.137885 -0.196381 -0.104854 230 230 231
0.207355 0.388453 0.029705 254 255 254
-0.128441 -0.138436 -0.089083 15 14 14
0.117651 0.390058 0.048085 254 255 253
-0.121910 -0.230690 -0.127198 16 15 16
-0.047077 0.317057 -0.112001 163 162 162
0.008290 0.336485 0.102237 174 175 174
0.038270 -0.355158 0.027943 11 28 128
0.110769 -0.409297 0.020139 140 142 140
-0.071416 -0.263082 0.015827 8 15 122
-0.102733 0.202968 0.083960 8 11 78
0.128733 -0.390610 0.072406 16 13 16
-0.088156 -0.234029 0.099145 13 15 15
0.258440 -0.391457 0.000730 254 254 255
0.161038 0.383866 0.024154 255 255 254
0.163581 0.413527 0.028012 14 13 14
0.357880 0.399815 0.029876 252 250 251
0.043744 0.342250 0.081690 168 168 167
-0.060376 0.274033 0.101755 17 15 17
0.649577 -0.370749 -0.034886 255 255 254
0.389775 -0.404385 0.004277 251 252 252
0.154616 0.388075 0.065070 178 177 177
-0.024496 -0.306227 -0.112167 207 207 210
-0.031594 -0.314894 0.091065 206 204 206
-0.151630 0.093882 -0.046786 14 15 15
-0.131292 0.151752 -0.022029 10 17 61
0.590478 -0.369806 -0.037508 255 255 255
0.098645 0.392732 0.071344 13 12 13
-0.134273 0.109398 0.050255 6 7 98
-0.017610 -0.321522 0.111076 207 206 208
0.070470 0.392048 0.020774 187 187 187
-0.053469 -0.311401 0.091414 16 14 16
0.589655 0.366998 -0.030328 255 255 255
0.273158 0.383690 0.006300 255 253 253
-0.042793 -0.286897 0.104479 14 31 130
0.279546 0.401460 0.001113 192 192 193
-0.141322 -0.086451 0.042172 7 8 117
-0.020595 -0.323741 0.087278 203 203 204
0.669712 -0.357854 -0.077196 253 254 255
0.107463 -0.400138 -0.004630 253 255 253
-0.078194 -0.247969 0.027553 10 16 122
0.404268 0.380088 0.026912 255 255 254
0.242668 0.390474 0.047977 215 215 215
-0.085387 0.226224 0.015362 8 13 58
-0.115692 0.180576 0.067304 6 10 83
0.459748 0.390218 -0.046132 255 255 255
0.288645 0.401411 -0.030991 179 178 177
0.166468 -0.411801 0.021920 252 253 254
-0.135690 -0.053675 0.035503 13 7 112
-0.141928 -0.152302 -0.099060 236 234 235
0.021796 -0.340806 0.107727 197 197 200
0.087904 0.373245 0.043118 15 14 12
-0.104586 -0.222619 0.118652 225 222 225
0.386324 -0.399937 -0.027239 219 221 221
0.504200 -0.383354 -0.080161 14 13 15
0.082891 -0.404239 -0.010479 14 13 14
-0.109881 -0.224196 0.118053 220 220 220
-0.054583 0.278660 0.119353 14 14 15
-0.015787 0.327374 -0.101872 12 12 13
-0.140232 -0.101326 -0.002604 9 9 117
0.002678 -0.323108 0.101129 12 12 13
0.674675 -0.356522 -0.085301 255 255 255
-0.064881 0.254624 -0.129738 154 155 156
-0.126270 0.143301 0.088288 9 8 96
0.497880 0.384155 -0.046284 14 12 14
0.021652 -0.330842 0.088727 203 202 202
0.072034 -0.393437 -0.028661 189 188 189
-0.102473 0.235917 0.119540 16 16 18
0.222633 0.403426 -0.020625 255 254 254
0.277136 0.402459 0.001672 254 253 252
-0.125111 -0.066908 0.019309 15 14 14
0.618605 -0.370236 -0.073368 255 255 255
0.296019 0.394000 0.006758 165 166 166
0.181503 -0.409346 -0.012906 143 145 143
0.426739 0.379959 -0.049274 14 13 15
-0.034815 0.309886 0.110836 169 167 169
0.416824 -0.385341 -0.022422 13 13 19
-0.132695 0.109295 0.073280 6 9 102
0.377840 0.380611 -0.014842 7 7 53
-0.093568 -0.223526 -0.123301 219 221 221
0.411437 0.391761 -0.027401 7 7 51
0.382201 0.395979 0.014969 253 253 253
0.023892 -0.348955 -0.008330 10 24 130
0.328298 0.390005 0.005260 151 153 151
0.214632 -0.396721 0.031295 200 201 202
0.625477 0.363348 0.010466 254 252 254
0.348187 -0.400945 -0.047341 148 148 148
0.759044 0.340558 -0.044246 10 8 48
0.176422 0.402372 0.051458 188 189 188
-0.142271 -0.065933 -0.009465 10 6 107
-0.115948 -0.186782 -0.035006 9 9 118
-0.034606 -0.310127 -0.089231 11 11 122
-0.055143 -0.279807 0.040728 8 19 123
-0.096703 -0.235110 0.120726 220 218 220
0.227397 0.403430 0.024024 215 213 214
0.266658 0.400449 0.007113 254 255 254
0.307007 0.398870 -0.039048 253 252 252
-0.131883 -0.157599 -0.093346 13 8 113
-0.058479 -0.282164 -0.048468 15 19 127
-0.057291 -0.290521 -0.096789 13 13 124
-0.149070 -0.070922 -0.037595 16 16 15
0.080742 -0.383499 -0.032278 16 13 15
-0.129091 0.065681 0.098565 199 199 200
-0.136055 -0.127731 -0.017873 9 9 119
0.231660 -0.394433 -0.013197 252 253 253
0.393768 0.381882 -0.043985 13 11 15
-0.096648 0.241261 0.098180 157 158 157
0.494495 -0.380107 -0.069307 255 255 255
0.328608 0.399949 -0.004442 168 168 169
-0.133751 -0.144704 -0.056957 10 9 116
0.616109 -0.377417 -0.079067 254 254 254
0.602577 -0.377468 -0.086472 8 8 49
0.606443 -0.368358 -0.059136 8 8 49
-0.014739 -0.313185 0.108582 208 209 207
-0.147645 -0.097290 -0.071068 14 12 13
-0.099536 -0.218636 0.002077 10 12 121
-0.129165 0.088773 -0.081238 15 16 15
-0.092418 0.206179 -0.093299 11 11 15
-0.143950 0.050719 0.009430 9 7 95
0.240505 0.402719 -0.003866 206 207 207
0.320169 0.396216 -0.007139 7 8 52
-0.093520 0.257276 -0.118970 14 14 15
0.163968 0.404755 0.004316 254 255 253
-0.117777 -0.198951 -0.090860 13 11 120
0.138953 0.401694 0.009724 237 236 237
0.648638 0.360935 -0.045548 15 12 14
0.155601 0.382015 0.050996 255 255 253
0.332539 -0.407495 -0.009666 255 254 253
-0.101587 0.235909 -0.100101 10 11 13
0.452381 0.375343 -0.044853 252 252 253
-0.139240 0.112127 -0.045914 11 13 72
-0.151821 -0.104558 -0.065845 246 246 248
0.452686 0.392264 -0.014657 12 10 14
-0.141102 0.085374 -0.078219 15 14 15
0.077635 -0.397029 -0.007801 192 191 191
0.283946 0.401195 -0.017598 175 176 174
-0.113632 0.203580 -0.123724 13 12 13
-0.113256 -0.206351 -0.123274 17 13 15
-0.138574 -0.151763 -0.085123 14 14 16
-0.044140 -0.277123 -0.112908 214 216 215
0.201639 -0.407341 0.004895 13 14 15
0.035759 -0.356293 0.067331 15 39 133
-0.140678 0.091740 0.065559 9 11 106
0.105370 0.390824 -0.013552 106 110 109
0.113203 0.394145 0.068034 12 12 14
-0.128951 0.143394 0.045636 8 10 91
0.544704 -0.375184 -0.077852 252 254 253
0.450469 0.390079 -0.003412 255 255 255
0.050555 -0.373966 0.084808 103 103 101
0.427510 0.393195 0.023376 253 255 253
0.188281 0.398828 -0.020759 252 251 253
-0.146546 0.024147 0.016186 255 255 255
0.157011 0.386675 0.012121 251 253 252
-0.097610 0.201643 0.067722 8 14 74
0.270321 -0.408706 -0.038837 253 252 253
0.089833 0.368830 0.055195 13 13 14
0.594747 -0.381353 -0.034323 250 250 251
0.528418 -0.386754 -0.070673 255 255 255
-0.049897 0.281576 0.002599 10 15 36
0.641789 0.368437 -0.044005 255 255 254
-0.097521 0.238583 -0.131719 154 155 154
0.056665 -0.364250 0.005931 9 22 123
0.716124 -0.346544 -0.088317 254 255 254
0.504930 -0.378319 -0.070865 251 253 253
0.754899 -0.345294 -0.102607 14 11 16
0.683210 0.352372 -0.054965 254 252 254
-0.001107 -0.328300 0.069325 11 31 126
-0.135417 -0.130772 0.017236 7 8 116
-0.127273 -0.169515 -0.094387 234 234 235
-0.114995 -0.172937 -0.113073 236 236 235
-0.138506 -0.103712 -0.038466 14 13 14
-0.129324 -0.147892 0.020541 6 7 117
0.511271 -0.381119 -0.001771 255 254 253
-0.131004 0.067648 0.063133 197 197 197
-0.086747 -0.247738 -0.043451 10 12 122
-0.079484 -0.204609 0.072269 19 22 78
-0.118945 -0.144755 0.114659 15 12 16
-0.105214 0.198643 -0.012930 12 16 56
-0.147015 -0.154725 -0.091704 14 14 15
-0.072087 -0.256826 0.063609 9 18 120
0.218269 0.389440 -0.023705 254 253 252
-0.019304 0.309232 -0.113688 165 166 166
0.060602 0.385619 -0.028557 12 11 12
-0.064212 0.304815 -0.108548 157 158 158
-0.138554 -0.055230 0.054742 255 254 255
0.099400 -0.383543 0.029515 14 15 15
0.306385 -0.388645 -0.021657 154 154 153
0.491601 -0.382595 -0.072726 7 8 53
-0.005607 0.314692 0.109922 13 13 14
0.375965 -0.390208 -0.025759 161 161 160
0.390224 0.378557 0.031097 8 8 54
0.022063 0.340048 0.043179 11 15 25
-0.115738 -0.173598 0.092377 8 10 121
-0.090625 -0.266555 0.117630 213 213 214
0.042320 0.371960 0.089615 13 15 14
-0.141448 0.124311 0.099404 13 14 13
0.214861 0.405789 -0.023885 201 201 203
0.117469 0.392502 -0.008598 255 255 255
0.022028 -0.351245 -0.008590 16 27 130
-0.014567 -0.331613 -0.100150 15 14 14
-0.140265 -0.107752 0.023857 6 5 114
-0.063349 0.282536 -0.114662 13 13 14
-0.113727 0.129589 0.102341 16 16 15
0.094271 -0.375269 0.060216 15 12 16
0.215401 -0.392992 0.000404 252 253 253
-0.041453 0.280293 0.076372 14 15 55
0.192684 -0.403547 -0.014280 187 189 189
0.612846 -0.372493 -0.071633 13 11 14
0.125567 -0.394680 0.027493 13 12 13
-0.134464 0.168501 -0.094868 173 174 174
0.332486 0.391914 0.035692 251 252 251
-0.131513 0.123351 0.009957 9 8 79
-0.034139 -0.294237 0.049507 10 24 124
0.450159 -0.399183 0.003779 254 255 255
0.739471 -0.347932 -0.084173 252 254 255
0.565524 -0.384800 -0.067050 13 12 19
0.591470 -0.369952 -0.056672 8 7 51
0.209504 0.385373 0.021369 253 255 255
0.553364 -0.373810 -0.082953 8 8 44
-0.135848 -0.157147 0.102996 14 13 15
0.289081 -0.393591 0.000605 183 184 184
0.097723 0.383376 -0.018541 13 12 13
-0.133372 0.146503 -0.084093 13 13 15
0.145723 0.387045 -0.001954 13 14 13
-0.138268 0.083635 0.068588 5 6 106
0.488680 0.374429 -0.029188 253 252 254
0.763661 -0.347029 -0.100400 8 9 53
-0.153634 -0.098481 -0.070104 16 14 14
-0.140343 0.160427 -0.093542 13 13 13
-0.141954 0.079338 0.005962 7 11 93
-0.147247 -0.025712 0.072447 219 219 220
-0.043243 0.296547 0.115503 156 156 157
0.072602 -0.392006 0.062408 189 191 191
0.168113 -0.409341 0.055825 238 239 240
0.306787 -0.397090 -0.047263 165 165 166
0.281095 -0.393861 0.009607 254 253 254
0.452637 -0.382175 -0.060320 11 12 56
0.090399 0.382685 0.077649 13 14 14
0.514302 0.380665 0.025485 255 254 254
0.547291 0.376848 0.021240 253 252 252
0.111873 -0.389856 0.005997 14 13 15
-0.142179 0.085680 0.018128 10 11 93
0.651239 0.360793 0.000773 6 6 55
0.174508 0.401037 -0.010481 221 221 221
-0.098739 0.244992 0.109611 160 162 161
-0.076970 0.250720 0.120234 16 16 18
0.057762 -0.385160 0.083848 14 13 15
0.015002 0.332082 -0.002393 7 12 21
0.434074 -0.400647 0.009099 255 255 255
0.602077 0.364252 -0.045534 254 254 254
0.652840 -0.359646 -0.085997 255 253 255
0.043397 0.350136 0.067934 13 11 13
-0.148159 -0.145987 -0.100891 14 15 13
0.117850 0.401419 0.016455 12 12 12
0.036704 0.336723 0.074496 12 14 13
0.074747 0.389662 -0.006236 17 13 13
0.288409 -0.398223 0.033997 253 253 254
-0.129520 -0.161521 -0.089889 14 15 15
-0.006537 -0.327002 -0.042225 11 15 122
0.349503 0.396418 0.012397 254 254 254
0.146424 0.406324 0.043885 209 210 210
-0.026563 -0.322773 -0.098774 10 11 126
0.107122 0.393005 0.003241 237 237 237
0.464268 -0.397493 0.011545 255 254 255
0.653795 0.359763 -0.040094 9 7 49
0.204337 -0.400972 -0.023956 200 199 198
0.163335 0.391735 0.040348 11 11 13
0.203624 -0.412546 0.018171 211 212 210
-0.078712 -0.255698 -0.034027 12 15 126
0.220204 0.387430 0.053125 207 208 207
-0.152284 0.095524 -0.067311 192 192 191
-0.032183 0.315165 0.091690 166 166 165
-0.129880 0.135355 0.024617 7 8 86
-0.137790 -0.107826 0.041068 7 7 114
0.331605 0.379461 0.025311 8 10 53
-0.147888 0.117789 -0.064451 189 188 190
0.481596 -0.381757 -0.081299 254 255 255
0.442718 0.378937 -0.020410 254 254 252
0.016770 0.328826 0.018814 10 14 35
0.302125 -0.389716 -0.044042 202 200 202
0.706092 0.357700 -0.058113 7 8 49
0.006988 0.321442 0.017972 12 20 32
-0.008504 0.330515 -0.110513 164 164 164
-0.127233 -0.098029 0.107571 249 250 250
0.714121 0.351889 -0.062481 13 12 16
-0.142670 0.083719 0.002827 7 8 85
0.028689 0.365856 -0.076831 15 14 12
0.502473 0.388538 0.026484 251 251 251
-0.087905 -0.234002 -0.124475 222 223 223
0.561127 -0.384992 -0.022525 6 6 49
-0.150702 -0.054559 0.046841 233 233 235
-0.106775 -0.237373 0.107439 222 222 220
-0.112882 0.108348 0.099655 189 190 189
-0.137639 0.054280 0.025922 15 14 16
-0.141113 -0.193290 -0.102882 228 229 230
-0.000927 -0.335047 -0.006914 8 19 126
0.196812 -0.409685 0.048239 14 13 15
-0.116694 -0.199125 -0.075809 10 9 124
-0.043054 -0.322481 -0.116693 14 14 15
-0.109470 0.184498 0.098316 9 14 89
0.062458 0.368208 0.093244 13 15 14
-0.015575 -0.320215 -0.045811 12 17 122
0.139553 0.388290 0.058457 253 255 254
0.003508 -0.361950 -0.096968 13 14 14
0.036752 -0.372224 0.094284 15 15 14
-0.041014 -0.290573 0.041509 8 24 124
0.743354 -0.355787 -0.063622 252 251 254
0.032591 -0.357601 -0.004139 9 25 129
0.744126 -0.346650 -0.101638 10 10 10
-0.135384 0.035418 -0.014081 15 15 16
0.220472 0.387381 0.014410 253 254 255
-0.054488 -0.284646 0.064616 10 20 122
0.155779 -0.411209 0.015485 167 166 166
-0.133045 0.125025 0.058196 9 10 93
0.607046 0.372301 -0.034282 251 252 253
0.171548 0.401729 0.044337 14 14 13
-0.038437 -0.303330 -0.046441 9 14 122
0.594955 -0.368441 -0.057018 8 8 47
-0.092900 -0.228182 0.019883 8 15 123
-0.118045 -0.178672 0.068259 8 12 120
0.414758 0.393347 0.015456 255 253 254
0.050673 -0.359492 0.013626 10 28 124
0.179734 -0.408213 0.059348 142 143 142
0.387107 0.393635 -0.003390 8 8 52
0.332074 0.393172 0.035626 162 163 161
-0.108358 -0.154687 0.099994 234 235 235
0.220414 0.385812 0.001986 210 212 211
-0.151396 -0.010703 0.054851 13 13 13
-0.117812 0.210919 0.114369 14 14 15
0.088794 0.371415 -0.014968 178 178 178
-0.024677 -0.306943 0.054330 9 27 125
0.198857 -0.393794 0.047877 213 213 214
-0.125727 -0.174280 -0.077923 8 8 117
-0.051963 0.271938 -0.121115 151 151 151
-0.144805 -0.031151 0.090832 15 15 17
0.110773 0.378534 -0.010066 180 178 180
-0.123203 -0.138199 0.113737 234 235 237
0.064962 0.366037 0.080297 14 13 13
0.011952 0.324026 0.071559 8 16 37
0.094741 -0.389545 0.031796 12 43 134
0.232862 0.386138 0.042557 253 252 252
-0.139987 0.106901 -0.041908 9 12 72
-0.108491 0.183477 0.099397 9 12 87
0.004812 -0.334206 -0.009423 11 20 124
0.536906 -0.387712 -0.051579 252 252 253
-0.073958 0.273347 0.101062 13 14 13
0.053286 -0.385864 0.072246 13 14 16
0.350866 -0.385645 -0.041523 168 167 167
-0.143684 0.156566 -0.111291 16 13 14
-0.092174 0.274066 -0.112694 162 160 161
-0.149515 -0.040617 0.049260 227 227 227
0.086339 0.386374 0.072752 14 15 15
0.214271 0.397406 0.053874 200 200 199
0.028019 0.354512 0.096315 13 13 13
0.034097 -0.370982 -0.032641 191 192 192
-0.044925 0.305741 -0.113271 158 159 159
0.209098 -0.411456 -0.029666 219 219 219
-0.104088 -0.191525 0.100804 228 228 229
0.251198 -0.409801 -0.019181 255 255 255
0.811647 -0.333941 -0.099946 254 255 251
-0.023366 0.316617 0.108774 161 162 162
-0.124380 -0.155488 0.076060 7 7 118
0.237315 -0.398118 0.032712 212 210 211
0.073044 -0.362303 -0.035204 28 37 71
0.202465 -0.392486 -0.027699 248 247 249
-0.094655 -0.220081 0.087982 8 16 121
0.150920 -0.416584 0.043916 184 184 184
0.565894 0.375973 0.019111 254 253 252
-0.119129 0.213048 -0.116086 15 14 16
0.570709 -0.374191 -0.016680 252 253 255
-0.141955 -0.123910 -0.051358 9 5 112
0.488097 -0.395785 0.005347 253 253 253
0.030959 0.364025 -0.039492 17 12 14
0.006002 -0.359375 0.094178 191 191 190
-0.140407 -0.087833 0.039884 9 10 119
-0.143149 -0.135907 0.106314 17 17 16
-0.143554 0.068708 -0.008020 15 16 16
-0.062585 0.266820 -0.121555 15 14 14
-0.063469 -0.272651 -0.038905 9 13 123
-0.053905 0.271805 0.047549 8 14 50
0.057375 0.347168 0.099740 172 171 172
-0.137913 -0.057966 0.022873 14 13 14
-0.124250 0.150295 0.041094 12 13 78
-0.147477 -0.119404 -0.086100 250 250 250
0.063847 0.386338 0.031575 12 13 14
0.277649 -0.394714 0.007352 254 255 255
0.752689 -0.352602 -0.066996 255 255 255
-0.052368 -0.310165 0.108276 207 206 206
0.124212 0.383605 0.010209 12 13 13
0.491734 -0.392449 -0.049133 14 14 17
-0.145038 -0.082161 0.005018 11 8 115
0.441472 -0.388695 0.006195 255 255 253
0.663147 0.365478 -0.022539 8 7 51
-0.005012 -0.307140 0.106490 211 209 210
0.034297 0.366161 -0.066168 12 13 13
0.298739 -0.407498 -0.037746 185 186 186
-0.086562 -0.250435 -0.105733 9 8 120
-0.087818 0.247053 0.119917 14 14 15
0.110271 0.404023 -0.005863 197 196 197
0.264936 -0.392204 -0.045385 13 10 53
0.615651 0.364038 0.013294 10 9 42
0.507282 -0.386659 0.002851 251 251 252
0.129280 -0.415616 0.019047 14 14 13
0.423466 0.382276 -0.045580 12 11 15
0.757576 0.344747 -0.024993 7 6 52
0.056804 0.379408 0.066712 184 184 184
-0.102667 -0.213432 0.049579 9 11 118
-0.135272 -0.131418 0.005007 6 9 116
0.214458 -0.401567 0.053042 218 216 217
-0.080100 -0.211941 0.114365 227 227 226
0.392344 -0.399441 -0.063141 7 6 50
-0.119353 -0.041759 0.085171 227 225 227
0.257123 -0.413024 0.028841 251 252 252
-0.148570 -0.041304 0.076721 224 223 223
0.388879 0.393463 -0.013733 13 11 18
0.447636 -0.401328 -0.010951 253 255 254
-0.135082 0.088457 0.100012 14 14 15
-0.047613 -0.322550 -0.120505 15 14 13
-0.150541 0.027949 0.048540 211 210 212
-0.079035 -0.250940 -0.049039 13 14 122
-0.011203 -0.356336 -0.087196 15 15 16
-0.132117 0.147192 -0.017396 7 14 71
0.621271 0.362785 -0.016073 255 255 255
0.356647 0.397246 -0.011485 252 251 252
0.254817 0.383822 0.029950 180 179 180
0.039265 0.369548 0.058473 12 14 13
-0.135763 -0.108374 -0.039037 235 238 236
0.708089 0.359852 -0.019350 7 6 54
-0.111575 -0.234111 0.110748 221 223 222
-0.050561 -0.270498 0.119135 213 213 213
-0.030583 0.308040 0.115469 15 14 15
-0.037625 -0.298485 0.020524 9 21 123
0.329539 0.380618 0.004689 255 255 255
0.021040 -0.356234 -0.082677 9 15 129
0.164860 0.406746 0.032799 228 226 230
0.002353 0.330354 -0.022663 9 14 21
0.437152 0.390418 0.002137 9 9 38
0.553223 0.379841 -0.010953 7 6 52
0.049208 0.367656 0.091145 179 179 179
-0.110729 0.188450 0.047978 10 15 73
-0.142834 0.113207 0.102223 190 190 189
-0.120574 0.168750 -0.013991 11 18 60
-0.048648 0.284748 0.100341 14 14 14
-0.107837 0.217442 -0.122781 157 157 156
-0.136122 -0.002208 0.004268 227 226 229
0.233774 0.404825 0.004018 209 210 211
-0.139300 -0.079156 -0.011785 228 228 229
0.003249 -0.325311 0.075943 9 33 125
0.499672 -0.381382 -0.036467 254 254 254
0.327489 0.385601 -0.037664 157 157 157
-0.032843 0.286041 0.072598 11 18 48
0.165789 0.387162 0.052301 215 215 215
0.418094 0.390148 -0.006056 254 252 255
0.138544 -0.401004 0.047417 231 230 231
-0.000921 -0.321689 0.059342 11 33 133
0.402064 0.392042 -0.006972 6 6 49
-0.140308 -0.084985 -0.051627 16 13 16
-0.040972 0.294853 -0.118628 17 13 13
0.100563 -0.391811 0.076721 15 15 16
0.065183 0.386404 0.025646 14 14 13
0.219505 -0.413618 -0.005297 253 255 253
0.160340 0.404293 0.030282 182 182 181
0.058950 0.382555 -0.007534 14 14 14
-0.093804 -0.234145 -0.088066 11 11 120
-0.008629 0.317429 -0.096883 11 12 14
-0.152015 0.086649 -0.058859 15 16 15
-0.111659 -0.133132 0.103360 14 16 15
-0.106718 -0.213580 -0.073546 10 11 123
-0.128208 -0.080909 -0.012617 235 234 236
0.674644 0.362793 -0.023667 8 7 54
-0.119250 0.030766 0.093493 210 212 212
0.266596 0.386066 0.000989 253 253 252
-0.107543 0.214780 -0.123773 160 161 161
-0.130566 0.084006 -0.032656 12 14 16
0.075763 0.367659 -0.029026 174 174 174
-0.050874 -0.283788 0.059498 9 21 127
0.452950 0.387305 0.004495 6 6 54
0.375857 0.398066 0.013392 246 246 248
-0.115535 -0.184903 0.008774 9 9 120
0.192974 0.397003 0.048997 182 184 183
0.181534 -0.399759 0.036380 218 219 219
0.589724 -0.379608 -0.061745 255 255 255
-0.140229 -0.106019 -0.021674 8 7 113
0.038464 -0.357503 0.070146 10 38 126
-0.140590 -0.143342 0.095278 233 234 236
0.065845 0.351745 0.084002 12 11 12
-0.130904 -0.146273 0.017256 10 12 118
0.491515 -0.384116 0.002769 5 8 52
0.340448 -0.392135 -0.025984 156 156 157
-0.097611 0.269748 -0.119759 159 159 157
-0.124491 -0.115864 -0.073748 247 248 246
-0.123354 0.160696 -0.010218 11 15 67
-0.117290 -0.140554 0.110720 250 248 250
0.007924 -0.340307 -0.008597 10 24 132
0.369734 -0.405222 0.011459 206 205 204
-0.130049 -0.208725 -0.121205 16 13 14
0.175053 -0.393275 0.044828 187 188 186
0.469278 -0.391929 -0.058067 254 255 255
0.101343 0.375619 0.030043 13 14 13
0.110263 0.387033 -0.017084 255 255 253
-0.136679 0.092789 0.021678 10 14 88
0.759587 -0.351804 -0.075218 9 7 50
0.722316 -0.353379 -0.097368 14 12 13
0.294593 -0.402231 -0.047479 253 255 253
-0.151827 0.025090 0.046947 14 15 15
-0.134342 0.075495 -0.047946 196 196 198
-0.071288 -0.267013 -0.010027 10 13 125
-0.114692 -0.190386 -0.000162 10 12 119
0.562409 0.369249 0.009254 9 8 53
0.460186 0.393690 0.013987 7 8 53
0.367200 -0.389213 -0.044933 255 254 254
0.121669 -0.395330 0.031135 253 255 255
0.170060 -0.400726 -0.024825 217 217 219
-0.071123 0.243931 0.088129 7 14 70
0.474835 -0.393869 -0.077329 255 255 255
0.614120 0.372019 0.012304 255 254 255
-0.109576 -0.184522 0.091528 10 12 123
0.587159 0.374193 -0.047966 12 13 13
-0.074259 0.257519 -0.088530 11 14 21
0.613319 0.372543 -0.035316 255 255 255
-0.061870 0.249572 0.105265 14 14 15
0.309267 0.400114 -0.023471 255 254 252
0.267848 -0.411409 -0.036312 254 252 253
0.345061 -0.406415 0.020364 255 255 254
0.060524 -0.386680 0.064524 192 192 190
0.343350 -0.392870 -0.056910 255 255 255
-0.125568 -0.160606 0.014806 10 8 118
-0.037266 0.291680 -0.120557 15 13 14
-0.144230 -0.093663 -0.029524 12 9 112
-0.148862 -0.061418 0.097763 233 233 233
0.349300 0.397545 -0.037643 154 156 157
0.288023 -0.398481 -0.042522 200 201 200
-0.142408 0.053481 0.073502 15 14 15
0.613504 0.373656 -0.018581 253 251 252
-0.041790 -0.298664 -0.007551 12 20 128
0.489700 -0.379351 -0.077368 6 6 48
0.521622 0.373178 0.020058 255 254 253
0.165430 -0.400886 0.042986 247 247 248
0.291944 -0.393500 -0.044678 156 158 157
0.506216 0.380415 -0.049068 15 14 16
0.204574 0.405046 0.051836 253 254 254
-0.147990 -0.038394 0.054558 230 230 231
0.548800 0.379323 -0.000871 255 252 252
0.033590 -0.377716 0.049795 15 14 16
0.324968 -0.390775 0.009237 159 160 159
0.355474 0.395700 -0.011259 7 8 54
0.098370 0.389929 -0.013106 14 14 13
-0.088074 0.201612 0.116061 16 15 15
0.405284 -0.387861 -0.069509 9 8 49
0.074803 -0.395363 -0.032435 191 189 192
0.096352 -0.384195 0.023180 13 14 15
0.017001 0.364907 -0.081719 176 175 175
-0.107851 0.190296 0.104328 164 164 163
0.039564 -0.359282 0.043347 17 38 133
0.490388 0.373452 -0.036162 252 254 253
-0.124368 -0.183134 -0.082196 8 7 117
0.167194 0.411658 0.052949 14 12 13
0.201002 0.405578 0.044228 255 254 254
0.032331 -0.350879 0.091663 14 45 129
0.538295 -0.391243 -0.014046 255 254 255
-0.066439 -0.257979 0.077740 9 22 124
0.127982 0.384566 0.028017 15 13 12
-0.123877 0.061946 0.053191 203 203 201
0.063376 -0.393253 -0.013861 186 186 186
0.292771 0.394419 -0.005448 180 179 179
0.513185 0.375780 0.014598 255 255 255
0.027775 -0.349739 0.036808 11 30 124
0.088605 -0.387597 0.006631 15 12 14
-0.111998 -0.193485 0.044722 7 12 121
0.685385 -0.364636 -0.041758 252 253 253
-0.043919 -0.321637 0.091988 14 14 15
0.659895 0.359813 -0.005209 254 255 253
0.287711 0.397698 -0.030246 253 255 253
-0.139830 0.090944 -0.047139 9 13 73
0.065611 0.385788 0.010041 188 187 189
0.116769 0.373605 -0.007938 165 164 167
-0.141890 -0.022117 0.012500 223 222 223
-0.134149 -0.084623 0.048036 246 244 246
0.291318 -0.407625 -0.001454 251 251 251
0.619885 -0.364788 -0.058518 255 255 255
-0.100149 0.225363 0.100754 147 149 148
-0.117224 0.173286 0.044468 8 11 83
0.067715 0.356541 0.082556 12 11 12
0.126232 0.405389 -0.004596 193 193 193
0.097224 0.385615 0.002219 12 13 13
0.047519 -0.380351 0.048441 192 192 192
-0.091736 -0.261890 -0.108043 218 218 218
0.055923 -0.385579 -0.005396 13 14 14
0.276276 -0.390677 -0.034042 184 183 184
0.354381 0.395432 0.001880 9 8 53
0.290477 -0.391303 -0.035675 170 171 171
0.333005 -0.404337 -0.036983 164 162 163
-0.035419 -0.308569 -0.096169 11 11 129
-0.043276 0.285024 0.061264 12 18 46
-0.144190 0.088439 -0.036326 7 9 79
-0.106031 -0.222322 0.118878 222 222 222
-0.136365 0.118538 -0.063146 13 13 16
0.263756 0.387274 0.026959 253 254 255
0.149002 -0.404831 0.006273 143 144 142
-0.135769 -0.175915 -0.116952 13 14 14
0.490426 0.376222 0.005558 255 254 254
-0.082663 0.208665 0.100184 156 158 157
0.474749 -0.394539 -0.069705 254 254 254
0.565876 0.373105 0.017856 255 253 253
0.448645 -0.382762 -0.074598 12 13 14
-0.019711 0.305070 0.058856 8 16 42
-0.095067 0.214783 0.081434 9 15 74
0.593405 -0.377928 -0.084446 5 5 49
-0.004958 0.314744 0.089262 13 13 13
0.028244 0.337553 0.105474 168 171 170
0.328120 0.389490 0.038475 153 155 154
-0.120396 0.058574 0.092179 205 206 204
-0.116666 0.229140 -0.119594 11 11 13
0.708199 0.354751 -0.010383 254 254 255
0.197272 0.406869 -0.011079 216 215 216
0.209373 0.379450 -0.007899 255 254 255
0.218861 -0.408064 -0.029526 224 224 222
0.550165 0.368968 -0.027896 10 9 54
0.338346 -0.392687 0.019891 255 253 255
0.017235 -0.346540 0.091056 15 47 127
-0.083030 -0.254736 -0.041287 9 11 121
0.248205 -0.394992 0.044036 251 251 252
0.129591 -0.413687 0.020619 13 13 14
-0.112587 0.117318 0.108049 14 15 16
-0.065834 0.295343 -0.111382 11 10 11
0.134924 0.378720 -0.002329 165 166 167
0.613024 0.373376 -0.000776 255 254 255
0.521335 -0.390088 -0.032036 255 255 255
-0.030197 -0.308793 0.020982 9 19 122
0.038796 -0.385399 -0.036559 14 14 14
-0.074893 0.267339 -0.128144 160 160 161
-0.142456 -0.139552 0.104392 243 243 244
-0.127821 -0.142913 0.095234 15 15 16
-0.122946 0.030773 0.030350 213 211 213
-0.109462 -0.234252 -0.123880 219 219 220
0.042624 0.363083 0.054526 15 12 16
-0.148126 0.072732 -0.005709 15 14 15
-0.102783 0.238207 -0.105611 152 152 151
0.091393 -0.399365 0.023706 181 180 180
0.018981 0.337800 0.078941 12 13 14
-0.131769 -0.151502 -0.049576 11 11 114
0.092134 -0.387505 -0.000960 10 35 133
-0.124536 -0.026758 0.054000 14 13 14
0.141013 -0.409058 -0.021856 226 227 225
0.092964 -0.405267 -0.018725 181 181 181
-0.092664 0.184054 0.112792 15 16 15
-0.151979 -0.015696 0.064840 221 220 221
0.143371 -0.410650 0.006432 255 255 255
-0.140466 0.054116 0.095574 203 202 204
-0.133290 0.141309 -0.087549 11 17 45
0.334358 -0.408522 -0.023539 156 157 157
0.090443 0.390593 0.005800 254 254 253
-0.135797 -0.160829 -0.107042 237 236 237
0.727295 0.347591 -0.060794 253 252 252
-0.123398 0.117526 -0.073482 18 17 18
0.028519 -0.381558 -0.042180 13 13 14
0.103215 0.379444 0.029068 8 12 60
-0.155469 -0.061499 0.004858 234 234 234
0.489317 -0.386021 -0.017290 9 10 34
0.041320 0.372525 0.000097 15 13 12
