ply
format ascii 1.0
element vertex 1273
property float x
property float y
property float z
property uchar red
property uchar green
property uchar blue
end_header
-0.156065 0.034887 0.080045 203 204 206
0.721883 0.356812 -0.018080 0 0 52
-0.158988 -0.175267 -0.107588 7 4 6
0.104901 -0.428511 0.038376 9 7 8
0.152124 0.426497 0.075873 6 7 7
0.565983 -0.386491 -0.091246 8 9 7
0.110891 0.402478 0.015067 0 6 8
0.288234 0.402596 0.031853 253 255 255
-0.026876 -0.347694 -0.099915 6 7 7
0.207959 0.450485 0.054908 178 178 178
-0.048315 -0.312023 -0.120785 8 6 7
0.849008 0.316029 -0.045462 0 2 54
0.661889 0.356679 -0.014521 255 255 254
0.067894 -0.386087 -0.026625 1 14 126
0.034387 -0.391258 -0.082112 8 9 10
0.066055 0.390664 -0.031671 1 5 8
-0.007919 -0.325959 0.125813 196 195 195
0.494424 0.385317 0.014442 0 0 54
0.012661 0.353749 -0.114517 159 161 161
0.438294 0.412700 -0.057755 5 6 7
-0.089672 0.238294 0.116194 153 154 155
-0.025234 0.319980 -0.082451 0 5 15
0.070326 0.404282 -0.037050 171 173 175
-0.103587 -0.237620 -0.121433 6 8 7
0.578847 0.379333 0.003902 0 0 52
-0.009010 -0.351320 -0.124236 7 8 6
0.531873 0.391064 0.016526 1 1 54
0.572096 0.374128 0.010893 0 0 53
0.205995 0.420030 -0.003447 220 219 219
0.340552 0.425830 0.042113 164 168 166
-0.100455 -0.225591 0.083796 1 7 128
-0.138727 0.152887 0.032663 2 10 69
0.880120 0.307870 -0.046362 0 0 49
-0.027180 0.311912 0.093537 1 12 46
0.187381 0.428092 -0.006586 110 115 113
-0.066321 -0.284099 -0.112826 2 1 128
0.836470 0.314657 -0.068316 6 6 5
-0.136665 -0.086807 -0.069270 234 232 233
0.618602 -0.358776 -0.034972 0 0 49
-0.028817 -0.314042 0.120522 199 198 200
-0.159827 -0.121528 -0.060200 238 239 238
-0.098431 -0.204696 0.132275 7 7 7
-0.094045 -0.193517 0.124542 7 6 7
0.005129 0.336860 0.015625 1 7 25
0.576005 -0.390938 -0.033298 251 251 251
0.405716 -0.413636 -0.033090 159 162 162
0.272308 -0.440984 0.020498 254 254 253
0.450705 -0.412185 -0.046014 0 0 55
-0.038019 0.315478 -0.129017 7 7 6
-0.129036 0.199830 -0.108749 162 162 162
-0.118813 -0.183186 0.080159 0 5 124
0.551520 -0.391660 -0.083915 0 1 50
0.218792 0.432741 -0.020845 254 254 255
-0.131620 -0.229551 0.116397 219 219 218
0.083812 0.418401 0.009776 174 173 175
-0.092688 0.263213 0.132007 151 151 150
-0.016602 0.320535 -0.001123 0 6 25
-0.147536 -0.080607 0.074251 7 7 7
-0.145592 -0.147367 -0.087456 7 6 6
0.077352 -0.406536 0.054761 183 181 182
-0.056772 0.306240 -0.129759 153 155 154
0.219448 0.414446 0.023300 206 206 204
-0.134472 -0.193050 0.113824 7 8 6
0.114562 0.405360 -0.026219 169 169 170
0.654123 0.357358 -0.040702 253 254 253
-0.061277 0.283519 0.063781 0 8 46
-0.093556 -0.256167 0.117095 8 6 6
-0.115008 -0.255074 -0.135977 7 7 6
0.115324 0.405170 0.034947 6 7 6
-0.144818 -0.088898 -0.049681 9 6 8
0.344366 -0.420116 -0.015094 159 160 161
0.760871 0.346378 -0.018978 0 0 53
0.650194 -0.358193 -0.080516 0 0 50
0.499386 -0.380912 -0.058756 255 255 255
0.252112 -0.421521 -0.005359 186 186 186
0.328841 0.398264 0.009827 255 255 253
-0.117199 0.153490 0.101919 7 7 7
-0.058506 0.292753 -0.062097 0 5 17
-0.091871 -0.211392 0.126352 224 222 224
-0.068583 0.281351 -0.127002 5 5 6
-0.042130 -0.304443 -0.118207 3 0 126
0.309461 -0.429084 0.031706 182 184 183
0.001966 -0.336936 0.069847 0 22 126
0.044597 0.374320 -0.060497 0 2 10
0.412937 -0.412770 -0.041179 196 197 198
-0.133198 0.138424 0.095977 0 5 88
0.121156 0.405499 0.035293 6 7 7
-0.107295 -0.219680 0.103057 1 9 127
0.225333 -0.438488 -0.004606 225 226 225
-0.000787 -0.352895 -0.122172 194 194 196
-0.124265 0.200662 -0.106799 0 6 24
-0.114937 0.146044 0.107840 6 8 7
-0.166308 0.045682 0.065134 6 7 8
0.855453 0.313039 -0.045434 255 254 253
0.891749 0.306463 -0.057873 254 253 252
0.244426 -0.407443 -0.007968 181 180 181
-0.079851 0.269085 -0.135147 4 5 6
0.030291 -0.357300 0.006510 0 19 130
-0.008690 -0.325311 0.106012 0 22 127
0.653769 0.360711 0.005302 255 254 255
0.151336 -0.448038 0.034160 64 68 66
-0.045553 0.303341 0.109015 7 7 7
-0.133321 0.086231 0.094366 188 189 189
0.005023 -0.344365 0.034060 4 20 128
0.121503 -0.424079 0.007207 177 176 178
0.196701 0.434741 0.049738 253 252 253
0.003286 0.334121 0.042092 0 9 30
0.045287 0.379158 -0.089397 165 165 166
0.682122 0.359056 -0.060792 7 6 9
-0.053341 0.286703 -0.025441 0 8 27
0.637065 -0.353057 -0.053870 0 0 52
-0.087251 0.240881 0.065027 0 7 54
-0.122915 0.101811 0.103467 6 7 7
-0.002946 -0.342635 -0.118277 7 8 7
0.603793 -0.361633 -0.064606 0 0 52
-0.083042 0.234881 0.119196 4 5 6
-0.078659 -0.281821 -0.098717 2 4 128
-0.124585 -0.175677 0.010551 4 2 123
0.344692 -0.422661 -0.027395 161 161 163
0.535890 0.371581 -0.033595 0 0 52
0.044509 -0.376916 -0.038628 4 13 129
-0.083909 0.224566 0.137151 7 7 6
-0.167970 -0.077774 0.000770 8 9 8
0.178428 0.425495 0.065667 4 8 8
0.426765 -0.407703 -0.024588 252 252 252
0.252198 0.416319 -0.026289 255 255 255
0.427786 -0.404466 -0.024086 229 229 227
-0.121711 -0.196336 -0.128060 224 225 225
-0.128303 -0.178551 0.077469 1 4 126
-0.127737 0.076128 -0.006146 6 8 8
0.109256 0.425729 0.016815 7 8 7
-0.119921 -0.180088 0.104849 0 5 128
0.149044 0.410058 0.072400 7 10 7
0.415283 -0.393355 -0.035976 254 255 255
-0.136170 0.098052 -0.029401 186 188 190
0.489481 0.396356 -0.010031 0 0 50
0.133024 -0.408228 -0.026763 178 179 180
-0.115680 0.193746 0.109336 162 162 163
0.010464 -0.360515 0.116178 5 7 8
-0.096336 0.230828 0.104275 1 6 66
-0.035307 0.308824 -0.024619 1 7 23
0.860976 -0.300964 -0.126952 6 8 8
0.072732 0.392093 -0.051788 169 169 170
-0.097448 -0.230910 -0.118791 6 8 9
-0.094142 -0.243042 0.013133 1 7 126
0.210302 0.434422 -0.029912 255 255 255
0.382157 0.406091 0.005587 0 1 48
-0.121898 -0.203014 -0.052887 2 4 123
-0.025453 -0.318620 0.015383 2 13 131
-0.133640 0.198285 0.118245 161 163 162
-0.010943 -0.351982 0.096546 194 194 195
0.214480 0.433865 -0.001861 255 255 254
0.120799 0.430753 -0.012353 177 176 177
0.634585 -0.358455 -0.081408 0 1 51
0.252878 -0.421171 0.002078 209 208 208
-0.152834 0.132531 -0.082002 179 180 180
0.271947 -0.418265 0.042320 189 191 192
0.422582 0.398917 0.029024 0 2 52
-0.092793 -0.238604 0.015060 1 8 127
0.065264 -0.383269 0.002783 2 20 131
-0.119966 0.036906 0.096135 206 206 206
0.367146 0.393388 0.018837 253 254 254
0.491044 0.401649 0.003320 0 1 51
0.592611 -0.378962 -0.076735 255 255 255
0.057512 -0.381935 -0.046753 0 12 128
0.023801 -0.353874 0.068682 4 25 129
-0.018273 -0.372625 -0.112138 192 191 191
-0.009039 0.348687 0.123503 160 160 162
0.045947 0.393597 0.112969 7 7 8
0.006312 0.333804 0.113467 7 6 6
-0.008525 -0.353566 -0.114496 5 7 7
-0.132104 0.178551 0.130065 164 164 168
0.175750 -0.422648 0.026378 228 228 228
-0.000895 -0.352016 0.098866 193 193 194
-0.155418 -0.135754 -0.080651 6 7 8
0.241015 -0.419838 0.037166 254 253 254
-0.094974 -0.245244 -0.026185 4 4 128
0.037983 0.391548 -0.067925 171 169 171
0.078773 -0.411451 0.057149 6 5 7
-0.112340 0.220658 -0.066855 0 8 30
-0.088861 -0.234382 0.041281 2 6 126
0.731048 -0.358189 -0.072788 2 0 56
-0.125152 -0.194149 -0.069283 4 3 123
0.342969 -0.430346 0.029783 159 160 162
-0.096287 0.217137 0.097427 0 8 70
0.032668 0.392472 -0.099268 169 169 169
0.342266 0.416466 0.035397 253 253 254
-0.031817 -0.313584 -0.060329 4 7 129
0.623314 -0.384605 -0.032627 255 255 255
-0.136247 0.149947 0.064484 2 9 75
0.062603 0.393517 0.103247 8 8 9
0.639387 0.362332 -0.048003 6 5 16
0.123227 0.417359 0.033013 9 9 8
0.183886 -0.446556 -0.010729 228 229 227
-0.083587 -0.231971 0.136800 216 216 215
0.818583 -0.316660 -0.117935 254 255 255
0.243727 -0.445924 0.025598 201 200 202
0.659845 0.353890 -0.045471 253 254 255
-0.107749 0.203099 0.087222 1 5 70
0.097679 0.418972 -0.026036 8 8 7
0.231423 -0.422121 0.050653 254 255 255
-0.144112 -0.027707 0.001998 8 6 6
-0.097170 -0.250270 0.140409 6 5 5
0.532687 0.391866 -0.019810 255 253 254
0.026997 0.357249 0.117616 160 161 161
0.389662 -0.418976 -0.014164 255 255 255
0.010785 -0.369807 0.084209 193 190 191
-0.095654 -0.242335 0.116757 215 215 217
-0.145449 0.081801 0.085599 192 192 195
0.517542 0.387205 -0.027932 254 255 255
-0.135220 0.084140 0.028082 6 7 8
0.442258 0.395846 -0.058341 0 1 50
-0.067966 0.273077 -0.014774 0 5 29
-0.158789 -0.002246 0.090598 214 216 215
0.682190 -0.353387 -0.105616 1 0 55
0.231934 -0.445356 0.013299 219 218 219
0.745843 -0.350991 -0.067941 255 254 255
-0.133531 0.034519 0.037427 6 8 6
-0.141312 -0.152477 -0.036319 1 2 121
0.427355 -0.422018 -0.060205 255 255 252
0.000313 -0.339629 0.109689 6 6 6
-0.140753 0.141869 -0.006293 1 6 63
0.823546 0.331280 -0.027732 0 0 53
-0.040975 0.308279 0.090659 3 13 41
-0.126126 -0.199826 0.114306 8 8 8
0.535480 0.385252 -0.058900 255 255 255
-0.051676 -0.294352 -0.127388 204 203 205
-0.028163 -0.317299 0.004806 1 13 129
-0.147036 0.090692 0.084809 185 186 186
-0.158109 -0.094509 0.103973 6 7 6
-0.095690 0.233210 0.009524 0 8 47
0.099985 -0.426142 0.063395 177 178 179
0.045750 -0.371545 0.067463 3 26 129
0.004308 0.336522 0.065880 5 13 42
-0.146442 -0.087243 -0.031868 6 7 6
0.754155 -0.336615 -0.065473 253 251 252
-0.132584 0.174826 0.125111 7 7 7
-0.133697 -0.163358 -0.010284 1 1 121
-0.140244 0.191007 -0.096121 6 6 6
0.273641 -0.420740 -0.023344 196 197 199
-0.121591 0.213004 0.113191 158 156 159
-0.043912 -0.293191 0.120732 4 23 128
-0.135825 -0.226804 -0.129524 6 7 7
0.158649 0.416584 0.024780 233 234 232
0.197161 0.422871 0.001596 165 167 167
-0.078616 0.244426 0.134756 153 154 155
-0.033250 -0.338484 0.121053 7 7 7
-0.145113 0.124693 -0.050954 0 9 59
-0.126539 -0.103222 0.123124 232 230 232
-0.138690 -0.154042 0.103693 5 7 8
0.474509 -0.414466 -0.054406 206 209 207
-0.104622 0.232498 0.134570 6 8 6
0.367633 -0.423216 -0.066501 253 253 255
-0.145843 0.112733 0.039939 0 6 82
0.278044 -0.437896 0.042104 202 201 202
0.005017 -0.339734 0.057576 2 23 128
-0.051740 -0.303147 -0.130072 6 7 7
0.150681 0.424026 -0.000869 174 175 174
0.477301 0.387252 -0.033379 1 1 52
-0.129580 -0.241281 -0.130780 8 6 8
0.783333 0.329364 -0.064066 0 0 52
0.403266 -0.405770 0.013565 0 0 53
-0.126146 0.191051 -0.119109 161 161 161
-0.099625 0.221829 0.083749 0 7 66
-0.058773 -0.301511 -0.116469 6 3 128
0.436688 0.388159 -0.050461 5 6 14
-0.120072 0.185746 0.010051 1 10 58
-0.161330 -0.154865 -0.087345 6 6 7
0.528024 0.396282 0.001077 0 3 51
0.760834 0.337667 -0.061934 253 253 254
0.320014 0.417451 0.003369 0 2 49
0.016364 -0.354174 0.044019 3 19 130
0.404621 -0.421435 -0.005525 210 210 208
-0.140024 0.110578 -0.072541 7 6 7
-0.139760 -0.065541 -0.005261 228 228 228
0.141333 0.412994 -0.015162 0 3 6
-0.147855 0.130073 -0.072035 178 179 179
-0.029954 -0.295264 0.114978 204 205 205
0.216479 -0.415042 -0.027008 254 255 254
0.005235 -0.350703 0.125172 7 7 8
-0.131541 0.211319 -0.135784 8 7 7
0.066415 -0.396517 0.108249 7 8 8
-0.119348 0.205776 -0.058447 0 8 36
0.113007 0.415581 0.031226 8 8 8
0.487141 -0.383415 -0.052786 0 0 50
0.599996 -0.367026 -0.036605 2 1 53
0.108316 0.427485 0.083883 6 5 6
0.228332 0.410209 0.045471 254 255 254
0.410807 0.393227 -0.025889 0 2 50
0.360887 -0.414954 -0.049663 255 255 255
0.107046 0.424713 0.076559 7 7 8
-0.128262 0.021091 0.066758 9 7 8
0.640386 -0.357267 -0.068456 0 0 55
0.488366 -0.385286 -0.039082 0 0 51
-0.098575 0.221273 0.061547 0 10 60
0.147400 0.437644 0.033352 6 5 6
0.524170 -0.398615 -0.065122 1 0 51
0.095613 0.398701 0.043872 169 168 169
-0.157328 0.062402 0.040563 6 7 7
0.601348 0.381586 -0.021095 1 0 51
0.107143 -0.416512 -0.031250 6 6 6
-0.126531 0.110533 0.113486 183 183 183
0.348334 -0.408293 -0.064613 174 176 176
-0.088978 -0.251001 -0.078196 3 3 124
-0.134975 0.131304 -0.072649 180 180 183
0.207825 0.441944 -0.022533 221 220 220
-0.128692 0.076003 0.055837 6 8 7
0.108702 -0.435505 -0.036813 177 176 178
-0.078026 0.315817 -0.129171 153 153 154
-0.157509 0.036527 0.012247 205 206 206
-0.145555 -0.156271 0.120330 5 6 7
-0.137829 -0.093211 0.102152 7 8 7
0.132626 0.406098 -0.025056 7 9 7
-0.136897 -0.123899 -0.076338 237 238 239
0.136439 0.414160 -0.005255 110 110 109
-0.158667 0.101376 0.085687 184 185 184
-0.159662 0.011108 0.077433 7 8 7
-0.059646 0.284162 -0.104057 2 7 14
0.268522 0.421723 -0.029975 255 255 255
0.033630 0.368716 -0.091330 163 163 164
0.499821 0.397931 -0.031433 1 1 54
-0.000595 -0.339707 0.122987 8 7 6
-0.001456 0.337262 0.017643 1 8 24
-0.140437 -0.144415 0.128207 231 232 231
0.493147 0.402721 -0.054681 0 0 54
-0.141312 0.115718 0.086538 0 5 89
-0.017820 -0.331423 -0.032395 2 12 131
0.492725 0.384062 -0.002402 255 255 255
0.210742 -0.423682 0.056739 7 8 8
-0.021628 -0.331600 -0.124524 2 1 128
0.200198 -0.441157 0.064613 171 172 174
-0.123977 0.179610 0.107940 2 6 82
0.113950 0.426270 0.036840 178 177 178
0.418018 -0.414845 -0.061952 138 143 142
-0.151633 -0.011641 -0.006190 214 214 215
0.249312 0.416701 0.011050 196 195 195
-0.096132 -0.263223 0.135968 8 9 9
-0.120360 0.151316 0.124556 7 6 8
-0.133073 -0.131802 -0.090870 8 6 8
0.215311 -0.425497 -0.027140 255 255 254
0.158742 0.436780 0.028897 177 176 178
0.385328 0.412126 -0.000935 252 253 253
-0.103790 -0.237644 -0.115603 4 0 125
0.006531 -0.349678 0.008615 3 17 128
0.677447 0.371171 -0.027550 255 255 255
-0.041842 -0.279460 0.116302 209 210 211
0.058461 0.378275 0.003442 0 6 14
-0.134430 -0.171016 -0.066855 2 0 121
-0.030582 -0.310196 -0.019652 2 11 128
0.200352 -0.433959 0.032285 255 255 255
0.080977 -0.413817 -0.011869 6 6 9
-0.088601 -0.240007 0.135366 214 213 213
0.038804 -0.386130 0.103951 186 187 186
-0.135662 0.072738 0.000308 7 7 7
0.059633 -0.382271 0.120708 188 186 187
0.002992 -0.337706 0.101127 7 9 8
0.540018 0.391934 -0.008488 255 255 253
0.013995 -0.343540 0.071932 0 24 127
-0.102207 0.216263 0.099647 0 8 72
0.791196 0.328964 -0.057363 255 255 255
0.481003 0.392866 -0.022249 255 255 255
-0.079568 -0.258305 -0.126115 8 6 9
-0.075363 0.268711 -0.067278 0 5 19
-0.108164 -0.235783 -0.134195 6 6 7
-0.097824 -0.241262 -0.135924 218 216 217
0.469379 0.402946 -0.025711 255 255 255
-0.122386 -0.182911 -0.131537 229 227 226
-0.078653 -0.240861 0.115884 215 213 213
0.164780 -0.427102 0.013112 7 6 9
-0.146398 -0.066765 0.057556 6 8 9
0.225154 -0.442490 0.024972 222 222 220
-0.072715 0.264260 -0.124167 148 148 149
0.566588 -0.387030 -0.068857 0 0 53
0.669829 0.357828 -0.055485 2 1 52
0.757493 -0.334360 -0.082327 254 254 255
0.076274 0.387152 0.025169 0 6 13
0.511967 0.375493 -0.016883 255 255 253
0.141344 -0.418282 0.023329 9 8 9
0.831361 0.309986 -0.063596 0 0 53
-0.099913 0.216041 0.105670 1 8 71
0.338025 0.404370 0.039425 255 254 255
-0.159598 0.102730 -0.009885 187 188 188
0.140547 -0.433022 0.078029 8 9 8
0.494940 -0.407124 -0.015988 0 0 55
-0.136564 -0.061458 -0.009442 2 11 94
0.716648 -0.360705 -0.101341 0 0 52
0.029874 0.360397 -0.056854 1 4 10
-0.149769 0.113134 -0.035897 5 6 7
0.126615 -0.440459 -0.012070 104 106 106
-0.147208 0.149037 0.115230 7 7 7
0.198091 0.431657 0.068762 5 9 9
0.102880 -0.414829 -0.020714 6 8 9
0.018711 0.363176 0.120875 161 159 162
0.162129 0.418571 0.037840 175 176 175
0.165087 -0.418331 0.070706 6 5 9
-0.148169 -0.085217 0.014159 236 234 237
-0.063361 -0.292727 -0.142063 8 8 8
0.083886 0.388700 0.097549 168 168 170
-0.126490 0.086467 0.069151 191 190 191
-0.027038 0.311030 0.013933 3 9 31
-0.143143 0.052492 0.002881 8 7 8
0.233685 -0.443429 -0.010234 255 255 255
-0.140789 0.139860 -0.054726 7 7 8
0.070330 -0.372887 0.121796 6 6 5
-0.122440 -0.183489 0.005836 2 4 123
-0.154264 -0.104301 0.028822 1 5 120
0.406293 0.392802 0.012489 1 0 52
-0.105458 0.212600 -0.074964 0 7 25
-0.121727 -0.172412 -0.116989 230 230 232
-0.142935 -0.166963 -0.123683 233 230 231
-0.097771 -0.251480 0.136359 213 211 213
0.636438 0.361644 0.006260 252 253 253
0.102789 -0.405197 -0.003121 0 25 129
0.582213 0.372589 0.019307 255 255 255
0.598587 -0.364584 -0.083741 1 1 54
0.271233 -0.441092 0.035412 196 197 198
0.217541 -0.442512 0.020894 218 217 219
0.243979 -0.410364 -0.021971 196 196 197
0.076836 -0.414084 0.011125 181 182 183
0.108184 -0.394477 0.065379 186 186 187
-0.148839 -0.102200 -0.079841 239 238 241
0.011203 0.343858 -0.002709 0 6 20
0.468638 0.409662 -0.016678 255 254 253
-0.154352 0.066420 -0.021213 6 7 6
0.245062 -0.420073 0.029999 203 201 203
0.193527 0.437896 0.056188 255 254 254
0.233840 0.440276 0.030724 255 255 255
-0.150578 0.101494 0.095829 184 183 185
0.071780 -0.413161 0.049660 6 6 7
-0.142527 0.089037 0.026414 7 7 5
0.047994 0.393635 -0.083177 169 169 170
0.864200 0.315198 -0.070814 255 255 255
-0.159067 0.100648 -0.013013 9 9 9
-0.128224 -0.172473 -0.008764 4 0 124
-0.121993 -0.194040 0.074241 3 5 125
-0.158321 0.076130 0.056136 5 7 7
0.024632 0.370144 0.109661 162 164 162
0.690004 -0.368244 -0.074307 254 253 255
0.076235 0.387982 0.051821 1 8 19
-0.044269 -0.329366 0.102793 197 198 199
0.162447 -0.445929 0.026736 176 175 178
0.853252 0.317750 -0.051340 0 1 51
0.042960 -0.395502 0.062319 5 5 5
-0.165813 -0.023531 0.019550 219 216 219
-0.115817 0.029792 0.041387 5 4 5
-0.123100 -0.193323 -0.046170 5 2 123
-0.161367 0.066850 0.072202 6 7 6
0.045335 0.348593 0.111653 7 8 8
-0.071959 -0.284465 -0.144730 206 203 207
-0.095072 -0.240212 -0.138378 215 213 215
-0.151810 0.092077 -0.053310 193 194 194
0.059709 0.378653 0.073604 0 9 22
0.709298 -0.354731 -0.048426 0 2 55
-0.080282 0.255521 0.118057 0 8 66
0.016547 -0.348586 -0.032693 3 13 130
-0.124892 -0.176784 0.089864 1 4 125
0.297160 0.428658 0.019203 179 178 178
-0.143814 -0.140031 0.083369 2 1 122
-0.129408 0.161651 0.080135 1 6 79
0.527448 0.379269 -0.052578 0 0 52
0.541821 0.389899 0.014692 0 0 53
0.029201 -0.399204 -0.098540 186 186 185
0.122631 0.406382 0.059756 169 169 169
-0.147742 0.114651 0.016046 1 9 77
0.467511 -0.381022 -0.086007 253 254 255
-0.037474 0.316517 0.132877 8 8 8
0.232375 0.423235 -0.015603 253 253 253
0.847651 0.312762 -0.049822 0 1 54
-0.158863 -0.050068 -0.000663 6 8 8
0.299397 -0.421243 -0.046211 181 181 182
-0.161377 -0.081993 0.088518 7 7 9
0.461198 -0.384029 -0.056447 2 3 49
0.136958 -0.439889 0.008023 6 8 9
0.511992 0.382168 -0.041287 1 0 52
0.276301 0.427962 -0.030287 181 183 182
0.086352 -0.396051 -0.043641 188 186 187
0.109234 -0.426034 0.043163 179 179 181
0.378643 -0.410361 -0.067060 150 155 150
0.339114 -0.428259 0.014415 221 221 220
0.397726 -0.408228 -0.033885 185 185 186
0.080481 -0.397622 0.096616 6 6 8
0.371327 -0.411256 -0.021630 135 135 135
-0.063267 -0.282850 0.140874 7 9 8
0.032653 -0.382573 0.107016 7 10 9
-0.038000 0.298570 0.095441 0 8 50
0.038367 -0.387760 -0.075366 187 186 188
0.593053 -0.385590 -0.085686 255 255 255
-0.099013 0.230391 0.019073 0 8 49
0.614757 -0.366171 -0.064910 4 4 34
0.845062 0.309701 -0.074694 254 253 252
0.471172 0.401668 -0.000030 255 255 255
0.710742 0.353816 -0.059648 7 6 7
0.081555 -0.373044 0.079169 187 187 188
-0.017540 0.311914 0.113754 8 7 7
-0.065197 0.327498 -0.136892 156 157 157
0.847492 -0.320672 -0.087192 254 251 255
0.178407 -0.435493 0.027267 175 177 176
-0.057227 -0.293704 -0.092541 2 3 128
-0.129025 0.177723 0.018258 1 11 62
0.046967 0.371839 -0.049320 2 5 10
0.392793 0.414139 0.027534 255 253 255
-0.054520 -0.338700 -0.121457 7 7 7
0.494488 0.393586 -0.057925 7 6 8
0.174496 0.438590 0.017277 5 4 7
0.683673 -0.363691 -0.052384 252 253 255
0.195979 0.436296 -0.022431 254 253 253
-0.057702 -0.297870 -0.084109 4 3 127
0.085922 0.395126 -0.006914 6 8 9
0.325321 0.411507 -0.038480 255 252 253
0.574596 0.389362 0.016040 254 252 253
-0.148272 -0.098193 0.048260 2 3 123
0.129318 -0.419048 0.086386 7 7 7
-0.137704 0.137880 -0.091847 7 7 7
0.014370 0.375110 0.093601 162 162 164
-0.032701 -0.312792 -0.097784 4 4 129
0.104906 0.397529 -0.045998 169 170 172
0.446781 0.402386 -0.010797 0 2 51
0.065454 0.382936 -0.013486 0 5 11
0.434739 0.385005 -0.002751 0 2 52
0.147436 0.438979 -0.023690 176 177 177
0.046798 -0.373931 -0.019085 0 14 128
-0.120804 -0.202445 -0.120049 227 225 228
0.065831 0.377186 0.096922 5 8 14
-0.022950 0.338216 0.129452 155 155 155
0.019662 0.348459 0.106391 14 25 42
-0.120194 0.073043 0.076748 6 7 5
-0.146490 0.172653 -0.101118 168 169 170
-0.128305 0.031918 0.096190 6 7 6
0.150792 -0.407681 0.009760 7 6 6
0.506641 -0.381198 -0.010277 255 255 255
0.016381 -0.350711 0.071984 1 25 128
0.579358 -0.391603 -0.024916 255 255 255
0.866092 0.311177 -0.050844 252 255 252
-0.132526 0.129617 0.120734 7 8 6
0.056017 -0.363811 0.119121 6 5 9
0.502109 -0.374411 -0.061097 0 0 51
0.143120 -0.418678 0.071743 6 7 8
-0.068170 0.241614 0.124478 154 155 154
-0.134746 -0.037850 0.000641 6 8 8
0.113298 0.395081 0.078076 171 170 169
-0.113482 -0.230357 -0.021091 2 6 125
0.553710 0.373241 -0.051149 3 1 55
-0.084409 -0.305064 -0.128579 202 202 201
0.734056 -0.350815 -0.102032 255 255 255
0.188414 -0.449196 0.005352 253 252 252
-0.109403 0.206322 0.015501 0 8 53
-0.058057 -0.297524 -0.009478 3 8 127
-0.020958 -0.355146 -0.119517 6 5 6
0.283805 0.433370 0.007990 220 221 220
0.246434 0.434524 0.050964 255 255 253
0.277408 -0.439925 0.028225 255 253 253
-0.145595 0.090568 -0.035666 187 189 190
0.270649 -0.410712 0.004462 185 185 185
-0.126682 0.225577 0.126419 5 6 6
0.561448 -0.387267 -0.090435 2 2 51
0.068203 0.379034 0.063593 0 6 12
0.220626 -0.439069 -0.002893 255 255 255
0.725492 0.343205 -0.036242 253 252 253
0.006304 0.338463 0.100877 8 8 7
-0.072666 -0.273596 -0.005073 1 10 129
-0.138572 -0.123491 0.012950 4 1 120
0.291262 -0.434489 -0.005974 178 177 177
0.565805 0.387694 -0.027605 253 254 254
-0.049983 -0.314517 -0.134278 6 8 6
-0.164671 -0.050002 -0.008640 6 7 5
0.148381 -0.436799 -0.008044 6 9 7
0.267199 0.409753 -0.013861 254 255 254
0.338229 -0.407054 -0.044093 165 166 165
0.192368 0.440901 0.012711 6 8 6
-0.130039 0.181019 -0.055324 0 8 43
-0.114083 -0.185434 0.130016 6 6 6
0.222026 0.427464 0.058399 212 213 213
0.043961 0.371581 -0.037374 0 6 11
0.042534 0.358356 0.099359 162 162 162
0.212356 0.430005 0.017853 106 109 111
0.326872 -0.408095 0.029024 167 169 170
0.081282 0.390187 0.028019 2 9 14
-0.120947 0.150411 0.116604 105 106 106
-0.149637 0.065970 0.010386 1 8 92
-0.157410 0.013167 0.022493 8 8 8
-0.080548 0.265372 0.011079 0 5 39
0.013931 0.347410 0.082508 0 10 34
-0.093665 -0.225738 0.137691 6 7 8
0.089772 -0.397849 0.009021 4 21 126
0.131748 -0.421093 0.092608 5 6 9
0.082923 0.380493 0.089800 167 168 166
-0.120245 -0.179358 -0.108888 227 228 229
-0.111844 -0.215708 -0.114208 7 0 126
-0.122455 -0.068050 0.099213 8 6 5
0.313954 -0.421745 -0.049358 253 254 253
-0.144881 0.170153 -0.100723 6 6 6
0.361314 0.419013 -0.019559 2 0 52
0.001211 0.341827 -0.061743 0 4 13
0.391624 -0.420883 -0.009555 252 252 253
-0.077314 0.267183 0.016673 0 8 41
0.654918 -0.374368 -0.062940 253 255 253
0.516565 -0.405173 -0.017780 252 253 253
-0.005993 -0.325493 0.049174 0 17 131
-0.132172 -0.062995 0.091080 228 228 228
-0.102248 -0.219888 0.078238 0 7 125
-0.156203 -0.036997 0.024152 5 6 6
0.017451 0.354836 -0.103527 0 4 6
-0.017817 0.323602 -0.126254 7 7 8
0.094168 -0.413895 -0.023550 6 6 6
-0.086641 -0.262693 -0.122252 6 0 127
0.035046 -0.362096 0.061335 3 25 127
-0.100411 0.228083 -0.000654 1 9 45
0.481400 -0.385418 -0.087267 0 0 53
0.150904 0.430626 0.031883 255 255 255
-0.084930 0.266755 0.133838 6 8 7
-0.152272 -0.114778 0.112862 234 233 234
-0.026690 0.328591 -0.118819 12 13 10
0.647164 -0.355106 -0.078569 0 2 51
-0.081173 0.259904 0.034803 0 8 44
0.667186 -0.364656 -0.049338 255 255 255
0.393728 -0.407357 -0.048425 141 144 144
0.647658 0.371975 -0.024353 0 1 50
0.337880 0.412292 -0.015838 163 166 163
0.825449 0.318754 -0.063862 253 253 255
0.808354 -0.312985 -0.084606 0 0 51
0.159252 0.425763 0.068856 7 8 8
0.269531 -0.415769 -0.009908 155 155 158
0.615203 0.376686 -0.050395 255 255 255
-0.163793 0.097756 -0.020292 6 7 6
-0.149619 0.077248 0.046569 7 6 6
-0.057086 -0.294106 -0.060699 5 4 127
-0.156877 0.016331 0.074237 211 208 211
-0.135071 0.079450 0.106413 5 6 6
-0.137134 -0.064834 0.110401 8 6 8
-0.110639 0.229640 -0.110545 1 8 17
-0.130087 0.170828 -0.002470 1 8 56
0.563130 0.391588 -0.021400 2 0 53
-0.108996 -0.236389 -0.127099 216 217 218
0.616991 0.375527 -0.057123 2 0 54
-0.131015 -0.153289 0.055115 1 1 123
-0.127673 -0.203973 0.113850 222 222 223
0.766569 -0.336147 -0.062787 0 0 49
-0.158189 0.036172 0.084650 8 8 8
-0.055434 -0.294109 -0.008048 4 9 128
0.238329 -0.420657 0.049354 208 210 210
0.036346 0.373959 0.081112 4 4 4
0.687182 0.360507 0.001237 253 252 253
-0.040653 -0.333077 -0.126137 7 8 7
0.662400 -0.354388 -0.077608 0 1 48
-0.096486 0.256476 -0.082623 0 6 17
0.388099 -0.423510 -0.013570 148 148 148
0.241420 -0.436740 -0.034185 202 199 199
-0.084881 0.260066 -0.136537 7 9 6
0.021081 -0.380771 -0.107010 6 6 9
-0.117976 -0.189113 0.064543 3 5 126
-0.098039 0.236675 -0.131881 148 148 149
-0.155333 0.006019 0.094356 211 211 212
0.021624 -0.372732 0.084149 6 7 8
0.353443 0.405523 0.026920 156 158 159
-0.080444 -0.253219 0.014179 1 8 126
-0.089536 0.256103 0.038071 1 9 47
0.008072 0.359722 -0.111207 159 159 161
0.011245 0.355332 -0.101779 4 6 12
0.791227 0.338372 -0.016115 255 255 255
-0.153704 0.046380 0.115626 6 6 5
-0.155248 0.100446 -0.012990 7 6 6
-0.086798 -0.262711 -0.072406 4 3 128
-0.127674 -0.188863 -0.095775 4 3 122
0.538311 -0.404730 -0.019807 255 255 255
-0.141049 -0.157082 0.018784 1 1 122
0.114731 -0.410792 0.016221 8 8 8
0.285681 0.405401 0.001341 255 255 255
0.185014 -0.424869 0.064864 232 231 232
0.505287 0.379961 -0.045662 255 255 255
-0.157544 -0.076728 0.085810 8 8 7
0.050160 0.370910 0.033252 1 8 18
0.582232 -0.382182 -0.085711 255 255 255
0.447032 0.403349 0.003306 0 0 51
-0.107521 -0.217598 -0.011038 4 5 125
0.690677 0.348365 -0.035954 255 255 255
-0.116434 0.202986 0.070265 2 9 67
0.471987 -0.395983 -0.085154 1 2 52
-0.094348 0.273213 -0.139483 6 7 7
-0.132017 0.058749 0.024988 199 197 199
-0.030588 0.319005 -0.118632 1 2 9
0.189731 -0.428516 0.018522 225 224 225
-0.097568 0.255478 -0.108839 3 5 13
-0.163439 0.091359 -0.002478 188 189 190
0.098827 -0.421637 -0.036522 7 7 8
0.811557 -0.315631 -0.114660 9 6 10
0.151028 -0.439768 -0.001257 154 156 154
0.418843 0.387458 -0.038147 2 3 52
0.026907 0.357090 -0.006568 0 6 19
-0.076448 0.274343 -0.079325 1 5 17
0.591874 0.375681 -0.044099 1 0 51
-0.049213 0.301331 -0.137325 154 153 154
-0.007239 0.330915 -0.020879 0 5 20
-0.149710 0.070094 0.054090 0 3 94
0.053258 -0.385785 -0.043443 2 10 129
-0.125449 0.216981 -0.110043 160 159 159
-0.041481 0.312381 -0.123389 0 2 6
-0.103459 -0.228538 -0.063657 5 5 125
0.343711 -0.434308 -0.007121 0 0 52
-0.075083 0.229276 0.115292 160 157 158
0.046006 -0.375646 -0.071122 4 6 126
-0.103864 -0.216053 -0.135075 224 222 225
-0.134766 0.082028 0.085002 191 189 192
0.428295 -0.414586 -0.062550 255 255 255
0.045904 -0.396024 0.097362 6 8 7
0.459820 -0.412614 -0.028053 0 0 52
-0.137607 0.128703 0.086632 0 4 86
0.569022 -0.369584 -0.057635 255 255 255
0.683963 -0.366783 -0.075732 252 255 253
-0.119767 0.164456 -0.091828 6 7 7
-0.087360 -0.240940 0.035092 3 10 126
0.017265 -0.349639 0.028462 3 19 126
0.045257 0.398737 0.070915 6 7 6
0.447156 -0.418430 -0.008886 254 255 255
0.375347 -0.409936 -0.068453 135 138 138
0.276537 -0.414297 0.024887 252 251 254
-0.083162 0.260337 -0.135781 5 5 6
0.193314 0.417024 0.065438 255 255 255
-0.118949 0.240475 -0.121252 5 4 7
-0.164896 -0.094071 -0.050665 6 8 8
0.473107 0.401349 -0.015337 0 2 51
0.379086 -0.401972 -0.016732 0 1 51
-0.156413 -0.116293 -0.067164 6 7 6
0.644380 -0.374446 -0.053036 255 255 255
0.551889 0.375345 0.004062 0 0 52
0.077644 -0.412177 0.040513 6 7 6
-0.103090 0.238012 -0.069838 0 6 23
0.288497 -0.445465 -0.016040 183 186 185
-0.103073 -0.233168 -0.122315 219 219 217
-0.070521 -0.267431 -0.135080 208 207 209
0.164308 0.426851 0.014038 229 229 229
-0.137634 0.088706 0.111902 190 188 191
-0.130299 0.050517 0.109180 7 7 7
0.376854 0.396134 -0.046423 155 156 155
0.378554 0.421793 0.027620 254 252 255
0.740825 0.354168 -0.060121 0 0 48
0.432369 -0.408801 -0.056101 255 253 255
-0.070824 -0.276701 0.022488 1 10 126
0.211772 -0.423808 0.012544 253 252 255
-0.036492 -0.341308 -0.133898 193 193 193
0.148972 0.441430 -0.007940 14 13 14
0.017017 -0.387509 -0.105610 7 8 6
0.530507 0.380096 0.018987 0 0 53
0.115615 0.403581 0.040262 168 170 170
-0.083728 0.259555 -0.017661 1 6 35
0.080771 -0.394308 0.047788 3 30 128
0.192691 0.433725 -0.015723 227 226 226
-0.100898 0.234877 0.135284 7 7 6
-0.019961 -0.328217 -0.016656 2 13 130
0.159919 0.440218 0.034510 80 83 82
0.510669 -0.394855 -0.012443 255 254 255
0.212303 -0.440699 -0.014091 222 223 224
0.592952 0.380782 -0.048052 254 254 255
0.349769 0.422298 0.032555 252 252 252
0.155810 -0.436926 0.080138 178 177 178
-0.122561 0.168928 0.124039 6 7 6
0.242849 -0.442893 -0.009878 255 255 255
0.175657 0.411904 0.048184 225 227 226
0.399586 0.401177 0.007032 255 255 255
-0.036849 -0.318590 -0.131013 7 8 6
0.490081 0.385626 -0.040430 255 255 255
0.290282 0.404920 0.050383 189 189 189
-0.125046 -0.192588 -0.070759 5 0 122
-0.008123 -0.341656 -0.114767 4 4 128
-0.158500 -0.057932 0.020539 231 229 231
0.054465 -0.375595 -0.056062 4 10 127
0.757032 0.349235 -0.028927 0 2 54
0.243336 0.406610 0.051280 202 202 201
0.191005 0.419330 0.013503 222 222 223
-0.153040 0.037382 0.018172 204 202 203
-0.138795 -0.091788 0.085736 231 230 230
0.390761 0.415480 -0.010656 146 146 146
0.232955 -0.446073 0.018961 254 255 255
-0.140774 -0.154381 -0.050334 3 1 120
0.530251 0.393276 -0.011383 253 255 255
0.617277 -0.377688 -0.037829 255 255 255
0.097464 0.387724 0.077872 8 9 8
0.226273 0.407990 0.062944 214 213 213
-0.135407 -0.042506 0.050892 222 222 223
-0.020940 -0.319840 0.036199 1 15 130
-0.128467 -0.175075 -0.118415 229 227 227
0.459536 -0.388013 -0.074733 1 2 53
-0.002409 -0.345262 -0.027714 0 10 129
-0.126378 0.209794 0.115007 159 160 159
-0.079636 0.257882 -0.038864 1 7 29
0.319479 0.404359 -0.032461 161 161 162
0.325816 -0.423266 0.031241 145 146 148
-0.127909 -0.151781 -0.087099 235 235 236
0.046725 -0.405786 -0.066222 182 182 182
0.388568 0.416257 0.020663 254 252 255
-0.080589 -0.246304 0.111830 0 11 128
0.625574 -0.379296 -0.093176 9 9 10
-0.150592 0.088495 0.111685 188 189 189
0.052004 0.367944 -0.088789 166 169 166
0.201870 0.430385 -0.026833 255 255 255
0.168734 0.425316 0.026731 198 197 197
-0.143895 -0.146191 -0.066972 3 1 107
-0.163997 0.115109 -0.036186 7 8 6
0.095517 -0.396214 0.105973 185 184 184
-0.164933 -0.048779 0.037522 6 7 6
0.595400 0.372379 -0.056095 0 0 50
0.033294 -0.384193 0.074220 187 185 185
0.534534 0.390499 -0.021240 0 1 51
0.234845 -0.421602 -0.012374 201 200 200
0.272031 -0.417068 -0.003251 194 192 194
0.693971 0.360684 -0.018559 254 255 254
-0.040405 0.333903 -0.120978 5 6 7
0.020713 -0.360584 0.001342 5 18 130
0.480040 0.404079 -0.050740 255 253 254
-0.107315 -0.236002 0.135747 217 215 215
0.020393 0.386541 -0.090400 7 9 7
0.187925 -0.423868 0.073755 176 177 178
0.018011 0.351089 0.098677 0 13 36
0.222580 -0.432999 -0.013345 210 210 210
-0.121428 -0.147245 0.124594 8 8 9
0.470921 -0.411108 -0.006288 0 0 54
0.690580 -0.347897 -0.053658 253 252 252
0.588731 -0.377796 -0.022389 0 0 50
-0.121081 -0.179791 0.050222 2 1 127
0.095215 -0.404545 0.022857 1 27 130
0.063990 -0.361893 0.099108 5 6 8
-0.152620 0.076469 -0.019661 188 189 188
-0.055490 -0.285156 0.059716 1 15 127
0.194915 0.428328 -0.021761 255 255 255
0.434587 -0.409428 -0.033481 254 254 254
-0.134154 -0.166177 0.038695 3 2 124
0.056070 -0.368222 0.077501 189 187 189
-0.141370 0.034268 0.040724 7 7 9
-0.143506 -0.212153 -0.128892 7 5 7
-0.122609 0.219328 -0.124485 9 9 9
-0.155369 0.037971 0.108846 6 7 7
0.203699 0.411833 -0.002585 220 218 220
0.432433 -0.411309 -0.025890 0 0 55
0.199432 0.425880 0.057716 225 223 224
-0.133615 0.117125 -0.070070 6 6 8
-0.124844 -0.179271 -0.035468 4 3 122
-0.062819 -0.283376 0.047449 3 13 129
-0.119354 0.190041 -0.118434 159 160 161
-0.092282 -0.205118 0.128679 7 5 6
-0.038785 -0.310351 -0.102036 5 1 128
-0.136999 -0.153747 -0.065549 4 1 118
0.474635 -0.382296 -0.034780 0 0 51
-0.122692 0.009095 0.084260 7 5 7
-0.152834 0.157725 -0.108527 6 7 7
0.434272 0.401148 -0.035299 254 255 255
-0.163323 0.001697 0.059626 211 211 213
0.076819 0.409223 0.045470 6 9 7
0.086522 0.402625 0.037492 5 7 8
0.043990 -0.397365 0.080664 8 7 7
0.316301 0.424993 -0.001316 255 254 254
0.204782 -0.444314 0.046650 176 176 177
-0.015268 0.316593 0.083395 0 8 43
0.232028 0.410894 0.031714 255 255 255
-0.143909 0.138881 0.085778 175 175 178
-0.023375 -0.344900 0.125599 196 196 194
0.327355 0.418875 0.032053 1 3 51
0.805286 -0.327874 -0.123432 255 255 255
-0.141342 0.153632 0.124695 173 173 173
0.157455 -0.437337 -0.016772 230 230 230
-0.098249 0.222176 0.056587 1 8 56
0.394717 -0.424484 -0.023772 255 255 255
0.075362 -0.391114 -0.013967 3 17 129
0.117396 0.423789 0.075675 184 180 181
0.573467 0.384143 -0.048068 2 3 53
0.344198 -0.407401 0.030206 254 255 255
0.253674 -0.439729 0.033384 253 253 254
0.580321 -0.364462 -0.061880 253 255 254
0.041033 0.361477 0.063607 1 9 23
-0.106863 -0.218813 -0.019551 4 6 122
-0.041964 0.338535 0.119333 6 8 8
0.071138 0.380846 0.041468 2 9 17
-0.012730 0.365463 -0.117432 6 8 6
-0.021728 0.325009 0.002231 0 8 28
0.460201 0.397610 0.022392 0 0 51
-0.083424 0.253339 0.005967 1 10 42
-0.166589 -0.031899 -0.005476 221 221 221
0.792330 -0.328687 -0.072262 253 252 255
-0.084078 0.245338 0.025102 0 7 46
-0.060323 0.292768 -0.108786 2 4 8
0.736456 0.342827 -0.025496 254 254 253
-0.036802 0.325530 -0.118773 158 156 157
-0.129980 0.155521 0.084607 0 5 80
-0.151625 -0.072391 0.008518 7 6 8
0.683576 0.364019 -0.052428 255 255 252
-0.153578 0.007003 0.107324 254 250 251
0.717462 -0.352310 -0.070159 252 252 253
0.683162 0.362467 -0.038314 254 253 253
-0.029518 -0.298392 0.123014 6 7 6
0.325426 -0.403643 -0.025981 252 251 253
0.414427 0.407718 0.021630 0 0 51
0.199542 -0.411927 0.010277 255 255 255
-0.163984 0.075619 -0.025679 6 6 8
0.458268 0.395388 -0.038047 0 0 52
0.323319 0.417310 -0.041729 254 253 253
0.145789 -0.418440 -0.003908 6 6 7
-0.153119 0.101633 0.024617 2 6 82
0.787881 -0.319910 -0.118860 255 254 255
-0.070235 -0.284380 0.112935 6 6 6
-0.115831 0.258355 -0.130726 154 156 156
-0.144151 0.155912 0.118440 173 171 173
0.037457 0.358091 -0.008445 2 6 17
0.489828 -0.385551 -0.068189 254 254 255
-0.153492 0.099660 -0.021423 190 190 191
0.079334 -0.400135 0.036241 6 6 9
0.848360 0.322395 -0.048033 255 254 254
0.280163 -0.416924 0.029037 182 183 184
0.363260 -0.391774 -0.084417 144 143 142
0.103052 -0.417818 0.027254 182 181 183
0.082666 -0.417298 0.016883 7 6 8
0.876721 0.308651 -0.075720 254 254 255
-0.130081 -0.071754 0.111863 230 229 231
0.025810 0.358800 -0.006012 1 5 19
0.066618 0.375040 0.028427 3 6 17
-0.025921 -0.316718 0.065539 3 19 130
0.207933 -0.448322 0.029543 6 7 7
0.031435 0.353923 0.120166 5 6 5
0.893001 -0.297205 -0.134904 8 8 32
0.286885 0.427935 0.042157 209 209 208
0.109014 0.425116 0.026467 8 7 8
-0.131378 -0.095773 0.113671 236 233 236
0.000517 0.359920 -0.088724 4 5 7
0.077743 -0.410505 -0.009729 6 9 9
0.096112 0.414225 -0.029189 173 174 176
-0.043161 0.316988 0.111307 7 8 7
0.067863 0.402752 0.086388 7 9 6
0.684439 -0.348704 -0.072918 0 2 53
0.301108 -0.434026 -0.001943 255 255 255
0.195446 -0.446974 0.033069 222 223 220
0.284694 -0.415791 -0.045128 255 254 255
0.447898 0.385255 0.002601 255 255 255
-0.009738 0.330716 -0.025215 0 5 20
0.365671 -0.422638 -0.022583 156 159 157
0.180631 0.422643 -0.002414 228 227 226
0.566086 -0.380491 -0.077989 7 8 9
0.302821 -0.413414 0.036875 255 255 255
-0.159978 -0.070242 0.071015 228 227 228
0.294639 0.406096 0.050422 255 254 254
0.640876 0.363389 -0.054184 7 8 10
-0.096236 -0.237105 -0.005306 3 4 129
-0.127777 -0.026084 -0.023540 223 224 226
0.035437 -0.394587 -0.094437 184 184 183
-0.137976 0.117747 0.070805 4 8 93
-0.156886 -0.048448 0.064996 2 3 120
-0.132903 0.003756 0.058763 212 212 212
0.770768 0.332449 -0.056749 254 253 252
0.700460 -0.366842 -0.045838 255 255 255
-0.113519 0.232307 -0.092239 0 6 21
0.154845 -0.442214 -0.014612 233 233 232
0.187050 -0.410985 0.005891 218 218 218
-0.155202 0.100378 0.106142 185 184 184
0.539768 -0.399017 -0.020906 253 253 253
-0.090876 0.255144 -0.090255 2 9 17
0.272163 -0.408659 -0.040064 190 191 192
0.584913 -0.373057 -0.090503 0 1 54
0.722986 -0.336724 -0.065128 255 255 254
0.406634 0.403863 0.025509 254 255 255
-0.136889 -0.021061 0.036791 235 233 235
0.085857 -0.404172 0.062758 5 7 7
0.204204 0.452191 0.023695 180 183 181
-0.162731 -0.117498 -0.078583 5 6 7
-0.133810 -0.172522 -0.030491 4 2 122
0.428236 0.410014 0.010471 255 255 255
-0.157607 0.035519 0.052417 205 204 205
0.009487 0.344603 0.089425 2 11 35
0.217897 0.410811 -0.011301 212 212 211
0.653070 -0.365173 -0.093393 7 5 13
0.034953 0.384694 0.074085 7 7 7
0.538919 -0.394968 -0.091056 1 2 46
-0.102262 0.213911 0.026992 2 9 54
0.674682 0.372058 -0.014313 255 255 255
-0.071192 -0.275518 0.136540 6 9 8
-0.164496 -0.037807 0.002461 225 224 225
0.124800 0.431568 -0.022738 8 8 8
-0.039417 0.317359 -0.126132 0 2 6
0.253728 0.407644 -0.006310 252 252 255
-0.000930 -0.349745 -0.048055 4 9 129
-0.107486 0.224268 -0.043140 0 6 34
0.288568 -0.440131 -0.025999 252 251 251
-0.042183 0.302621 -0.091678 5 10 14
0.868437 -0.302697 -0.105618 1 0 53
0.710457 0.359689 -0.008735 234 235 237
-0.160453 -0.127222 -0.052451 7 6 8
0.538334 -0.375127 -0.086859 7 8 4
0.483357 -0.386282 -0.047928 0 1 53
0.232563 0.427983 0.060158 208 208 207
-0.005616 0.340592 -0.075456 0 3 12
-0.145676 0.089916 0.009390 8 8 7
0.106364 0.399138 0.028645 0 7 11
0.029211 0.366417 -0.091445 162 164 162
-0.089913 -0.249359 0.142297 7 5 7
0.101803 -0.405880 0.033766 1 30 128
0.105191 -0.418146 0.095116 7 8 7
0.075345 -0.414153 0.036565 5 6 7
0.019859 -0.395694 -0.099906 186 187 187
0.176274 0.437150 -0.017167 230 229 230
0.019326 -0.371888 -0.083027 190 189 191
-0.130728 0.035454 0.016165 203 204 203
0.177101 0.439693 0.030116 6 5 7
-0.129636 0.129788 -0.039879 7 6 5
0.256588 0.442506 0.017550 186 185 186
0.045801 0.365985 0.081622 1 10 24
-0.042803 -0.295695 0.136018 204 202 201
0.387559 0.393523 -0.018158 1 1 51
-0.090280 -0.237332 0.108970 4 14 128
-0.156479 -0.015543 0.067441 8 8 7
-0.161102 0.120319 -0.050021 6 9 11
0.010586 0.345565 0.031854 1 6 25
0.704330 0.362384 -0.025587 255 255 255
-0.103877 -0.203077 0.073462 3 7 127
0.219236 0.409340 -0.019888 205 206 206
-0.142646 0.170403 0.115140 168 168 168
0.141728 -0.447670 0.003441 5 6 7
0.721808 -0.349133 -0.084607 253 253 253
0.264622 0.417124 0.053102 196 196 195
0.347694 -0.404957 -0.058325 158 159 158
-0.139405 -0.074057 0.009775 6 7 7
0.658146 -0.361608 -0.097122 8 9 8
0.047076 0.397175 0.084434 169 170 169
0.417824 -0.402972 -0.001778 1 1 52
-0.067436 -0.247303 0.119086 213 212 215
0.185796 -0.443265 0.048563 255 255 255
0.086597 0.417466 -0.013995 175 175 176
-0.150637 0.089100 0.099349 6 6 7
0.225805 -0.443412 0.008287 255 255 255
-0.137340 0.068087 0.011835 196 195 198
-0.106477 -0.221699 0.114670 219 216 220
0.022334 -0.374500 -0.111282 188 190 191
-0.129581 0.168777 0.125827 169 169 169
-0.147076 -0.083469 -0.027986 5 6 6
-0.147616 0.085488 0.076025 6 7 6
0.005939 0.362894 -0.111339 161 164 163
0.382343 0.422843 -0.034112 254 255 255
0.148496 0.428137 0.082454 7 9 6
0.057714 -0.379769 0.026505 2 22 130
0.004810 0.342328 -0.031217 0 4 18
-0.143929 0.087249 -0.029131 7 6 7
0.664039 -0.363386 -0.090414 0 1 53
0.552485 -0.367037 -0.072835 255 254 255
-0.015759 0.324479 0.005596 0 7 25
0.042835 0.390562 0.110021 5 6 8
0.593851 0.378649 -0.024956 1 3 53
0.074093 -0.421978 -0.036017 178 179 180
-0.164561 -0.060684 -0.002159 6 8 7
-0.114821 0.197826 -0.123347 75 75 78
-0.148704 -0.100413 0.029016 2 1 118
-0.056876 0.314703 0.123069 7 7 7
-0.140387 0.172616 -0.109790 6 7 6
0.088532 -0.396474 -0.020335 0 15 126
0.694572 -0.361214 -0.099209 255 254 253
-0.018643 -0.344609 -0.115648 196 194 195
-0.153115 0.059711 0.080524 6 6 6
-0.129461 0.066313 -0.041235 7 7 7
-0.139581 0.074560 0.103934 6 8 8
-0.142073 -0.061899 -0.000733 230 230 228
-0.140157 0.053355 0.021778 5 6 7
0.337500 0.398587 0.000130 164 166 164
-0.097162 -0.265466 0.120830 7 8 7
-0.076399 -0.241452 0.121772 213 212 214
-0.123252 -0.199112 -0.044779 2 2 124
0.072891 0.406596 0.034796 169 168 169
0.023981 0.383784 0.110679 166 168 166
0.205568 0.439526 0.036728 4 7 7
-0.081375 0.267686 -0.023734 0 4 28
0.474251 -0.405997 -0.021821 255 255 255
-0.160102 -0.130384 -0.082076 6 8 7
0.006767 0.349624 -0.106963 158 160 159
0.260711 0.419777 0.007963 198 198 199
0.446875 0.385023 -0.015628 255 254 255
0.203273 -0.451747 0.034802 231 230 230
-0.141531 0.188631 -0.123020 7 8 6
0.394313 -0.411424 -0.045373 226 226 225
-0.127953 0.036281 0.003807 6 7 7
0.100170 0.410267 -0.027126 173 173 173
-0.126953 -0.178888 0.112459 228 224 227
0.204749 0.415545 -0.018458 215 213 214
0.601291 0.369600 -0.061840 2 4 54
-0.162639 -0.041567 0.054464 8 7 8
0.707710 0.360281 -0.004625 0 2 51
0.088820 0.388636 0.050388 2 6 14
0.077803 0.406844 -0.029192 8 8 9
-0.132992 -0.244215 -0.131838 8 7 7
-0.146848 -0.131969 -0.046298 4 1 116
-0.161163 -0.023781 0.074424 7 6 8
-0.002284 0.326249 0.132531 8 8 7
-0.087839 0.285297 -0.139838 147 149 150
-0.029178 0.339426 0.101454 160 159 158
0.290531 0.430402 0.031516 252 251 251
-0.143117 0.134450 -0.075582 176 178 178
0.557835 -0.388391 -0.086690 255 255 255
0.160787 -0.412513 0.071817 179 182 181
-0.026702 0.324031 -0.120154 155 155 157
-0.118699 -0.200636 -0.033733 4 5 121
0.434176 -0.392849 -0.079611 9 8 9
-0.162932 0.067129 -0.014992 197 196 199
-0.050716 0.315506 0.137898 5 6 6
0.231083 -0.431495 0.052615 254 253 255
0.857689 0.301763 -0.064615 255 255 251
-0.131758 0.185633 0.125032 163 165 164
0.087023 0.396786 -0.022079 0 3 7
0.674117 0.365090 -0.017540 255 254 255
0.050289 -0.361110 0.093371 6 8 8
0.376298 0.402831 0.032014 0 1 50
0.424905 0.405833 -0.024653 0 2 50
-0.062231 0.288271 0.113627 151 151 152
0.039857 0.361860 -0.077109 161 164 163
-0.077034 -0.275885 -0.105436 6 3 128
0.128292 0.427867 0.006637 0 4 50
0.488678 0.403796 0.011003 255 255 255
-0.018461 -0.315839 0.128014 199 199 198
0.488609 -0.382015 0.027876 2 3 50
0.139514 -0.429640 0.007139 176 177 179
-0.163299 0.070830 0.020077 7 7 8
-0.031581 -0.345332 -0.132045 5 5 7
0.165463 0.439786 0.006794 182 181 182
0.459179 -0.398945 -0.062317 217 219 217
-0.154938 0.019209 0.099043 207 207 209
-0.142937 -0.100713 0.034654 4 2 118
0.143900 0.433568 0.027985 7 8 9
-0.049379 0.287844 0.031826 0 6 38
-0.146456 -0.129027 0.013741 4 0 121
0.036418 0.388528 -0.092519 3 6 6
0.263081 -0.424774 0.032142 208 207 208
0.207505 -0.447252 0.036014 7 8 9
-0.164404 -0.098327 -0.070501 236 234 236
-0.120547 -0.171856 0.077385 3 4 124
-0.062035 -0.284833 0.137666 206 206 206
0.569281 -0.385076 -0.004044 255 255 255
0.482357 0.380405 -0.033729 0 1 49
-0.146413 -0.106384 -0.069453 7 6 6
0.175226 0.422753 -0.011841 226 224 225
0.620190 0.379625 -0.049093 3 0 52
-0.002583 -0.338469 0.051923 2 23 129
0.149268 -0.412120 0.060268 6 6 8
0.153914 0.437625 0.004878 0 3 49
0.159521 0.442034 0.059047 181 179 180
0.188208 0.446574 0.058670 185 187 184
-0.010989 -0.330374 0.039436 0 20 127
0.805333 0.335207 -0.079871 255 255 255
-0.145989 -0.075390 -0.041819 231 231 232
0.701704 0.365906 -0.020172 1 0 52
-0.149014 -0.096131 -0.013372 3 0 112
-0.055798 -0.291982 -0.071579 4 6 128
-0.131165 -0.022501 0.073247 6 9 9
-0.101890 0.237670 0.115256 153 155 153
0.139757 0.432083 -0.009675 255 255 255
0.125703 0.409870 0.034907 0 6 11
0.021356 0.357814 -0.066355 1 5 10
-0.004818 0.339035 -0.044077 0 4 16
-0.150943 0.065861 0.072482 7 9 8
-0.157592 0.018484 0.096628 6 6 8
-0.092812 -0.230421 -0.002913 2 6 124
-0.070938 0.279832 -0.098314 0 5 11
-0.086833 0.286093 -0.125634 151 150 152
-0.113641 0.213290 0.127448 6 7 7
0.282230 -0.439231 0.000338 194 195 194
0.860150 -0.317433 -0.102702 255 255 255
0.073342 -0.415753 -0.016784 181 182 182
0.404096 -0.422607 -0.009369 54 54 60
-0.048509 0.324266 -0.138537 7 6 8
-0.111669 0.229752 0.133948 161 162 161
0.037947 0.398676 -0.087734 169 167 170
-0.123987 0.231100 -0.119277 5 6 7
-0.103906 -0.237583 -0.086968 6 4 125
-0.165341 -0.000701 0.040411 213 213 212
0.207066 0.436881 -0.025083 254 255 255
-0.141768 0.158889 -0.065404 0 12 46
0.082744 0.404388 -0.049049 169 168 170
-0.062292 -0.281769 0.012879 0 11 126
0.008431 0.350647 -0.036226 0 6 18
-0.143864 -0.130078 0.054138 3 3 123
0.243291 -0.415151 0.051168 202 202 202
0.016444 0.346111 -0.043440 0 5 14
0.347241 -0.389502 0.028032 166 165 165
0.004015 0.334667 -0.076914 0 5 13
0.155672 -0.442342 0.060373 179 177 179
-0.123141 -0.193682 -0.008180 2 2 125
0.087135 -0.386908 0.064680 7 9 8
-0.084420 -0.308224 -0.142417 7 9 5
0.591284 0.383137 -0.002903 1 0 51
0.516103 -0.377544 -0.062847 255 255 255
0.420615 0.408975 -0.038487 0 2 51
0.145164 -0.445627 0.039282 173 175 177
0.098906 0.409102 0.089449 171 173 171
0.068208 -0.386419 -0.037383 2 15 129
0.009376 -0.346908 0.064034 3 23 130
0.319861 -0.431776 -0.003311 174 173 175
-0.123710 -0.225978 -0.125831 6 6 8
0.071386 0.409522 0.061758 7 6 9
-0.129949 -0.138919 0.106224 234 232 234
0.382672 -0.423368 0.015911 255 255 255
0.184549 -0.433049 0.074796 6 7 6
0.271019 -0.410566 0.013623 192 191 194
-0.045798 0.289498 -0.122364 6 9 7
-0.136335 0.137952 0.054689 2 8 81
-0.123379 -0.083849 0.117667 231 230 231
0.198507 -0.454403 0.057495 173 170 174
0.102591 -0.427706 -0.024166 178 177 179
-0.148917 -0.102389 0.015716 3 2 120
0.168713 -0.443644 0.017799 255 254 255
-0.004098 -0.337185 0.093999 0 26 130
0.078087 -0.418223 -0.007392 179 180 182
-0.151725 -0.116739 -0.042189 2 0 114
-0.125670 -0.228569 -0.129876 6 5 6
0.631602 -0.377461 -0.089075 0 0 50
0.063917 0.381684 -0.047900 0 3 8
-0.128997 -0.130691 -0.094274 8 6 7
0.904397 0.296775 -0.060974 255 255 255
0.199819 0.440093 0.043799 255 254 255
-0.128076 -0.000317 0.106301 212 211 213
0.156654 0.440916 -0.009049 255 255 255
-0.065875 0.276457 -0.001915 0 7 35
-0.007379 -0.359149 0.122468 193 192 193
-0.111626 -0.156365 0.137140 9 5 6
-0.006928 0.334159 -0.004898 1 5 26
-0.119554 0.138994 0.116250 178 178 177
0.498543 0.393396 0.017877 0 2 52
-0.092770 0.283360 -0.128870 150 148 152
0.782168 0.331305 -0.023432 0 0 54
0.421918 0.414321 -0.008549 255 255 255
0.467361 0.402811 -0.007072 251 251 252
0.366579 -0.422322 -0.012846 156 160 158
0.216025 0.442087 0.008914 216 216 216
0.107484 -0.409331 0.041669 8 8 8
0.017195 -0.371206 0.121584 188 189 190
0.348145 -0.421684 -0.058258 255 255 255
-0.148734 -0.114116 -0.008164 4 1 120
0.058642 0.378435 -0.007060 0 5 13
0.192529 -0.448838 0.023177 175 174 177
0.488546 -0.383671 -0.066920 2 3 55
-0.150346 0.089163 0.108962 8 8 9
0.441673 -0.400713 -0.074889 0 0 53
0.045517 0.380806 -0.096883 9 8 8
0.078352 -0.401177 0.052944 184 184 184
0.419227 0.410360 -0.009876 0 0 55
0.186666 -0.436808 0.034790 6 6 9
-0.079000 0.263932 -0.054797 0 5 22
-0.164331 0.049636 0.030508 6 8 8
0.247975 0.432781 0.048083 205 204 204
0.024777 0.387230 -0.107259 6 6 6
-0.165940 0.066230 0.053296 140 143 141
0.313382 0.425690 0.027605 255 255 255
0.030624 0.353812 0.120448 158 158 160
-0.079386 0.279025 -0.131616 147 148 149
-0.138719 -0.149011 0.119697 8 7 8
0.732291 -0.335495 -0.061378 0 2 52
0.494475 0.401159 0.007554 0 1 50
0.018219 -0.345210 -0.047763 3 9 130
0.246042 -0.415852 0.050639 210 210 209
0.160570 -0.418689 0.070380 7 9 8
-0.125647 -0.192412 -0.097219 4 1 125
-0.150379 0.116352 -0.078502 185 185 184
0.602094 0.376194 0.009286 252 252 253
-0.124236 0.185600 0.069393 0 7 72
0.177639 -0.419273 0.016340 222 224 224
0.469592 -0.391342 0.003713 0 1 50
0.743785 -0.351135 -0.070567 2 1 52
0.549241 0.373629 -0.060142 8 7 11
-0.090697 -0.263490 -0.133124 210 207 209
0.082269 -0.412240 0.031325 6 7 9
0.134618 -0.421307 0.013701 176 180 180
0.102449 0.421779 -0.011256 6 6 6
0.002130 0.343475 -0.097565 4 4 9
-0.140067 0.159131 -0.072378 173 173 174
0.093055 -0.400055 0.024776 0 24 125
0.025405 -0.364945 0.006407 3 17 130
0.156003 0.425697 -0.007209 255 253 253
-0.081965 -0.209141 0.126141 6 7 6
0.042876 -0.392818 -0.092377 185 186 187
-0.074048 -0.268571 -0.044932 3 5 128
-0.020289 -0.321128 0.045537 2 18 130
0.093563 -0.396287 -0.009915 1 21 127
0.715499 0.346769 -0.014215 255 255 255
0.645262 0.377522 -0.004286 1 2 52
0.365075 0.410564 -0.031366 0 1 51
