ply
format ascii 1.0
element vertex 1183
property float x
property float y
property float z
property uchar red
property uchar green
property uchar blue
end_header
0.181504 -0.282598 -0.001977 255 254 253
-0.045321 -0.282194 -0.018498 253 253 254
0.151904 -0.283562 0.021132 254 255 254
-0.061360 0.278998 -0.015123 253 253 255
0.042517 0.284257 0.001356 253 253 255
0.100059 -0.271820 0.060575 255 255 254
0.010061 -0.275228 -0.025799 253 255 254
-0.026327 -0.280773 -0.024487 254 255 254
-0.101862 -0.265443 -0.046333 104 143 211
-0.031338 0.284139 -0.005218 252 253 254
-0.047196 0.286605 -0.016971 252 252 253
-0.074085 -0.169743 0.028669 110 138 190
0.311260 0.265813 0.032719 254 254 254
-0.081489 0.133594 -0.031126 129 134 133
-0.023889 0.287167 0.060168 255 254 254
-0.093423 0.196605 0.048867 105 147 224
0.312870 -0.272892 0.017058 252 254 253
-0.098096 -0.196850 0.000942 106 144 212
-0.082042 -0.126375 -0.056331 128 131 131
0.174273 0.272828 -0.003436 253 253 253
-0.102672 0.262207 0.026836 127 129 130
-0.060981 -0.280719 -0.010440 255 254 255
-0.098978 -0.228838 -0.011370 126 127 131
-0.082039 -0.179268 -0.007817 125 127 128
-0.091641 -0.050004 -0.007641 107 143 210
0.044766 0.281809 0.039209 255 253 254
-0.080774 -0.046912 -0.062549 104 147 224
-0.086072 -0.235035 -0.002262 125 132 139
-0.013825 0.284531 -0.019506 253 254 253
-0.080195 -0.070923 0.011390 103 136 197
-0.095613 0.119044 -0.002612 130 132 133
-0.101330 -0.211160 -0.061865 107 146 216
0.368144 -0.281512 0.001349 253 253 253
-0.083270 -0.107641 -0.045969 105 138 198
0.246914 0.277449 0.028742 254 254 254
0.204014 0.275625 0.014539 221 221 223
-0.075090 0.284492 0.061592 253 255 255
-0.106442 0.043704 -0.013238 108 130 171
0.371468 0.270485 0.062640 255 254 255
-0.049463 0.288097 0.029092 254 254 254
0.259454 0.274541 0.037158 255 255 254
-0.079617 -0.189645 -0.041724 131 132 132
-0.100688 -0.247655 -0.051698 105 132 181
-0.081107 -0.045120 -0.009456 130 129 131
0.076076 0.272655 0.018166 254 253 254
0.313325 0.262812 0.061596 254 255 255
0.330618 0.273564 0.034233 255 255 255
0.066310 0.273802 0.033296 253 255 254
-0.098008 -0.107817 -0.097406 121 126 134
0.317153 -0.275722 0.040621 255 255 255
0.207221 0.278186 0.009083 253 255 253
-0.082954 -0.195296 -0.015546 132 130 136
-0.084416 -0.207386 -0.006419 112 132 165
-0.083062 -0.135761 -0.085359 106 143 209
-0.083546 -0.054429 -0.076263 106 145 223
0.306311 0.271228 0.064087 255 255 255
-0.081997 0.046958 -0.061527 129 131 132
0.361103 0.262440 0.032723 254 255 255
-0.101323 0.125070 -0.064789 106 146 221
0.326999 -0.276096 0.055865 255 255 254
0.110691 -0.284369 0.050966 255 255 255
-0.080307 -0.239972 0.033584 106 138 198
-0.093521 -0.140265 0.015677 106 129 168
0.075254 0.283313 -0.004806 255 254 254
-0.100692 0.154418 -0.000686 105 141 209
-0.068350 -0.269612 0.026371 253 255 255
0.083235 0.280639 0.024093 254 253 254
-0.082186 -0.213726 -0.053206 124 131 133
-0.084202 0.213030 -0.008426 107 144 217
0.219277 -0.282084 0.054249 253 255 253
0.238638 -0.282021 0.009060 254 255 253
-0.082213 0.263148 -0.014945 104 139 202
0.102571 0.282973 0.012419 255 254 254
-0.049509 -0.279642 0.061678 254 254 254
0.336940 -0.284042 0.030176 254 253 253
-0.083911 -0.148059 -0.036754 106 139 198
-0.076853 -0.044158 0.016404 127 131 133
0.159428 0.278567 0.016137 253 254 254
0.031914 -0.273964 0.053545 252 253 253
-0.082500 -0.080940 -0.011599 126 130 131
0.179432 -0.279005 0.065822 253 253 253
-0.085738 0.205154 -0.054482 103 144 220
0.032691 -0.283072 0.025996 253 254 254
-0.053303 0.275876 0.002694 255 255 255
-0.082906 0.046916 -0.052461 106 149 230
0.233523 -0.283153 0.014760 255 255 255
-0.083962 0.287475 0.010128 253 254 254
-0.085988 0.240370 0.046760 117 132 159
-0.080014 0.177225 0.000641 104 136 195
0.249991 0.276769 0.037411 254 255 254
-0.100059 0.122817 -0.026404 107 139 198
-0.097700 0.103660 0.024018 129 130 133
-0.081309 -0.176912 -0.082953 124 127 130
-0.079762 0.210317 0.016195 130 135 142
0.175980 -0.282745 0.015893 255 254 254
-0.080206 0.074948 0.030829 132 132 133
0.186357 -0.272746 0.009104 254 253 254
-0.102649 -0.049822 0.017138 105 143 212
0.383785 -0.272219 0.015165 255 254 253
-0.085150 -0.230771 -0.035877 104 140 207
-0.094963 -0.037700 -0.024224 126 130 131
-0.097191 0.188950 -0.084519 110 134 174
0.089764 -0.273970 0.039034 253 253 253
-0.097719 0.097579 -0.063537 106 132 175
-0.077026 0.276007 0.033566 253 253 254
-0.094370 -0.057880 -0.000974 128 130 131
0.043887 -0.281612 0.006156 254 253 253
-0.082891 0.038004 -0.065255 103 147 226
-0.065373 0.288816 0.022175 252 253 255
0.280757 0.273769 0.021903 255 254 254
0.214026 0.278358 0.000563 254 255 254
-0.044728 0.289842 0.062908 255 255 255
-0.077396 -0.118131 0.034989 128 131 134
0.315378 0.266903 0.048994 255 253 254
-0.080498 0.277511 0.043953 254 254 254
0.086164 -0.274096 0.043566 252 252 253
-0.064974 0.278370 0.033492 253 253 253
-0.079938 -0.109978 -0.012017 107 147 221
-0.103874 -0.179517 0.021869 125 129 131
0.181727 0.269832 0.065622 254 254 254
0.015631 0.288847 0.019417 254 253 254
0.067178 -0.281762 0.024885 254 255 254
0.250795 -0.283495 0.024655 253 255 254
-0.094062 -0.077770 -0.089005 105 138 202
0.107999 -0.274217 0.005540 255 254 253
-0.081617 0.095345 -0.089959 103 142 211
0.020589 -0.283424 0.057393 253 253 254
0.337713 0.262233 0.004746 254 253 253
-0.078547 0.113911 -0.008325 131 133 136
0.263496 0.267450 0.043235 255 255 255
0.148843 0.281486 0.058813 253 254 254
0.203412 0.279007 0.002398 252 254 253
-0.085947 -0.095905 -0.042326 106 130 174
0.323627 0.272790 0.036454 254 255 254
-0.078392 0.079639 -0.079464 127 129 132
-0.102321 0.241331 0.003193 130 128 129
-0.099784 0.045467 -0.071249 106 144 212
0.018602 -0.282975 0.041302 254 255 254
0.365203 -0.283361 0.056580 255 254 254
0.039097 -0.286265 0.062707 254 255 255
-0.099665 0.175673 0.036024 109 128 162
0.209114 0.265204 0.026718 254 254 255
-0.088095 0.180121 -0.084967 106 149 229
0.086845 0.270193 0.041191 254 254 253
-0.082345 0.071209 -0.078976 107 135 182
0.364079 -0.274579 0.051691 255 255 255
0.371179 -0.283537 0.063724 253 253 255
-0.086932 -0.196124 -0.084375 103 141 209
0.020564 0.275570 0.010190 253 254 255
-0.091274 -0.082351 -0.089841 104 141 214
-0.079771 -0.162230 0.018094 130 134 133
-0.024244 0.285346 0.011741 255 255 254
-0.011608 -0.272261 0.065612 255 255 254
-0.025993 0.286838 0.025814 255 254 255
-0.082259 -0.236291 -0.050231 122 127 130
-0.099622 -0.158023 -0.016660 127 131 139
-0.095780 -0.082511 -0.015985 131 132 132
0.044478 -0.279692 0.064291 253 254 254
-0.102054 -0.205881 0.009020 106 141 206
0.084240 0.280161 0.038276 254 255 255
-0.099907 0.237852 0.023539 103 145 217
0.166314 -0.270119 0.020209 253 254 254
-0.091427 0.255525 0.035071 103 137 197
0.276803 -0.276019 0.046382 254 254 254
0.023524 -0.277126 -0.022005 254 254 253
-0.076426 -0.179375 0.019153 125 127 130
0.293116 -0.276463 0.057741 254 255 254
-0.100483 0.139103 0.016113 102 137 199
-0.078989 -0.066027 -0.083477 106 134 185
-0.099825 0.234531 0.043573 103 142 215
0.391445 -0.278325 0.062487 254 255 255
0.200166 -0.275947 0.045589 253 255 255
0.175516 0.279198 0.057948 254 254 255
-0.078221 0.040386 -0.011926 104 146 220
-0.097943 0.267737 0.008696 131 133 136
-0.100382 -0.141103 -0.030762 103 141 210
-0.093769 0.046896 -0.027428 103 137 199
0.333543 -0.289808 0.025070 253 253 252
0.404029 -0.276743 0.054323 254 255 255
-0.071819 0.277403 0.002315 254 255 254
-0.094123 0.110409 -0.051634 106 144 214
0.230125 0.267740 0.031427 255 254 254
-0.082309 0.108637 -0.070897 127 134 136
-0.081368 0.047275 0.013130 131 132 134
-0.083498 -0.196391 0.009004 104 133 187
-0.088447 -0.042846 0.009680 107 134 184
0.184179 -0.278709 0.065675 253 254 255
0.272191 -0.283694 0.062256 255 255 255
0.275126 -0.275139 0.066465 255 254 255
0.300098 -0.281279 0.032935 255 255 253
-0.097881 -0.139960 -0.076744 136 138 139
0.239745 -0.273992 0.052447 254 254 253
0.176333 -0.277001 -0.004805 253 254 253
-0.084540 -0.223813 -0.031795 105 145 218
0.250593 0.261121 0.065764 255 254 253
0.096543 -0.283026 0.004676 253 253 255
0.106169 0.278723 0.063987 254 253 253
-0.085403 0.154820 0.041153 106 145 217
0.262915 -0.272233 0.013558 252 254 253
0.224837 -0.286027 0.066717 255 254 254
0.074607 0.271526 0.050637 254 253 254
-0.082686 -0.167948 -0.080624 132 137 142
0.316010 0.264068 0.042440 255 253 253
-0.080218 0.182503 0.028034 128 133 134
0.000074 -0.272899 -0.014645 255 255 255
0.165163 -0.276587 -0.005087 254 255 255
-0.079535 -0.087061 -0.035503 128 130 134
0.078603 0.272716 0.037735 255 255 254
-0.097078 -0.139737 -0.065225 121 125 130
-0.083008 0.190934 -0.044555 105 133 185
-0.082061 -0.133322 0.015437 102 136 199
-0.086732 0.133854 0.039615 107 133 179
0.090977 -0.283428 0.040125 255 253 254
-0.083177 -0.234776 -0.050669 123 128 132
-0.100193 -0.096599 -0.083182 122 125 127
-0.079132 0.143354 -0.062488 105 134 187
0.026898 0.275415 0.054033 253 254 254
0.110979 0.282106 0.027229 255 254 255
-0.099656 -0.146893 -0.093343 105 141 207
-0.082105 0.159558 0.021337 104 147 224
0.152831 -0.274740 0.034549 253 254 254
-0.035689 -0.275860 0.067949 254 255 255
-0.099140 0.076369 -0.093594 128 132 133
0.091935 -0.274162 0.021604 253 253 255
-0.062532 0.280949 0.061391 255 255 255
-0.070834 0.277232 -0.001753 255 254 253
-0.099948 -0.235929 0.043941 108 130 168
0.248559 -0.281932 0.009545 255 255 254
-0.080196 0.175383 0.035212 124 127 130
-0.036211 -0.282797 0.028619 253 255 255
0.243724 -0.283920 0.028465 253 255 255
0.035836 -0.273709 0.010757 253 255 254
0.116437 0.272200 0.000287 254 255 255
0.294072 0.276434 0.034757 252 253 254
-0.104456 -0.186716 -0.027570 105 142 209
0.070046 0.274052 0.001353 253 255 253
-0.096650 -0.084042 0.019915 104 132 180
0.169661 0.278872 0.047328 253 255 253
0.146252 0.279577 0.010945 253 254 253
0.133145 0.267650 0.039083 255 254 254
-0.095099 0.213686 0.034529 104 145 221
-0.082078 0.277977 -0.018123 123 131 131
-0.082170 -0.213599 0.030054 122 128 140
-0.049201 0.279434 0.055927 253 254 254
-0.095164 0.032027 -0.014709 130 129 130
0.137664 -0.273940 0.033211 254 253 253
0.213241 0.277376 0.043724 254 254 253
-0.064479 -0.276253 0.062665 252 252 254
0.346882 0.263250 0.018128 255 255 255
0.110390 -0.274318 0.016680 252 253 254
-0.084404 0.086741 -0.059440 103 137 200
0.065332 -0.282856 -0.013951 253 253 253
0.271742 -0.275362 0.064342 254 255 253
-0.082426 -0.139448 -0.048208 131 134 135
-0.099945 -0.150634 -0.044967 108 133 175
0.243864 0.268987 0.021600 254 253 255
-0.098550 0.063149 0.009084 129 133 133
0.370062 -0.271919 0.001100 252 254 253
-0.099946 0.089609 -0.023169 107 149 227
-0.081506 -0.093246 -0.013138 103 133 189
0.207673 0.276942 0.032238 254 255 253
-0.082239 0.195593 0.011759 123 128 129
0.324206 -0.283727 0.015541 253 255 253
-0.019917 -0.283587 -0.019483 255 255 253
-0.095955 0.159954 -0.094470 122 133 156
0.002538 0.283285 0.002372 254 254 255
-0.086159 -0.036236 -0.020758 131 134 137
-0.081378 0.284268 -0.016388 252 254 253
-0.035587 -0.283088 0.022075 254 253 253
0.029996 0.274762 0.010309 255 254 255
-0.024576 0.282933 0.009465 253 254 254
-0.099717 -0.039968 -0.031509 106 146 220
0.000258 -0.282795 0.060898 254 255 254
0.001224 0.284962 0.000945 254 254 254
-0.074197 0.119737 0.028328 133 130 136
-0.083400 -0.214558 -0.048123 127 128 130
0.159050 -0.275218 0.049683 255 255 253
0.152686 -0.284934 0.033941 254 254 254
0.045525 0.273708 0.013988 255 255 255
0.047280 0.274204 0.034618 253 253 255
0.339155 0.273008 0.040962 255 255 254
-0.024483 0.285790 0.013648 253 255 253
-0.087078 -0.240217 0.028531 104 137 198
0.124747 -0.286809 0.045234 255 255 255
0.021675 0.275333 0.024862 253 253 253
-0.092165 -0.078207 -0.089391 108 133 180
0.031544 0.275117 0.048506 255 254 253
0.085141 -0.282214 -0.001799 254 253 253
0.183628 -0.275823 0.048912 255 254 255
0.362738 -0.283770 0.054819 253 255 255
-0.098101 -0.157072 0.012646 132 133 136
0.009381 0.283429 0.003636 255 255 253
0.124176 0.278533 -0.003481 253 255 254
0.041100 -0.273942 -0.002033 254 254 253
-0.081285 0.103165 0.033524 130 128 129
-0.039367 -0.271377 0.008925 252 253 253
-0.048226 0.286277 0.021810 254 255 253
-0.097428 -0.213749 0.041734 134 139 143
0.074625 -0.282804 0.035361 254 255 254
0.187991 0.278639 0.013127 253 255 255
0.358909 -0.284559 0.048886 254 255 255
0.100068 -0.274754 0.061030 254 255 253
-0.083587 0.208344 -0.072252 130 132 132
-0.082961 -0.078340 -0.068398 131 135 137
0.168822 -0.275034 -0.001800 254 254 255
0.200509 -0.282146 -0.000800 255 255 255
-0.085289 -0.254212 0.001994 105 135 188
0.342557 -0.279151 0.012146 254 254 253
0.394534 0.265004 0.027140 255 255 255
0.016387 -0.275532 0.065106 254 253 253
0.034631 -0.282667 0.029825 253 252 252
0.241779 0.276838 0.006702 253 255 253
-0.079421 0.081293 0.029946 104 148 226
-0.097701 -0.131269 -0.081488 107 139 197
-0.057678 -0.272397 -0.003015 252 252 253
-0.083825 0.215520 0.019374 103 145 221
-0.084935 0.082501 -0.077838 128 138 153
0.327409 0.262357 0.048691 255 253 254
-0.085737 -0.051395 -0.036444 129 131 133
-0.082503 0.122366 -0.083747 103 140 208
-0.097769 0.092829 -0.078245 128 131 132
0.185139 -0.274894 0.022516 253 254 255
-0.092487 0.159605 -0.090896 104 140 207
0.254415 0.276080 0.065044 254 253 253
-0.091136 -0.103443 -0.092659 105 146 219
0.265269 0.275734 0.060614 253 255 253
-0.096040 0.049072 -0.039487 126 126 127
-0.100586 -0.264112 -0.041792 117 128 146
-0.083106 -0.213509 0.010491 106 138 197
-0.080610 0.053785 -0.008191 128 132 133
-0.080099 0.270720 0.014478 105 144 213
0.088164 0.272108 0.025271 254 254 254
-0.082516 -0.249957 0.030628 125 131 134
-0.096653 -0.186357 -0.005179 104 141 210
0.085665 0.280147 0.045114 254 255 255
0.376627 0.262008 0.058255 254 255 253
-0.096577 0.216751 0.049800 103 143 213
-0.080453 0.090643 -0.005849 130 130 130
0.059921 0.274149 0.005363 255 254 255
-0.097890 0.079865 -0.065903 131 132 132
-0.097552 -0.168036 0.038248 103 142 214
-0.100157 0.234118 0.029493 123 128 133
-0.087149 -0.042152 0.012654 103 140 205
-0.083600 0.227536 -0.029792 131 133 139
-0.101583 0.050303 -0.014309 105 145 215
-0.087098 -0.078698 -0.046870 105 133 180
-0.061660 -0.281840 0.063570 255 255 255
0.117505 -0.271916 0.036247 254 255 255
0.026290 0.273981 0.024372 254 255 255
0.217676 -0.268298 0.007632 254 254 253
-0.096021 -0.070425 -0.068433 105 147 226
0.330334 0.264467 0.008139 255 255 253
0.275658 0.275914 0.018183 253 254 254
0.214495 0.277928 0.030327 254 255 255
0.111518 0.272065 0.002635 252 253 254
0.131655 -0.272067 -0.004516 253 253 253
-0.084834 -0.236909 -0.044460 107 145 213
-0.001968 -0.282982 -0.012481 255 253 253
0.328776 0.262234 0.063737 254 255 255
0.054936 0.281958 0.001236 203 203 199
0.243569 -0.273941 0.031147 253 254 254
-0.099254 0.236862 -0.063516 132 127 128
-0.095908 -0.153778 -0.042281 107 149 225
0.326073 0.265695 0.031101 254 255 255
0.213664 0.277874 0.003930 255 255 255
0.133833 0.280885 -0.002073 253 254 255
-0.082216 -0.037455 -0.019119 177 180 179
-0.096157 0.183137 0.021426 103 141 210
-0.098531 0.083455 -0.090631 106 132 177
0.023525 0.272860 0.066672 255 255 255
-0.044068 0.278146 0.048459 253 255 255
-0.076241 -0.152506 -0.046111 126 130 135
0.220277 -0.289495 0.061066 254 254 255
-0.081832 0.234153 -0.057960 105 142 208
-0.079870 -0.112586 -0.039979 106 141 204
-0.034301 0.273753 -0.012558 255 255 255
-0.106266 0.230448 -0.017570 106 141 202
-0.061745 -0.281279 0.049622 254 253 253
-0.053220 0.282672 0.020286 201 204 204
0.386067 -0.272135 0.011289 253 255 254
-0.098524 0.174992 -0.042925 129 132 133
-0.078131 -0.280837 -0.021258 253 254 253
-0.085201 0.268497 -0.013398 104 136 197
-0.096707 -0.098735 -0.002902 127 129 134
-0.082899 -0.279342 -0.009511 253 255 253
0.049196 -0.275752 0.057946 254 255 253
0.124342 0.279530 -0.013950 252 254 253
0.174474 -0.274731 0.020639 254 254 253
-0.031389 -0.271916 -0.021925 252 252 253
-0.049327 -0.280741 0.049527 254 254 253
-0.041858 0.277834 0.031465 254 253 253
0.382755 -0.284069 0.054066 252 252 255
0.356331 0.262621 0.058321 255 255 255
-0.082962 -0.111268 -0.059600 129 132 131
-0.080207 -0.111758 -0.069840 103 136 191
0.333318 0.270821 0.009163 252 252 255
0.359140 0.272466 0.032294 254 255 254
-0.095713 -0.153085 -0.072522 105 140 208
-0.100217 0.272868 -0.013445 127 128 131
-0.101116 -0.043048 -0.041968 107 140 196
-0.096918 0.237142 -0.064497 104 146 225
0.043776 -0.282807 0.035457 255 254 254
-0.094825 0.092931 -0.099956 104 144 219
-0.037155 0.276838 0.014767 255 254 254
-0.078643 0.150730 -0.033940 124 127 130
0.238471 -0.283649 0.058110 253 253 253
0.339133 0.262696 0.046623 253 253 254
0.396510 -0.282411 0.033737 255 255 254
-0.080498 -0.254920 0.023911 112 131 164
-0.097494 0.169687 -0.020176 114 126 144
-0.102434 -0.222461 0.046942 107 136 187
0.070869 -0.272372 -0.006977 254 255 254
-0.013094 0.275152 0.045575 254 254 255
0.316278 0.272354 0.031841 254 255 254
0.325651 -0.267479 0.022475 255 254 255
0.194247 -0.275378 0.061480 253 254 254
-0.105894 0.089550 -0.002344 125 129 132
0.098483 0.269125 0.036355 253 254 253
0.351342 0.274236 0.042901 254 255 254
-0.097233 -0.043327 -0.049085 132 135 139
0.013874 -0.283181 0.055901 254 253 255
0.387386 0.260581 0.063543 254 254 254
-0.103073 0.184126 -0.059550 107 146 216
0.352194 0.270216 0.004430 254 254 255
-0.096886 0.114135 0.008353 133 136 138
-0.098453 -0.212369 -0.024822 106 135 182
0.252762 -0.282463 0.049927 253 254 253
0.109066 0.273303 0.002162 254 253 255
0.040628 -0.271492 0.004856 254 254 254
0.059995 -0.282372 0.013981 255 255 254
-0.087658 0.053976 -0.062605 103 146 222
-0.100824 -0.263894 0.005976 110 135 179
-0.025385 0.275375 0.032106 255 255 255
-0.084046 -0.212981 -0.006837 109 139 191
0.312711 0.272567 0.035412 255 255 253
-0.085741 -0.270875 0.060454 255 255 255
-0.104604 -0.268820 0.011022 109 143 204
-0.081673 -0.217958 0.052656 135 139 140
-0.073649 -0.281364 -0.030474 253 254 254
-0.093717 0.128539 -0.040715 107 141 202
0.398189 -0.271518 0.020683 255 255 255
-0.099700 0.061324 -0.016525 105 136 195
-0.096305 0.110063 0.030697 104 136 192
0.130605 -0.283731 -0.007678 255 255 255
0.110568 0.270913 0.022395 253 252 254
-0.083217 0.228962 0.040842 109 127 157
0.113068 0.283361 0.041642 255 254 255
-0.082602 -0.191363 0.031038 121 127 138
0.076668 0.281376 0.013886 252 253 254
0.355341 0.272447 0.025955 253 253 253
-0.084840 -0.269702 -0.010757 106 141 204
0.001327 -0.273111 -0.009629 254 254 254
-0.101702 0.199926 -0.072130 109 128 163
0.191763 -0.284887 0.003280 254 255 254
0.010669 -0.282964 0.025401 253 253 253
0.400945 0.265841 0.049845 255 255 255
-0.045940 -0.281681 0.014500 253 255 255
-0.054476 -0.272433 0.013303 253 254 253
0.236406 0.266019 0.045537 254 255 255
0.288626 -0.275097 0.026865 254 255 254
0.099163 -0.275383 0.063610 254 253 253
0.089741 -0.278787 0.064603 255 253 253
-0.080125 -0.278358 0.011905 254 255 253
0.126127 0.281714 0.022376 255 255 254
0.400657 0.263428 0.049958 255 255 255
-0.097719 -0.152220 0.000799 105 142 210
0.010188 -0.272160 0.013612 253 254 254
0.112501 -0.283378 0.034757 254 255 253
-0.068081 -0.271596 0.065870 253 254 253
0.183614 -0.278170 0.065762 254 254 253
0.357083 -0.287173 0.006453 253 253 253
-0.082405 0.146628 -0.038463 102 140 208
-0.001494 -0.286170 0.032364 253 254 252
0.061573 0.270876 -0.011746 254 253 253
-0.085537 0.205720 -0.048130 102 138 202
-0.083336 -0.107925 -0.049232 105 128 168
-0.100404 0.147961 -0.006390 110 138 184
0.166804 -0.276623 0.059572 254 254 255
-0.079399 0.249187 0.036994 109 134 182
0.165341 -0.281721 -0.005183 255 255 252
0.103641 0.281130 -0.004826 253 253 254
0.130787 -0.284186 0.067377 255 254 255
0.153898 -0.283447 0.008145 253 254 255
0.234262 0.268926 0.028824 255 254 254
0.400372 0.267829 0.040188 254 255 254
-0.095146 0.142368 -0.046253 107 142 207
-0.104755 0.250674 0.018882 105 145 219
0.249313 -0.282713 0.052608 254 254 254
-0.037080 0.277366 0.041621 254 254 254
-0.079943 -0.175406 -0.024286 105 133 180
-0.030113 0.280509 0.069640 253 253 252
-0.081363 0.160412 0.023963 128 129 129
0.115095 -0.282212 0.011138 254 254 254
-0.082394 0.142662 -0.066183 128 132 135
-0.094220 0.090708 -0.023147 103 145 220
-0.105106 -0.062534 -0.057129 125 128 132
-0.008578 0.276009 0.046406 255 255 254
-0.100148 0.074927 -0.025914 107 128 164
-0.056762 0.279982 -0.024228 254 254 254
0.067497 -0.284218 -0.013947 254 254 253
-0.097630 -0.050162 0.025084 105 140 204
0.199490 0.268113 0.058593 252 253 254
0.259122 -0.271240 0.071993 255 255 255
0.053324 -0.273382 0.035998 253 254 253
-0.099004 0.202438 -0.019477 103 144 216
0.266745 -0.281767 0.045058 254 255 255
0.037332 0.283197 0.048350 254 254 255
-0.005816 0.274980 0.009584 254 255 254
-0.007241 -0.282350 0.020617 255 255 254
0.038209 -0.274231 -0.006113 254 255 253
0.170296 -0.283984 0.046013 253 255 254
-0.081403 0.086607 0.017078 119 131 141
-0.081255 0.218720 -0.027978 104 136 193
0.169819 -0.272663 0.043683 253 255 255
0.001506 0.275721 -0.004850 255 255 254
-0.056347 -0.283863 -0.018136 253 255 255
0.153281 0.269201 0.047898 253 254 253
-0.083986 -0.179570 -0.058913 126 128 131
-0.107855 -0.156083 -0.040465 105 134 184
-0.101996 0.075858 -0.028781 106 133 181
-0.002173 -0.282265 0.055387 253 255 254
0.346641 -0.275461 0.053836 254 255 254
-0.092219 -0.034083 -0.019894 130 130 134
0.290445 0.264700 0.055550 254 254 254
-0.095434 -0.210376 -0.084217 105 142 212
-0.078402 -0.064852 -0.085249 131 133 135
-0.101363 -0.195113 0.025655 107 142 205
-0.085133 0.204963 -0.064738 104 137 190
0.191123 0.266815 0.003449 253 254 255
0.168373 0.273506 -0.000291 253 255 255
-0.082082 -0.230185 -0.069349 107 140 200
-0.097359 0.121922 -0.000289 121 128 134
0.046319 0.282224 0.036506 253 254 255
0.393521 -0.283816 0.054607 255 255 255
-0.101330 -0.176565 -0.042892 123 126 128
0.296331 0.274750 0.021088 253 254 254
-0.079466 0.079414 -0.053561 103 147 224
0.000715 0.284802 0.029766 255 255 255
-0.085660 -0.219401 -0.021253 105 142 212
0.029338 0.276868 0.062194 254 255 255
-0.082412 -0.046439 0.017004 106 149 226
-0.099617 -0.149307 -0.019026 105 133 180
0.260462 -0.273498 0.040491 254 253 255
0.282326 0.266521 0.041438 255 255 254
-0.051557 0.277365 0.031871 253 254 254
-0.084985 0.247599 -0.057439 104 136 195
0.266769 0.276693 0.007749 254 252 253
0.356899 0.264792 0.049455 252 253 252
0.298130 0.264063 0.003884 255 253 255
0.323705 -0.283594 0.016741 253 255 255
0.028981 -0.273034 -0.006020 252 253 252
0.075098 0.281315 0.021808 254 254 253
0.287451 -0.281568 0.069148 255 255 255
-0.098199 0.057318 0.012312 124 129 141
0.112522 0.280953 0.057452 255 255 255
-0.095741 0.137946 -0.092902 104 132 183
-0.078412 0.284030 -0.011429 254 254 254
-0.097696 0.094069 -0.031520 104 140 206
-0.096231 -0.043949 0.015368 125 132 135
-0.098785 -0.062880 -0.000997 132 133 135
-0.082046 0.171662 -0.010309 110 135 176
0.262570 -0.282201 0.043962 255 255 255
0.083637 0.287460 -0.006571 255 255 255
-0.078546 -0.170643 -0.047759 129 131 131
0.152192 0.278119 0.039576 255 255 254
-0.098297 -0.161946 -0.078185 106 138 191
0.120126 -0.274372 0.007945 252 253 253
-0.084126 -0.085138 -0.008661 105 139 201
-0.079775 0.037080 -0.060234 121 129 134
0.078387 -0.285500 0.063778 254 255 255
0.301574 -0.276316 0.043430 254 254 255
-0.054640 0.277740 0.017744 253 254 254
-0.080630 0.178475 0.047763 104 131 179
0.354555 -0.274266 -0.002737 253 252 254
-0.079447 -0.182869 0.051443 105 134 187
-0.087828 -0.278241 -0.023558 252 254 255
-0.008351 -0.272733 0.029777 254 254 254
-0.099974 -0.222932 0.037899 103 133 187
0.186706 0.267551 0.038285 254 255 255
-0.095693 0.051415 -0.019131 127 132 135
-0.093641 -0.094630 0.010685 132 135 143
-0.084633 0.195169 -0.085170 104 133 185
-0.098934 -0.181410 -0.055600 122 127 132
-0.094697 0.094001 -0.018672 124 126 127
0.369647 -0.276565 0.005286 254 255 253
-0.082170 0.208048 0.030121 103 141 211
0.085970 0.272248 0.018068 252 253 252
-0.082537 0.116970 -0.060319 124 132 133
-0.081227 -0.182029 -0.009602 104 138 198
-0.068881 -0.271860 -0.020719 255 255 255
0.151846 -0.276130 0.052542 253 253 254
0.191301 0.276255 0.054071 255 254 254
-0.100177 -0.203986 -0.078895 132 134 133
0.115865 -0.271391 0.021903 253 253 254
-0.098479 0.238089 0.020117 104 145 219
-0.081301 -0.189005 0.047743 118 130 152
0.374672 -0.283283 0.027486 255 254 255
-0.093659 -0.067745 0.017466 105 142 210
0.192132 0.267909 0.062153 254 255 254
-0.093635 0.081841 -0.014709 103 137 197
-0.097447 0.091950 0.023629 107 144 213
0.281741 0.273617 0.008059 252 253 254
-0.100408 -0.228411 0.044579 122 126 130
-0.097263 -0.099847 -0.009918 103 144 217
0.165749 0.268760 0.033030 254 255 254
0.214067 -0.274751 0.032996 254 255 254
-0.031286 0.287202 0.021773 254 254 253
-0.093511 -0.133794 -0.006373 103 138 200
0.206273 0.270068 0.034008 253 255 253
-0.081340 0.257214 0.022124 129 128 129
-0.092888 0.222380 0.013143 104 136 193
-0.083026 0.131925 -0.042462 104 133 186
0.123762 -0.283584 -0.011382 253 255 253
-0.077127 0.143080 -0.088871 131 132 132
-0.094274 0.103648 0.023379 112 139 182
-0.093697 -0.058575 -0.011008 126 130 136
0.208979 0.269180 0.068068 255 255 255
0.388814 -0.283052 0.037917 255 254 252
0.189026 0.268730 -0.003230 254 253 255
0.261011 -0.282097 0.049517 253 254 254
0.181311 -0.272434 0.001977 253 253 254
0.253759 0.277551 0.060851 255 255 255
-0.082631 0.132113 -0.044227 103 145 222
-0.079768 0.112012 0.006661 132 134 135
0.082271 0.280916 0.018826 255 254 255
0.148103 -0.282604 0.037463 253 254 254
0.020054 -0.282345 0.034849 255 255 255
-0.098215 0.130987 -0.044310 122 131 143
0.271470 0.266631 0.047289 254 253 253
-0.088919 -0.110089 0.034017 103 138 199
-0.096298 0.113247 -0.029401 106 144 216
-0.097224 0.054137 -0.081080 125 127 131
0.302091 0.273618 0.032388 253 255 255
0.259737 0.269578 0.004154 254 253 253
-0.010438 -0.269529 0.056026 254 254 253
-0.084617 0.212377 -0.015422 104 136 194
-0.104305 -0.270151 -0.034625 108 140 196
0.187851 0.268347 0.015878 255 255 255
-0.000644 -0.282589 -0.004317 253 255 253
0.376247 -0.284525 0.045693 254 255 255
0.381344 -0.283103 0.054728 254 255 253
-0.095463 0.139756 0.018309 102 135 191
0.127268 -0.273951 0.016665 255 253 253
-0.095398 0.137940 0.040347 128 128 133
0.131654 0.274656 0.065297 254 253 253
0.064570 -0.281771 0.029420 255 254 253
0.172850 -0.272437 0.000177 252 253 254
-0.098145 0.187036 -0.009273 106 135 184
-0.096534 -0.146157 -0.027733 103 144 221
0.416130 -0.280273 0.042697 255 255 255
0.284573 -0.281767 0.067894 255 255 254
-0.085434 0.283021 -0.006124 254 255 255
-0.098662 0.213574 -0.075168 128 129 133
-0.091714 0.091448 0.033191 104 141 208
0.248743 0.279184 0.041518 254 252 254
-0.059889 -0.269578 0.008240 253 253 253
-0.098259 0.026245 0.007689 126 127 129
-0.084030 0.280154 0.055375 253 254 253
0.033146 0.284299 -0.004847 254 254 253
-0.084306 -0.077809 -0.058519 125 129 135
-0.081337 -0.127788 -0.001585 107 135 187
-0.087064 0.200977 0.049374 103 141 211
-0.100586 -0.094444 -0.087052 109 136 183
-0.098773 -0.110587 -0.031237 128 136 145
0.066805 0.271450 0.064971 255 255 253
-0.096993 -0.163511 0.045552 125 130 132
0.045668 0.274797 0.009291 253 253 255
0.124532 -0.279200 -0.013477 254 254 255
-0.099367 0.050210 0.005342 109 128 159
-0.084698 -0.195040 -0.071724 105 133 184
-0.080490 0.043897 -0.010970 105 133 182
-0.080047 -0.029568 -0.011135 108 144 211
-0.100874 -0.071358 -0.048613 106 142 208
-0.084424 -0.071802 0.009313 105 146 218
-0.081224 0.143591 -0.015152 134 138 140
-0.090847 -0.137803 -0.091481 122 132 143
-0.101361 0.192555 -0.073718 105 132 177
-0.100631 -0.250572 -0.037678 108 141 200
-0.073092 -0.270357 0.061380 254 253 253
0.086536 0.282132 -0.022856 253 255 253
0.059305 0.273021 0.043254 253 254 255
0.143117 -0.273691 0.035821 254 255 253
0.221858 -0.283865 0.046981 254 254 254
-0.045007 -0.271229 0.034205 253 255 254
0.219444 0.267841 -0.000811 254 254 254
-0.082920 -0.060903 0.011606 108 134 176
-0.084316 -0.265097 0.009816 107 139 201
-0.100351 -0.102548 0.030750 132 133 136
-0.087031 0.082999 0.030585 127 130 132
0.081887 0.279150 -0.022867 254 254 254
-0.081783 -0.139750 -0.071069 128 132 136
-0.084302 -0.178447 -0.059331 105 149 229
-0.102327 0.101908 0.020880 107 132 176
-0.101975 -0.241907 0.045915 110 131 168
0.112682 -0.272786 -0.004149 254 254 254
-0.080132 -0.258668 0.012589 181 185 187
-0.082477 0.221909 0.026323 126 131 133
-0.101406 0.173248 -0.018762 126 133 136
0.361187 -0.281986 0.068606 255 255 255
-0.083191 -0.234191 -0.033458 105 132 176
0.128323 -0.275620 0.035400 254 254 253
-0.082144 -0.121190 -0.019091 106 133 184
0.266568 0.271338 0.066738 255 255 253
-0.082623 0.070656 0.009540 105 135 189
-0.097178 0.030857 0.014988 108 131 173
-0.096596 0.127060 0.003225 135 139 140
-0.100985 -0.221927 -0.028802 128 130 133
0.208040 0.269412 0.043317 254 253 255
0.178533 -0.289988 0.008081 254 253 254
0.365594 0.273144 0.020177 255 255 255
-0.079626 0.127920 0.016017 104 147 226
0.111404 -0.285963 0.066337 254 255 254
0.219353 0.277701 0.058923 254 254 255
-0.101783 -0.115853 -0.052864 105 148 226
0.231256 -0.276073 0.004387 255 255 255
-0.082247 0.187850 0.006862 122 128 130
-0.092932 0.227554 -0.077613 106 136 187
-0.087802 0.075411 0.034195 104 135 187
-0.075562 0.288307 -0.020286 255 255 255
-0.098107 0.242748 -0.052403 103 147 223
0.254567 0.268229 0.021186 255 255 253
-0.105830 -0.239810 -0.047644 124 130 131
-0.103141 -0.117211 0.008447 107 141 201
-0.024000 -0.283578 0.058108 255 255 253
-0.105285 -0.212533 0.025461 117 128 145
-0.101493 0.078061 -0.021303 118 134 162
-0.085298 -0.141418 -0.095167 106 138 199
0.059060 -0.275068 -0.019011 255 255 255
-0.081534 -0.074553 -0.033137 132 135 137
-0.048142 -0.272604 0.047317 255 255 255
-0.036903 0.281138 -0.016303 254 253 253
0.310720 0.272497 0.027913 255 255 255
-0.082226 -0.243040 -0.060799 103 143 213
0.126267 -0.276448 0.031508 254 254 253
0.031914 0.282800 -0.020346 254 255 254
-0.083974 0.175399 -0.036963 103 138 199
0.297910 -0.282804 0.048888 253 254 255
-0.097909 -0.121494 0.025426 111 129 164
-0.076268 -0.116792 0.036173 106 133 179
-0.094517 -0.143323 -0.059164 107 141 204
-0.024021 0.287378 -0.018771 253 253 253
0.361864 -0.283987 0.031306 255 255 255
0.198156 -0.273059 0.011548 255 254 253
0.090453 0.272911 0.031317 254 255 253
0.165699 0.277256 0.039452 255 254 255
0.303830 0.264444 0.061114 254 254 254
-0.097150 -0.216179 -0.063557 106 146 219
0.141269 -0.272912 -0.000817 254 253 253
-0.080199 0.033730 -0.061230 110 130 165
-0.081471 -0.165370 -0.006206 103 141 213
-0.094883 -0.072106 0.030400 129 133 137
-0.083416 0.186360 -0.048445 106 133 185
0.325500 -0.285719 0.045218 255 255 254
0.344551 -0.280680 0.015607 254 255 255
-0.040941 -0.271728 0.042487 255 255 253
-0.078889 -0.114955 0.014452 129 127 128
-0.080998 -0.046927 -0.062461 125 131 134
-0.082647 0.269829 -0.028606 131 134 137
0.041892 0.274949 0.010566 254 255 254
0.399543 0.269282 0.042330 255 253 255
0.123759 0.271340 0.061014 255 253 254
0.053796 -0.279213 0.037710 253 253 254
0.322995 -0.281538 0.025222 255 255 255
0.296368 -0.272626 0.008376 253 253 254
-0.083266 -0.174310 -0.022786 105 144 214
0.114333 -0.284334 0.066751 255 255 253
-0.100548 -0.173444 0.009517 122 125 128
-0.081910 -0.138242 -0.060082 107 128 163
-0.096929 -0.211799 -0.047671 105 141 210
-0.009651 -0.272017 0.066778 255 254 255
0.021235 -0.285369 0.029272 254 255 254
0.264843 -0.273969 0.021113 254 254 255
0.189425 0.272138 0.002937 253 253 253
0.181816 0.278322 0.052243 255 255 254
0.171854 0.277157 0.032006 253 254 253
-0.094390 -0.121105 0.006928 104 132 184
0.146878 -0.272650 -0.004395 252 253 254
-0.100892 0.202726 -0.078703 107 127 161
0.038526 -0.283345 -0.019235 253 255 254
0.026123 0.273138 0.025312 254 253 255
0.166058 -0.275431 0.062242 252 253 253
0.042938 -0.283135 0.026379 254 254 254
-0.101609 0.208157 -0.031544 104 133 182
0.152473 -0.273305 0.002703 253 254 253
-0.087124 0.025005 0.011028 109 132 171
-0.085044 -0.184811 -0.062693 104 148 225
-0.079843 -0.083670 0.007962 127 130 131
0.351790 -0.275280 0.032622 253 255 254
0.029199 0.284532 0.048672 252 253 253
0.296810 -0.275940 0.072888 254 254 254
-0.062956 0.275094 0.002693 255 254 254
-0.083415 0.201621 0.026310 102 144 219
-0.084704 -0.243998 0.020663 111 127 152
-0.085989 0.262755 -0.025092 105 140 201
-0.092396 -0.229444 -0.073051 124 126 127
0.359541 0.272904 0.010610 254 254 253
-0.075244 0.275548 -0.023594 255 253 254
0.367606 0.271092 0.019667 253 253 254
-0.090368 0.277574 0.006300 111 147 213
0.139643 -0.272641 0.000521 254 253 253
0.156642 0.278248 0.053340 255 255 254
-0.100702 -0.267870 0.013968 111 136 180
-0.082577 0.118685 -0.048070 105 149 229
-0.104469 0.184153 0.010063 116 136 167
-0.083092 0.210185 0.045638 106 135 189
0.217620 0.275891 0.055730 255 255 254
-0.053910 -0.272437 0.029232 254 255 255
0.076629 -0.282553 -0.000005 253 254 255
0.051621 -0.274295 0.020227 252 253 255
-0.094229 0.051504 -0.045250 107 132 175
0.209867 0.277397 0.043089 253 254 254
-0.099452 -0.207399 0.028938 105 140 207
-0.077543 -0.113473 0.030323 103 148 226
0.371938 -0.283692 0.057875 255 254 255
0.351041 -0.275894 0.039159 254 254 254
-0.084361 0.201636 -0.041589 133 135 135
-0.099092 -0.184491 -0.014024 127 130 132
0.002864 0.281856 0.067972 252 253 253
0.144294 0.269152 0.038164 253 253 255
-0.071082 0.046294 -0.003431 128 129 132
-0.080577 -0.101128 -0.003339 128 130 132
0.171998 0.280565 0.032962 255 254 255
0.203214 0.277702 0.015314 255 254 255
-0.100175 0.202128 -0.068949 103 140 207
-0.098410 0.100941 -0.047961 122 131 146
-0.087213 -0.040350 -0.027897 106 146 220
-0.103407 0.170803 0.041412 106 136 187
0.332306 0.272600 0.029132 254 253 254
0.260037 0.274220 0.034953 254 253 254
0.312120 -0.275724 0.041939 254 255 253
-0.098295 0.118710 -0.023516 126 129 135
-0.081881 0.089637 0.026632 123 128 129
0.111673 -0.283619 0.015685 253 255 253
0.121412 0.281058 0.056338 254 255 255
0.329733 0.264517 0.007290 255 255 255
-0.104404 -0.139172 -0.031004 105 141 206
-0.076552 0.275928 0.022729 254 253 254
0.340129 0.265114 0.039405 253 254 255
-0.014847 -0.283799 -0.017229 253 254 254
-0.101036 0.224635 -0.069454 107 145 215
0.053743 0.273988 -0.010066 253 254 255
0.282536 -0.275955 0.060868 254 255 255
-0.081174 0.139674 0.027971 103 146 227
-0.094864 0.152946 -0.093535 130 132 131
-0.098370 0.096356 -0.072761 134 132 131
-0.084255 0.138962 -0.093158 103 136 194
0.267339 -0.282242 0.015507 254 255 255
-0.026543 -0.272079 0.029680 255 255 254
-0.083299 -0.153565 -0.055526 107 136 189
0.287690 -0.284952 0.022331 254 254 254
0.238378 0.271005 0.068987 255 255 255
-0.094866 -0.196309 -0.081210 105 133 180
0.014899 -0.274030 -0.006315 254 253 254
-0.014524 0.273907 0.025532 255 255 253
-0.080875 0.150669 -0.027305 136 160 198
-0.082223 0.136644 0.028820 102 135 195
-0.081013 0.253587 0.035370 129 129 130
-0.079433 0.024281 -0.022026 123 130 134
-0.045982 0.290374 0.063526 254 255 253
-0.020303 0.286419 0.046812 252 254 254
0.073444 0.281374 0.040325 254 254 253
0.046199 -0.278809 0.064314 253 255 255
0.041459 0.284558 -0.002516 254 254 254
-0.087392 -0.119754 0.036920 111 139 190
-0.080714 0.105271 0.014520 106 141 206
0.302835 -0.282179 0.014508 255 253 252
0.004007 0.286029 0.061797 253 254 254
0.108156 -0.275982 -0.011967 253 253 252
-0.012482 0.284825 -0.008598 254 255 253
-0.098111 0.026784 0.004952 105 138 198
-0.082315 0.176082 -0.081701 130 129 129
-0.099393 -0.086434 -0.039697 106 137 193
-0.021415 -0.283072 0.011175 254 255 255
-0.069113 -0.278812 0.035718 254 255 255
0.202440 -0.275080 0.005948 254 254 255
0.298509 -0.273661 0.040354 253 254 255
0.245215 -0.284833 0.039542 255 255 255
-0.082727 0.077987 -0.003004 102 139 207
0.126542 -0.272479 0.000125 254 255 253
0.014330 0.283758 0.023970 254 254 254
-0.074914 0.287608 0.010321 252 254 252
-0.075934 0.069064 -0.064822 132 135 137
-0.086187 -0.258206 0.033379 106 138 192
-0.084337 -0.235217 0.038488 106 134 185
0.031838 -0.282580 0.011666 255 254 254
0.313696 0.272593 0.019849 255 255 255
-0.097798 -0.222846 0.026610 108 143 208
0.035796 0.275581 -0.004624 253 255 254
-0.092986 -0.237294 -0.024576 134 137 139
-0.047565 -0.272294 -0.005452 254 255 253
-0.103221 0.064611 0.016800 130 128 131
-0.080996 0.108632 -0.004622 106 135 186
-0.077097 0.042625 -0.050049 123 134 151
0.105351 -0.275003 0.039195 253 254 254
-0.100188 0.245860 0.037735 102 137 200
0.003870 0.281549 -0.016437 254 253 255
-0.101265 0.165735 0.024915 106 142 209
-0.100313 -0.109298 0.007260 105 143 210
-0.076025 -0.052877 -0.005059 131 134 134
-0.025552 0.286779 -0.005661 253 254 255
-0.095725 0.085124 -0.064815 123 130 130
0.086727 -0.272803 0.015085 254 255 253
-0.019005 0.283091 -0.019969 253 254 254
-0.101029 0.121035 0.029709 104 146 218
0.110669 0.280575 0.026818 253 255 254
0.117684 0.281381 0.019888 253 254 254
0.260258 -0.279744 0.068033 255 255 254
0.142377 0.271431 0.011249 254 253 253
0.074905 -0.277410 -0.018801 254 254 254
-0.098036 0.154864 -0.085303 127 133 136
0.123394 -0.284266 0.035886 255 255 255
0.049479 0.285948 0.018415 253 255 253
-0.098840 0.142607 0.013878 128 137 143
-0.103168 -0.189418 0.011985 104 131 178
-0.069029 0.277487 0.007441 255 255 253
0.370857 0.272900 0.053515 255 255 255
-0.012472 0.276346 0.024759 253 255 255
0.054837 -0.274657 0.063302 253 255 255
0.024555 -0.271427 0.020632 253 254 254
0.155742 -0.272522 -0.000440 255 255 254
0.055676 0.282242 0.014633 252 254 253
-0.083475 -0.137630 -0.066663 107 150 230
0.158466 0.270258 0.049343 253 255 255
-0.097549 -0.233578 0.031931 106 142 205
0.200894 0.277244 0.011795 255 255 254
0.227206 -0.272931 0.012651 253 253 253
-0.081477 0.050614 -0.057795 103 146 225
-0.081761 -0.099848 -0.024285 127 132 131
-0.100496 -0.078583 -0.062816 105 145 215
-0.084314 -0.270970 0.027909 255 255 255
0.386579 0.270927 0.062027 253 254 254
-0.100174 0.066511 0.003570 103 136 194
0.080764 -0.282250 0.030995 255 254 253
-0.091844 0.226345 0.050900 130 129 130
0.336908 0.272538 0.035790 254 254 255
0.163352 -0.272894 0.015308 253 254 253
0.160814 0.269211 0.060992 253 254 255
0.089660 -0.274355 0.065892 255 254 254
-0.080854 0.168643 0.026920 107 144 212
0.019212 -0.284126 0.058281 253 255 253
0.104928 -0.283938 0.035148 255 255 255
0.100985 -0.282420 0.039003 254 254 254
0.075839 0.273830 0.010179 254 253 255
0.174555 0.276707 0.066357 255 255 253
-0.077180 -0.239198 0.041977 107 132 178
0.355049 0.272758 0.034074 255 255 255
-0.082391 0.169309 -0.023452 113 128 154
0.228945 0.276923 0.059547 255 255 254
0.021397 0.284571 0.017579 254 255 253
-0.097522 0.150323 -0.071474 134 137 141
-0.097541 -0.209486 0.035252 106 130 172
0.318664 0.273757 0.040797 254 255 254
-0.092359 -0.065294 -0.086561 130 135 138
0.165416 0.269351 0.007840 254 255 255
0.046733 0.272672 0.017048 253 255 255
0.357455 0.272247 0.039531 254 255 254
-0.080008 0.138638 -0.046068 104 142 212
0.041718 -0.272981 0.054012 253 254 255
-0.083885 0.220123 0.007405 105 142 212
-0.100728 0.105453 -0.076085 103 143 215
-0.081295 0.055334 0.006906 104 136 195
-0.099242 -0.109912 -0.022368 103 141 206
0.246235 0.275233 0.045813 254 255 255
-0.086163 -0.267292 -0.006171 254 254 255
0.162768 -0.282445 -0.000875 253 254 254
0.241674 0.268677 0.024885 255 254 253
-0.022633 -0.274448 0.038483 253 254 253
-0.085042 0.023787 0.013954 106 130 174
0.006260 -0.282363 -0.004845 252 253 254
0.211718 0.275069 0.000726 255 255 253
0.203149 0.265157 0.017232 255 255 255
-0.103252 0.038141 -0.021834 129 131 134
0.042611 -0.282635 0.042277 255 255 255
-0.004032 0.284581 0.045411 253 255 254
-0.082659 0.232898 0.013459 129 131 141
-0.023954 0.286892 0.056180 254 255 253
-0.097772 0.112955 -0.008318 129 132 133
-0.090291 0.280971 -0.041155 110 135 182
-0.100304 -0.065349 0.026570 112 132 165
-0.067773 -0.278410 0.042024 253 254 253
-0.097098 0.029826 -0.041623 110 137 188
-0.097968 0.116039 0.010327 130 135 138
0.069478 0.270804 0.063216 255 253 253
-0.080501 0.150341 0.009668 131 128 132
-0.101130 -0.250405 0.039927 106 146 217
-0.100298 0.266681 -0.059040 106 137 191
0.384316 0.270281 0.066721 253 253 255
0.072432 0.269738 0.067790 255 255 255
-0.099680 0.038983 -0.046741 105 142 213
0.387169 0.272536 0.034634 255 255 254
-0.086462 0.283499 0.048160 255 255 253
-0.099271 -0.060235 -0.074802 132 128 132
-0.082607 0.273321 -0.045638 131 133 136
-0.095298 0.137590 -0.034746 124 132 139
-0.082364 0.216922 0.039258 132 133 134
-0.083436 0.100723 -0.082754 126 127 131
0.285184 0.267616 0.031233 254 255 255
0.141651 -0.275649 0.039623 253 253 254
-0.103602 -0.250118 -0.052929 106 148 221
0.278170 -0.282934 0.021472 252 253 253
-0.082577 0.099949 -0.083450 105 143 215
-0.078184 -0.165262 0.007445 126 128 129
-0.093879 0.101620 -0.033270 105 148 227
0.011547 -0.283398 -0.009622 205 206 199
0.382302 0.273203 0.046256 254 254 255
-0.107934 -0.172503 -0.079120 125 130 131
0.085256 0.281809 0.033075 255 255 254
-0.021934 -0.273364 0.034941 254 254 255
0.270997 0.275126 0.018166 254 254 254
-0.011365 -0.272755 -0.003727 255 255 255
-0.095850 -0.100768 0.026701 124 127 130
-0.029917 -0.282980 0.031082 255 255 254
0.052420 0.276426 -0.018683 254 255 254
-0.080633 -0.194833 -0.051791 104 142 208
-0.104614 -0.184415 -0.001340 107 141 204
-0.100394 0.250677 -0.066682 106 135 189
0.009992 -0.282498 0.065685 252 253 252
0.333244 0.265269 0.004744 254 255 255
-0.090280 0.164812 0.042944 105 132 183
-0.101885 0.155832 0.019755 128 130 131
-0.097277 -0.221426 -0.003927 104 133 185
-0.093954 0.129680 -0.061065 108 129 167
0.383082 0.263837 0.026689 255 255 255
-0.005848 -0.275016 0.052654 254 255 255
0.168963 0.269921 0.054128 253 254 254
0.391615 -0.271893 0.018130 255 255 255
-0.000629 -0.282106 0.048178 254 254 254
-0.082775 -0.199783 -0.046008 106 142 212
0.116345 -0.285670 0.049058 254 255 253
-0.081760 0.219728 0.030593 103 139 204
-0.051433 0.287300 0.038220 255 254 255
0.104966 -0.281811 -0.018566 253 254 254
-0.084874 -0.080342 -0.048372 127 127 129
-0.104599 -0.066560 -0.013986 107 134 185
0.350875 -0.274967 0.027816 255 254 253
0.110356 -0.272382 -0.002842 254 253 253
0.111099 -0.283258 0.046718 254 253 253
0.005498 0.285836 0.021145 252 253 253
-0.013883 -0.272806 0.003208 254 253 253
-0.081409 -0.180956 0.017455 126 136 147
-0.100391 0.178790 -0.007488 134 136 134
-0.079222 -0.155214 -0.085376 104 141 212
-0.080527 0.177931 0.010685 129 128 131
-0.032100 0.287785 0.064728 253 255 255
-0.076932 -0.086452 -0.020948 110 130 166
-0.096716 -0.139565 -0.077958 105 133 183
-0.102521 -0.069402 -0.051770 106 137 194
-0.102211 0.241993 0.013888 105 135 188
0.052090 0.284302 -0.009301 252 253 253
-0.080027 -0.151555 0.036022 129 130 133
0.205407 -0.273838 0.027315 253 255 255
-0.075342 0.280126 -0.010744 254 253 253
-0.103555 -0.233973 -0.021750 131 136 140
-0.100743 -0.229292 0.049934 108 133 177
0.102006 -0.282631 -0.001515 253 254 255
-0.104609 0.127266 -0.049245 109 141 198
-0.050210 -0.282840 0.055992 255 255 255
-0.029024 0.276865 0.025340 255 255 255
-0.106374 0.149091 -0.040137 126 130 130
-0.084065 -0.162298 -0.063484 106 142 203
0.121462 0.284672 0.042536 255 254 254
0.280149 0.264293 0.065314 255 255 255
-0.096674 0.203167 -0.083247 130 129 129
-0.075982 -0.196204 -0.013619 119 132 152
0.297904 0.265018 0.000748 253 254 254
0.101622 -0.281340 0.063583 254 253 254
0.388916 -0.271994 0.019734 254 254 253
-0.086590 -0.073920 -0.035485 106 138 194
0.319328 -0.284579 0.067975 253 255 255
-0.100553 -0.257955 -0.043517 124 127 130
-0.079274 0.045280 -0.071582 111 132 166
-0.036130 0.289884 0.065903 253 254 254
-0.092975 0.279425 -0.039616 105 132 185
0.229965 0.272883 0.065773 254 255 255
0.339865 0.266387 0.001953 253 254 253
-0.080587 0.250923 0.033574 123 128 130
0.331493 0.265359 0.043768 253 253 254
0.173098 0.268997 0.041926 254 255 255
-0.081324 0.288438 0.014556 255 254 254
0.260235 0.275148 0.029192 254 254 253
0.334472 0.272020 0.023569 255 255 254
0.169777 0.269459 0.016776 254 253 253
-0.098614 -0.241865 -0.030202 106 131 175
-0.081266 0.236316 0.045810 106 139 200
-0.100652 0.125079 0.037592 106 138 196
-0.065028 -0.278813 0.020566 254 255 255
-0.081925 -0.032962 0.010577 109 148 222
0.345443 -0.280608 0.019704 253 255 253
-0.097049 0.257823 0.006485 108 139 199
-0.090834 0.137846 -0.092973 107 138 194
0.268264 -0.284346 0.068481 254 255 254
-0.082751 -0.243994 0.003283 125 128 130
-0.086209 -0.231092 0.053376 122 130 147
0.071983 0.272127 0.065826 254 254 255
0.135316 0.269027 0.051505 254 255 254
-0.106113 -0.255414 0.013088 107 139 193
0.350835 0.274547 0.042104 254 253 253
-0.082194 0.215323 0.038290 124 130 134
-0.101230 0.213215 -0.079369 103 134 188
-0.102013 -0.260597 -0.017244 106 148 222
-0.102602 0.268213 0.027219 127 132 134
-0.095331 -0.266887 0.034999 124 132 136
0.312005 -0.284685 0.038615 255 255 254
0.361889 0.266594 0.003825 254 254 254
-0.079751 0.172581 0.048122 129 134 135
0.095109 0.281913 0.038837 253 255 253
0.373746 0.267050 0.020153 255 255 255
-0.100545 0.181652 -0.057288 108 131 171
-0.097673 0.144851 -0.001888 127 131 131
0.151309 -0.282950 0.008083 254 253 253
0.184500 0.269985 0.000036 255 255 253
-0.096829 0.064560 -0.073156 103 134 191
0.311918 -0.274210 0.023678 253 253 254
-0.097629 -0.178346 -0.084113 105 146 219
-0.089699 0.281404 -0.007962 253 254 255
-0.095955 0.182872 -0.032793 103 138 203
0.219113 -0.274773 0.041451 255 254 254
-0.076151 -0.268302 0.026900 253 254 255
0.063005 -0.274215 0.013149 253 253 255
0.351614 0.273761 0.024681 254 255 255
0.203798 0.268371 0.022893 255 254 254
-0.084356 -0.224641 -0.061475 128 130 131
-0.084672 -0.251927 0.003573 135 140 143
-0.093215 0.084711 0.021105 110 129 162
0.148728 -0.284501 0.034479 255 255 255
-0.013496 0.285915 0.051064 255 255 254
0.011317 -0.282991 0.028571 253 254 254
-0.097090 -0.154941 -0.001528 105 136 197
-0.101299 0.263774 -0.010524 108 141 197
0.322536 0.266490 0.017190 255 255 255
-0.010715 0.275207 0.031018 252 253 254
0.115029 -0.283714 0.002018 253 254 255
0.348616 0.272872 0.012069 253 253 253
-0.080061 -0.113638 -0.059850 105 135 190
-0.069272 -0.278975 0.038201 255 255 255
0.370363 0.262644 0.064461 254 253 253
-0.099366 0.259312 0.008497 130 133 132
-0.081367 0.179564 0.040582 103 139 206
0.003722 0.283716 0.068224 255 253 253
0.116843 -0.283360 0.003608 255 254 253
-0.097481 0.212546 -0.018717 129 131 130
-0.083204 0.110000 -0.077626 103 133 188
0.015412 -0.272465 0.048829 253 255 253
-0.083287 0.270904 -0.042544 125 127 131
0.015127 0.288192 0.045306 254 253 254
-0.080703 0.105931 -0.010678 125 132 135
-0.081113 0.134148 -0.042701 125 127 129
-0.019968 0.286955 0.034389 253 254 252
0.022408 -0.272693 0.001969 253 254 255
-0.082872 0.092344 -0.012639 105 139 206
0.006996 -0.282233 0.048566 255 253 254
-0.080194 -0.101956 0.027800 106 142 206
-0.064712 -0.269845 -0.031037 255 255 252
-0.097746 -0.153791 0.009305 131 129 130
-0.082251 -0.055297 -0.052939 103 138 198
-0.099165 0.155663 -0.093854 106 136 187
0.051819 -0.274213 0.058118 253 255 255
-0.100336 -0.102222 -0.038896 106 132 180
0.057993 -0.272745 0.010628 253 253 252
-0.102131 -0.099574 -0.011150 125 128 129
0.027092 -0.272335 0.056244 254 254 254
-0.104296 -0.247015 -0.011548 124 128 131
0.020924 0.281144 0.036274 254 254 253
0.009725 -0.282765 -0.021452 253 255 254
-0.048180 0.278919 0.041819 255 255 254
-0.077504 -0.114773 -0.041948 111 130 160
0.164039 -0.286155 0.062808 254 253 254
0.084006 0.271706 0.063897 255 255 254
-0.102056 -0.266152 -0.006063 106 138 197
0.099392 -0.272892 -0.006683 254 254 254
-0.045051 -0.282233 -0.017848 255 255 254
-0.084143 0.250344 -0.052355 105 144 213
0.320323 -0.280656 0.015384 253 253 253
0.129803 -0.274446 0.039602 252 255 255
-0.081171 -0.245917 -0.061730 106 133 180
0.405282 -0.277547 0.032048 254 255 255
-0.096253 -0.066824 -0.075899 108 147 218
-0.077633 -0.177773 0.032591 130 129 131
-0.100167 0.095901 -0.093008 130 131 133
-0.084295 -0.104688 -0.094667 127 132 133
-0.091970 -0.072146 -0.019491 107 145 215
-0.074136 -0.071599 -0.065203 105 138 200
-0.083505 0.287062 0.057593 255 254 255
