ply
format ascii 1.0
element vertex 1185
property float x
property float y
property float z
property uchar red
property uchar green
property uchar blue
end_header
-0.095857 -0.136428 -0.084221 122 122 121
-0.054440 0.273738 0.053719 252 254 252
-0.097745 -0.190384 -0.085002 106 126 160
-0.046539 0.283310 -0.007914 251 251 250
0.155552 0.202723 0.059017 251 253 252
-0.073292 -0.176256 0.027014 101 142 219
-0.095944 -0.244268 -0.003519 103 134 185
-0.094753 -0.225618 0.005199 99 137 208
-0.095304 0.196935 0.034929 98 129 191
0.255656 -0.190495 0.053811 252 252 252
-0.095426 -0.183528 -0.011300 115 124 131
0.106749 -0.226681 0.025803 252 253 254
0.003651 0.256377 0.029105 253 253 253
-0.075853 0.286904 -0.008001 117 131 156
0.114384 0.232726 0.046363 253 252 252
0.105331 0.234360 0.033708 251 252 251
-0.005565 0.263142 0.035085 251 251 251
0.367896 -0.152520 0.051809 254 255 254
0.171907 -0.217525 0.039263 253 254 253
0.141143 0.221626 0.057834 252 252 252
0.201721 -0.200919 -0.010122 251 252 253
-0.017743 -0.260672 0.022802 252 253 253
-0.101197 0.058344 -0.056537 119 125 125
-0.103350 0.098796 -0.006948 100 129 183
0.328157 -0.155959 0.032783 255 255 254
-0.076677 0.261190 0.042145 113 116 119
-0.077846 0.220834 -0.038681 100 139 214
-0.039021 -0.276466 0.056253 253 253 254
-0.068349 0.291644 0.018368 251 252 252
-0.065650 -0.281271 0.020241 250 250 250
0.306499 0.155870 0.011900 254 254 254
0.106453 0.223001 0.020789 253 253 253
0.029720 0.254967 0.060474 200 202 203
0.368298 0.133712 0.020736 251 252 253
-0.100486 0.135197 0.017657 99 138 209
-0.013372 -0.259161 0.020443 251 252 252
0.356476 -0.146953 0.004164 252 253 254
-0.072898 -0.271659 0.011598 253 254 252
-0.079608 -0.114043 0.007968 102 143 219
0.207397 0.184292 0.050235 254 255 253
0.323873 0.137837 0.047758 252 253 252
-0.083223 0.090353 -0.078262 95 128 193
-0.096873 0.216807 0.010879 96 129 194
0.117471 0.232623 -0.013348 254 254 254
0.230346 0.189979 0.002653 252 253 252
-0.012567 -0.269007 0.032950 252 253 254
-0.080687 0.111410 0.011620 102 132 194
-0.003752 -0.255848 -0.016414 252 252 252
0.198650 -0.200204 0.058859 251 252 254
-0.072849 0.218834 0.038178 120 124 124
-0.016390 -0.263992 0.056195 253 252 254
0.347405 -0.158283 0.017794 251 253 253
0.286822 -0.177819 0.030679 252 253 251
-0.086908 -0.276804 -0.035623 119 122 124
-0.057567 -0.266561 0.062429 252 252 252
-0.089273 0.191138 0.054741 121 128 137
-0.087867 0.201474 -0.079644 119 124 126
-0.096930 0.179707 -0.044107 101 142 218
-0.073744 -0.194708 0.045129 104 108 111
0.358656 -0.149350 -0.003762 254 254 254
-0.081596 0.081412 -0.084040 105 147 223
-0.095224 0.199146 0.042074 100 132 196
-0.068755 0.269848 -0.014359 125 130 132
0.145811 -0.215998 0.032961 252 253 252
0.002857 -0.265397 -0.010983 251 252 252
-0.082117 0.251470 0.058368 175 178 178
-0.009679 0.272853 -0.011925 254 253 253
0.041132 0.258983 0.015223 253 253 252
-0.077706 -0.059782 -0.033723 119 121 120
0.310303 -0.166794 0.002336 253 255 255
0.171816 0.209549 0.029958 251 252 252
0.067169 -0.245555 -0.016011 250 252 251
-0.081161 0.093204 -0.080043 132 136 135
-0.021933 0.267475 0.064774 252 252 253
-0.078845 -0.091435 0.014009 98 125 175
-0.075202 0.240363 0.003251 98 139 213
-0.081434 0.130299 -0.043443 99 136 204
0.175448 0.197370 -0.006890 252 254 253
-0.076210 0.235711 -0.052157 98 132 193
0.165036 0.212380 0.033922 253 253 253
0.111077 -0.234925 0.018481 205 208 208
0.172599 0.209102 0.038509 252 253 251
0.155291 -0.222114 0.039152 251 253 252
0.362798 0.126648 0.055479 254 253 254
0.268556 -0.185472 0.007990 251 252 252
-0.074572 -0.055872 -0.027298 120 120 125
0.200821 0.187369 0.043494 252 253 252
-0.098355 0.081447 -0.061342 101 136 202
-0.096651 -0.079441 -0.042916 100 136 203
-0.085517 -0.229073 -0.072238 102 136 201
-0.093507 -0.222453 0.024622 98 137 207
-0.004245 -0.255216 0.064374 253 253 254
0.281641 0.166515 0.030424 253 253 253
0.045528 0.255987 0.018618 253 254 253
0.053718 0.253409 -0.020422 253 253 252
-0.097894 -0.089083 -0.080534 105 133 185
-0.055275 -0.276950 -0.016672 246 247 248
-0.094241 -0.248444 -0.063818 104 141 208
-0.096566 -0.087147 -0.070269 129 134 134
0.225185 -0.198237 -0.003758 253 252 252
0.088134 -0.229123 0.053679 251 252 253
-0.096207 0.191253 -0.057279 101 143 219
0.115576 -0.225254 0.008346 252 254 253
-0.078690 0.111141 0.010985 108 110 118
-0.088071 0.042568 0.027997 197 200 196
0.284500 -0.171078 0.001241 254 254 254
0.262798 0.175906 0.022880 251 251 252
-0.100295 0.056502 -0.063595 102 141 212
0.294787 -0.177733 -0.000816 253 254 254
-0.070760 -0.250465 -0.066189 106 135 184
-0.075933 -0.133487 -0.023308 103 134 189
0.008379 -0.264337 0.050550 252 253 251
-0.096544 -0.091328 -0.075183 110 111 113
-0.097571 -0.088952 -0.013142 103 142 217
-0.081143 -0.086312 -0.083632 105 124 149
-0.080354 -0.048755 -0.015320 99 118 151
-0.097038 -0.057259 -0.034214 101 131 189
0.287323 0.164900 0.011967 252 254 253
-0.078318 0.203039 -0.041508 97 133 198
-0.097830 0.182676 -0.079977 118 126 134
-0.027853 0.279063 0.010975 253 254 252
-0.097585 -0.116789 -0.079430 105 144 218
0.034848 0.259628 0.018687 252 252 252
-0.077227 0.108214 0.040623 118 118 121
0.084178 0.230470 0.052742 254 254 252
0.051082 -0.253831 0.022387 253 253 252
-0.097522 0.204269 -0.017848 108 112 116
0.269902 0.163959 0.000089 252 252 253
-0.101743 0.090718 -0.082939 104 132 184
-0.065614 0.270290 -0.005969 253 253 254
-0.070819 0.268146 0.028555 100 112 132
-0.097258 -0.081442 -0.080117 98 120 162
-0.034565 -0.276390 0.000197 251 252 251
0.155101 0.218109 0.003630 252 253 251
-0.096703 0.092399 -0.086329 111 114 115
-0.092415 -0.135177 -0.089097 120 108 112
-0.097819 -0.143837 -0.054265 98 127 180
-0.081142 0.033246 -0.044761 99 136 197
-0.074289 -0.226154 -0.045343 99 122 162
-0.072965 -0.252840 0.034334 103 146 224
-0.096563 0.245726 -0.008882 103 144 220
0.049395 0.254500 -0.008324 249 251 250
-0.072187 0.250940 0.038817 101 113 136
-0.093192 0.255871 -0.051042 103 143 217
0.303870 -0.165924 -0.002880 252 254 253
0.189626 0.203229 0.024807 254 255 254
-0.028937 -0.257835 0.057407 251 251 250
0.159089 0.213187 0.044817 252 254 252
0.026750 0.260023 -0.018088 252 252 253
-0.067383 0.272596 -0.010230 253 254 254
0.027267 0.258530 0.020201 252 253 252
-0.081887 0.029676 0.005596 96 130 193
0.059088 -0.250184 -0.016563 253 253 254
-0.076522 0.157011 0.039706 114 121 132
0.322345 -0.167232 0.033352 252 253 253
0.239882 -0.194828 -0.001535 254 254 254
-0.096969 0.219090 0.012988 99 127 179
0.293628 0.163234 0.002131 253 254 253
-0.095644 0.108096 -0.092183 117 140 175
-0.071777 -0.169068 0.043896 98 136 208
0.365898 0.123544 0.010971 253 254 253
0.317993 -0.159003 -0.001914 252 253 253
-0.073211 -0.105975 -0.081254 113 114 117
0.353965 0.130272 0.000799 253 253 254
-0.073210 -0.237153 0.045680 101 140 210
-0.099566 -0.071596 -0.005663 98 131 196
-0.026012 -0.261726 0.006829 252 254 253
0.033471 -0.250283 -0.024503 253 254 252
-0.096270 -0.158250 -0.052215 120 123 123
-0.098152 -0.080753 -0.005711 93 124 186
0.313264 -0.161425 0.052355 254 254 252
0.027005 -0.248572 0.023880 251 252 251
-0.096109 -0.224161 -0.036103 101 140 212
-0.092248 -0.258416 0.032267 127 135 143
-0.093275 -0.131099 0.044812 100 116 147
-0.081364 0.142366 -0.080181 104 136 198
-0.098490 -0.157980 -0.065452 97 116 153
-0.093207 -0.217041 0.044818 99 131 191
0.064601 0.241558 -0.017002 253 253 252
0.100323 -0.229133 -0.001374 205 208 206
-0.083766 0.277621 -0.044573 105 109 111
-0.094559 0.273951 -0.028187 105 136 189
-0.073800 -0.269942 0.027121 252 252 251
-0.074052 -0.181390 0.010291 130 135 138
0.201634 -0.198414 0.015749 252 252 251
-0.076027 -0.163457 -0.070715 102 140 211
-0.084659 0.187092 0.052671 114 119 129
0.402578 -0.134572 0.022816 252 253 252
-0.080887 0.037714 0.024470 101 137 203
-0.093338 0.240282 0.011298 98 126 179
-0.092294 -0.090431 0.035231 99 133 200
-0.077491 -0.276117 0.063735 251 253 253
-0.026697 0.280956 0.058210 250 251 250
-0.100818 0.107734 0.034709 110 116 118
-0.018927 0.277150 -0.023579 252 252 253
-0.055872 0.272721 -0.007754 253 253 253
0.002216 -0.260544 -0.001809 199 201 200
-0.083443 -0.200104 -0.078308 124 128 127
-0.100371 -0.063536 0.008570 91 117 173
-0.094511 0.179775 -0.083559 121 125 128
0.159961 0.201860 0.047553 253 254 252
-0.074891 -0.164795 0.031522 119 124 132
0.145678 -0.215665 0.019597 252 254 253
-0.078233 0.168265 0.029418 109 128 166
0.240256 -0.194379 0.000559 251 254 252
-0.071353 -0.182348 0.046342 109 111 115
-0.073137 -0.236907 -0.005485 114 116 117
-0.057000 0.271565 0.009498 250 251 251
0.188929 0.202353 0.048395 252 254 252
-0.085079 0.036573 -0.040847 98 125 179
-0.079579 -0.070859 0.011982 101 141 213
0.236184 -0.196604 0.047071 253 254 254
0.394853 -0.137223 0.005568 252 254 254
-0.071643 -0.267206 0.009397 109 121 135
-0.077004 -0.123325 -0.029428 102 135 199
0.086820 0.230104 0.029188 252 254 254
-0.076853 -0.111137 -0.083172 103 124 162
-0.097363 -0.169494 0.033687 110 115 123
0.323036 -0.158241 0.023674 251 253 253
-0.075817 0.227000 -0.071650 111 113 116
-0.101228 0.102518 -0.045254 96 120 164
-0.080590 0.044845 -0.053626 123 128 129
-0.092972 0.232769 0.011073 97 134 207
0.293666 0.151103 0.010397 253 253 254
0.393428 -0.141087 -0.003555 250 251 251
-0.097958 -0.108140 -0.079213 123 124 124
-0.100682 0.128114 -0.073256 114 117 117
-0.098715 0.090662 -0.060609 100 140 210
-0.049286 -0.263901 0.039318 251 252 252
-0.016082 0.272426 0.063670 251 251 251
0.015493 -0.262406 0.045878 251 253 252
0.093188 -0.240494 0.059960 252 254 253
-0.073323 -0.197682 -0.068410 108 150 226
0.122210 -0.223647 0.033122 253 253 253
0.265531 -0.177949 0.004460 250 251 251
-0.078373 0.244360 0.042586 97 124 172
0.294339 0.157668 0.056148 254 254 254
0.325198 0.146363 0.055922 253 253 253
-0.075588 -0.177959 -0.032965 112 125 144
-0.100301 0.086510 -0.035038 103 139 207
-0.080254 0.077058 0.028787 97 137 211
0.032421 0.260315 -0.005108 252 253 252
-0.058126 0.271394 0.037655 251 252 251
-0.003896 0.263785 0.063602 250 250 250
-0.087745 -0.263937 0.041199 113 115 119
-0.080439 0.094704 0.028112 106 113 120
0.186471 -0.212813 0.049798 254 255 254
0.314175 0.149780 -0.002278 253 253 254
0.340165 -0.153156 -0.005221 254 253 253
-0.084234 0.166929 0.047932 113 113 119
-0.097208 -0.142738 -0.082754 117 121 120
-0.071656 0.267613 -0.015742 105 109 111
-0.081379 0.040903 0.012102 113 119 120
0.067902 0.249363 0.000928 252 251 251
0.216833 -0.197652 0.057882 254 254 254
-0.095734 -0.175024 -0.049939 119 126 124
-0.078466 -0.124511 -0.044445 101 136 203
0.166057 0.211440 0.031328 253 254 254
-0.062670 0.289654 0.043944 251 253 252
-0.087728 -0.259675 -0.062190 102 141 214
-0.049175 0.283105 0.009904 252 252 252
0.266532 -0.186794 0.056639 254 254 255
-0.079635 0.113931 -0.055344 111 123 144
0.141712 -0.225978 -0.001244 253 253 252
-0.078406 0.152521 0.010414 101 112 131
0.122931 -0.232416 0.029202 252 254 251
-0.096622 -0.161857 -0.041121 104 147 229
0.258818 0.165194 0.057195 252 254 252
-0.074385 -0.269586 -0.012184 249 251 250
0.037043 0.246509 0.026380 252 253 251
-0.079897 0.172607 -0.071223 99 135 205
-0.097825 -0.149501 0.044850 96 124 178
-0.079452 -0.046078 0.011835 102 135 193
-0.069342 0.273399 0.005388 251 251 251
0.219885 -0.195989 -0.009892 253 255 254
0.231446 0.185505 0.014380 254 254 253
-0.081303 0.131424 -0.082125 102 134 194
0.384005 -0.138309 -0.008584 253 253 253
-0.072051 0.257343 -0.065434 98 129 185
0.364092 0.124850 0.013460 251 253 251
0.006053 0.269287 -0.021567 250 251 250
-0.029810 -0.259193 0.055877 253 254 253
-0.077798 0.143776 -0.089281 104 119 140
-0.098962 -0.091631 -0.023922 95 120 171
0.062463 0.251254 -0.019108 253 253 251
0.251344 0.179075 0.056204 253 253 253
0.054104 -0.242789 -0.023097 252 253 253
-0.072318 -0.261939 0.027023 96 118 162
-0.054896 0.272013 0.030795 253 253 254
-0.062830 -0.279665 0.033022 253 254 252
0.321927 -0.157661 0.046805 251 253 253
-0.098555 0.028060 -0.006415 120 126 133
-0.078266 -0.275783 0.005452 251 253 253
-0.074358 -0.254556 0.006471 99 139 215
-0.073044 -0.253920 0.038354 99 122 165
-0.098894 -0.067826 -0.062228 102 143 220
-0.094542 -0.225649 -0.070174 100 121 161
-0.077184 0.218014 0.049196 101 142 214
-0.081945 0.240695 0.057343 114 124 130
-0.077162 -0.146878 -0.060803 108 136 185
-0.032185 0.267195 0.058394 252 254 252
-0.086391 -0.238543 -0.071198 111 119 123
0.022414 -0.262251 0.059151 253 253 251
-0.079892 -0.110132 -0.015029 97 137 207
0.397176 -0.144671 0.040005 251 252 254
-0.073709 -0.258433 -0.017714 101 144 223
-0.073546 -0.106097 -0.076987 106 110 113
-0.096654 -0.057261 -0.049954 102 128 171
0.050033 0.242858 0.023553 252 254 254
-0.092247 -0.259328 0.040884 103 136 197
0.005685 -0.262114 0.026281 251 252 251
-0.099331 0.134017 0.010273 101 136 202
0.311484 0.154589 0.006577 252 253 253
-0.071668 0.235775 0.026303 121 124 125
-0.092816 -0.238459 -0.044751 99 133 194
-0.077572 -0.109280 -0.022815 103 128 172
-0.096498 -0.053528 -0.017938 101 143 218
-0.098414 -0.164089 0.038325 100 138 208
0.136142 0.222459 0.036706 253 253 252
-0.079542 -0.051859 -0.018525 101 143 216
-0.071518 -0.220714 0.057573 111 147 207
-0.074725 0.242156 -0.017116 103 139 206
0.328235 0.147885 0.053075 253 254 252
0.113307 -0.225281 0.032506 252 254 253
0.333190 0.135689 0.013937 252 254 253
-0.099080 -0.056232 0.006823 112 117 117
-0.098610 0.200877 0.044432 96 120 165
0.180931 0.196225 0.010867 252 252 252
-0.077534 -0.151694 0.017695 99 142 215
0.200142 -0.199680 0.054099 252 253 253
-0.097687 -0.106250 -0.077522 98 135 203
0.150277 0.209249 -0.009548 252 252 252
-0.099096 -0.076417 0.027762 100 127 176
0.240200 0.171497 0.011899 253 252 253
0.042568 -0.244345 0.060515 251 253 254
-0.079160 0.210623 0.053599 119 121 123
-0.080107 0.138392 0.036179 96 129 187
-0.071452 -0.252480 -0.028693 100 145 222
0.177392 0.196109 0.046319 253 254 253
-0.097388 -0.066298 -0.062245 101 132 190
-0.084482 0.163003 0.049084 101 136 203
-0.076366 -0.153391 -0.004234 102 139 209
0.276354 -0.182909 0.010585 253 253 253
-0.095474 0.226742 0.009882 110 115 117
-0.089084 -0.267776 0.024710 96 122 171
0.388963 -0.136356 0.003513 253 252 253
-0.103656 0.131920 -0.088554 114 99 102
-0.078623 0.282090 -0.001842 250 250 251
0.002077 0.256659 0.028326 253 253 252
0.065479 0.249057 0.050926 249 250 250
0.163814 0.206134 0.060616 252 253 252
-0.084817 0.224361 0.053648 111 113 115
0.052420 -0.242474 0.009780 250 251 251
-0.092196 0.256598 -0.047324 105 139 197
0.064999 -0.248452 -0.021772 252 253 252
0.013773 -0.252685 0.023402 253 253 252
0.008637 -0.263269 0.005636 254 255 254
0.411979 -0.127748 0.011109 252 254 252
-0.020362 0.277199 0.054222 250 251 251
-0.094658 -0.139851 0.045703 93 117 170
0.342713 -0.160081 0.042833 253 252 252
-0.092028 -0.249057 -0.025535 103 131 179
0.156165 -0.211347 -0.008228 253 253 253
-0.092995 -0.199357 0.054483 101 137 202
0.019296 -0.263139 0.042669 250 251 251
0.321996 0.148759 0.055787 254 254 253
-0.099373 0.144559 -0.082585 120 128 136
0.346902 -0.150186 0.051346 251 253 254
-0.104782 0.049254 -0.062201 95 117 168
0.290397 -0.177560 0.053147 253 254 253
-0.092528 0.240319 -0.049896 122 124 127
-0.079094 -0.279325 0.059719 250 251 250
-0.097652 0.176126 0.006767 101 142 219
-0.079915 -0.273255 0.061388 253 253 251
-0.099270 0.037871 -0.019937 120 127 128
-0.089611 0.121956 -0.086852 128 132 132
-0.096349 -0.155775 -0.046935 100 140 213
-0.095584 0.192662 0.012892 97 127 186
0.217319 0.183080 0.058562 252 252 252
-0.098925 -0.068009 -0.019686 120 122 124
-0.086252 0.047979 0.028817 122 132 149
-0.059745 -0.268767 -0.022169 253 254 254
-0.088686 0.278292 -0.011083 97 127 185
0.092278 -0.232340 0.029572 252 254 254
0.405212 -0.140501 0.038676 255 255 254
-0.063835 -0.279597 0.054097 252 252 252
-0.081483 0.090007 -0.066966 118 122 124
-0.071268 -0.268982 0.021810 119 129 138
-0.101021 0.131957 -0.036540 102 140 213
0.226417 -0.197019 0.047962 254 255 252
-0.070840 0.256093 -0.007254 102 135 195
0.176828 -0.206763 0.056338 253 253 252
-0.085309 0.240820 -0.074825 101 124 161
0.348146 -0.158982 -0.004625 251 253 252
-0.091766 -0.180471 -0.084255 96 129 191
-0.094512 0.190862 0.053094 123 128 133
-0.043518 0.282111 -0.010009 252 252 252
-0.084830 -0.164179 -0.087363 117 121 130
0.376608 -0.141161 0.055805 248 249 249
0.329006 -0.163929 0.053568 253 253 253
-0.081103 -0.283832 -0.013158 115 122 124
-0.078049 0.173445 -0.016769 102 113 133
-0.078660 0.083422 0.015354 95 124 180
-0.044934 0.282516 0.046298 252 252 251
-0.094256 -0.241594 0.043173 99 122 168
-0.098853 -0.142226 -0.000192 95 127 184
0.247129 -0.189583 0.060481 253 253 253
0.219532 -0.192692 0.046477 253 254 252
-0.079791 -0.249217 -0.066794 99 122 168
0.282820 0.154928 0.047598 253 252 253
0.066334 -0.250516 0.045256 252 254 253
-0.071004 -0.267481 0.046100 252 253 252
-0.073372 0.236773 0.019984 106 118 140
0.119803 -0.234321 0.033079 252 254 252
-0.100925 0.074980 0.029437 99 119 158
-0.091072 -0.243032 -0.072219 121 123 124
-0.028619 0.265732 0.023985 251 252 253
-0.079719 -0.110622 -0.053256 106 145 217
-0.093367 -0.248232 -0.039349 100 128 179
-0.101098 0.157436 -0.059800 96 126 182
0.327707 0.136984 0.027654 254 255 254
0.125214 0.228356 0.009420 253 252 253
0.356597 0.125749 0.039071 253 252 253
-0.090774 0.250156 0.027252 113 120 120
0.046354 -0.244472 0.015769 251 254 252
-0.069886 0.251213 0.015941 99 136 206
-0.076147 -0.280851 0.045946 251 254 253
0.036864 -0.247026 0.056508 252 253 252
-0.088060 0.217374 0.058401 121 123 127
-0.095247 -0.215154 0.001954 99 137 204
0.188032 0.192586 0.026939 254 255 254
-0.070909 -0.218345 -0.074591 102 144 223
0.006226 0.271644 0.037297 253 252 253
-0.094958 0.248948 -0.019956 98 123 167
-0.074071 0.219665 0.023788 97 123 170
-0.072988 0.255952 -0.011512 99 131 192
0.066457 0.240685 0.060176 252 252 252
-0.097805 0.156290 0.003638 101 136 201
-0.066580 0.271097 0.053000 250 251 250
-0.094799 0.027186 -0.008587 103 133 186
-0.096389 0.166111 0.044000 117 119 122
-0.029460 -0.263297 -0.015904 250 251 250
-0.023869 0.268086 -0.019585 253 253 253
0.232138 0.187982 0.015717 251 253 253
-0.030666 -0.261762 0.011714 251 252 252
-0.079000 -0.074115 0.020709 98 141 212
0.318282 -0.160399 0.022155 253 254 254
0.205180 0.196957 0.001492 251 252 252
-0.081548 0.044232 0.025345 102 132 185
-0.000080 0.267759 0.052255 251 252 252
0.178681 0.207218 0.021731 253 253 254
0.035550 -0.252807 0.054220 253 253 253
-0.074440 0.244885 -0.020201 101 144 221
-0.077587 0.201731 -0.017472 92 117 168
-0.097035 -0.081661 -0.064706 101 123 165
0.121893 0.222030 -0.013993 252 252 251
0.090007 -0.243845 0.055495 250 250 250
-0.086479 0.277562 -0.001272 122 125 126
-0.020682 -0.272366 0.014013 252 254 252
0.011804 0.270594 0.020297 250 251 250
-0.071940 0.274347 -0.020614 141 147 151
-0.082253 -0.118507 -0.085281 103 137 200
-0.082941 0.107964 -0.084932 97 124 172
-0.100716 0.041903 -0.053426 121 128 131
-0.078962 -0.105155 0.034434 114 122 123
-0.097074 -0.078566 -0.067916 101 143 220
0.153379 0.204359 0.013287 253 253 254
-0.073308 0.221731 -0.008798 102 141 212
0.258581 0.166091 0.057121 252 254 254
0.134259 0.215354 0.016850 253 254 253
-0.096236 -0.125718 -0.079732 103 142 210
-0.097362 -0.087074 -0.033217 97 120 161
0.058740 0.252446 -0.004535 250 251 250
0.040053 -0.248234 0.052068 250 251 253
-0.079315 0.157658 0.007924 93 127 196
0.144376 0.221726 0.031012 252 252 252
-0.094501 0.030178 -0.018427 102 139 212
0.310168 0.144216 0.041578 252 254 253
0.077946 -0.246081 0.042586 252 253 252
0.279915 -0.181057 0.008934 253 254 254
-0.099132 0.064920 -0.051002 100 137 206
-0.073853 -0.246884 0.036059 98 136 199
-0.072590 -0.271632 0.023137 252 253 253
-0.080859 0.080014 0.038513 112 113 115
-0.098821 -0.086945 -0.009598 101 138 203
-0.075909 -0.132781 0.039491 96 133 199
0.240997 -0.194942 0.022202 252 252 252
-0.078945 0.284322 -0.012729 251 252 250
0.104622 0.222432 -0.003243 252 254 252
-0.098982 0.128728 -0.056873 102 137 202
-0.053354 -0.270872 0.056285 254 254 254
-0.076182 -0.193418 -0.046648 100 145 224
0.407900 -0.141196 0.043976 253 253 252
-0.096771 -0.188032 -0.082180 116 115 117
0.332517 -0.154290 0.038337 253 254 252
0.238833 -0.194827 0.002623 254 254 254
-0.079363 0.099878 0.027205 114 120 122
-0.045135 0.272564 -0.021772 253 254 252
-0.079350 -0.099244 0.012076 101 134 193
-0.072064 -0.190883 -0.001623 102 127 179
-0.070247 -0.205661 -0.015502 124 126 126
0.064435 -0.246833 -0.021872 252 254 253
-0.098932 -0.041189 0.005257 115 122 125
0.040155 0.246464 -0.009217 251 252 253
-0.094834 -0.241451 0.007615 101 136 205
-0.098412 -0.122028 -0.022336 102 140 207
0.355791 0.126624 0.047071 251 251 251
-0.070377 0.274147 0.012628 102 140 209
0.142899 -0.216468 0.001691 253 253 253
-0.046282 -0.263079 0.047378 253 254 254
0.109633 -0.236220 -0.013561 252 252 254
-0.080242 0.143073 0.012648 97 136 206
0.126622 -0.230930 -0.016841 254 255 254
0.322112 0.150436 0.055437 255 254 255
-0.088015 0.088655 0.038165 102 140 213
-0.069650 0.274945 -0.025604 107 115 119
-0.097669 0.174859 -0.060978 101 126 169
0.254741 0.178357 0.009187 254 254 254
-0.090903 0.125990 0.041921 116 123 135
0.017153 0.267242 -0.002869 253 253 251
0.007911 -0.265285 -0.014542 253 253 253
0.145063 -0.225035 0.048290 253 255 253
0.017614 -0.261623 0.046341 252 253 251
0.124961 -0.224613 -0.014760 253 255 254
-0.098005 -0.073785 -0.008626 100 132 195
-0.083269 0.125315 -0.090468 120 127 137
-0.063361 0.273238 -0.013755 202 202 201
-0.080035 0.276802 0.060203 253 253 252
-0.070723 0.272123 -0.041125 103 145 220
0.312603 -0.168057 -0.005577 251 253 252
-0.097464 0.022787 0.017532 125 131 136
0.300682 0.159791 0.021503 253 253 252
-0.072616 -0.269168 0.001473 115 154 228
-0.077627 -0.096000 -0.081283 94 117 164
0.292573 0.150665 0.051477 254 253 253
0.071598 -0.240755 0.050010 252 253 253
-0.077412 -0.157876 -0.078312 117 141 175
0.238916 0.183882 0.002090 249 251 250
0.028533 0.261808 0.052155 252 253 253
-0.012712 0.261996 0.032753 253 254 253
0.250065 0.178888 0.032882 254 253 252
-0.092555 -0.269940 0.003572 119 121 124
0.296538 -0.167118 0.043863 251 252 251
-0.077108 0.231739 -0.037561 98 138 207
-0.074864 0.251838 -0.048504 118 122 122
0.202678 0.185484 0.054860 253 254 252
-0.077291 -0.144133 -0.087286 105 130 175
-0.004296 -0.268548 -0.020039 252 252 254
-0.076778 -0.172675 -0.018396 98 126 176
-0.049778 0.285239 -0.019183 251 251 251
-0.025323 -0.258837 0.037990 250 251 250
-0.093997 -0.187254 -0.055784 104 144 217
0.295481 0.150636 0.003484 252 254 253
-0.098548 -0.145352 -0.079330 97 131 196
-0.073909 0.278175 0.024885 118 130 148
-0.006792 0.273020 0.046527 253 254 253
-0.068806 0.164735 0.055972 190 195 191
0.219180 -0.203586 0.045747 253 254 255
-0.081463 -0.051028 0.016679 100 143 217
-0.077438 0.120626 0.030070 110 112 113
0.159467 0.203404 0.026257 253 254 252
-0.004013 -0.257274 0.002922 251 252 252
0.311742 0.154090 0.017769 252 252 252
0.265460 0.160807 0.046338 254 255 255
-0.074754 -0.212288 0.000609 100 136 197
-0.074172 -0.232807 -0.029326 118 112 115
-0.098459 -0.165112 0.018013 99 139 210
0.390388 -0.145106 0.050223 253 254 254
-0.094143 -0.262396 0.002924 119 125 129
0.348971 0.139281 0.041287 253 255 253
0.048583 0.253926 -0.009865 252 254 252
-0.091550 -0.133255 -0.088482 100 130 183
-0.067588 0.285949 0.012847 251 252 252
0.156326 0.213228 0.021714 211 212 211
0.015655 0.252260 -0.011999 252 253 253
0.083247 0.227195 0.025769 254 254 255
0.136147 -0.227887 0.022535 252 254 253
0.331417 -0.155113 0.018275 254 254 253
-0.039324 -0.260134 0.019292 249 249 249
-0.083714 0.256824 -0.060450 101 141 214
-0.080667 0.187179 0.051009 107 109 113
0.025684 0.262442 -0.010458 251 251 252
-0.075862 0.248045 -0.032205 109 120 133
-0.002749 -0.266197 0.031882 251 252 252
-0.037930 -0.273639 0.012705 252 253 252
-0.078226 -0.216268 -0.034139 118 123 125
0.342409 -0.151421 -0.002011 253 252 253
-0.076552 0.225320 -0.016275 104 140 208
0.241253 -0.187289 0.001507 251 252 251
0.211620 -0.204024 0.008317 253 252 252
0.093478 -0.238007 -0.008244 210 212 213
-0.042287 0.275703 0.056796 248 249 249
-0.098322 -0.111446 -0.083960 94 119 170
-0.036104 -0.262670 0.061597 252 253 252
-0.100660 0.098486 -0.032497 94 117 163
0.076482 0.235329 0.036860 252 254 254
0.044316 -0.244878 0.003226 250 251 250
-0.096726 -0.138614 -0.090514 112 118 122
0.227827 0.187865 0.034483 254 253 253
0.078824 -0.235512 0.016330 249 250 250
0.173876 -0.217161 -0.009770 253 254 253
0.318696 0.146673 0.055122 254 253 254
-0.077578 -0.118529 -0.028513 118 128 135
-0.093936 0.205229 0.023070 97 131 188
-0.096933 0.172093 0.031285 100 138 206
-0.073175 -0.235164 -0.068662 92 119 175
-0.089839 0.139388 0.044674 115 119 122
0.134187 0.215981 0.058096 220 223 220
0.231782 0.183803 0.058655 251 252 252
0.161665 0.201165 0.055178 252 253 252
-0.098877 0.194219 -0.077356 106 111 118
0.363682 0.134313 0.043853 253 254 255
0.048141 0.257113 -0.004960 252 252 252
0.125263 0.215615 0.005009 253 253 254
0.141590 -0.224486 -0.013712 253 254 252
0.334531 0.134913 0.016313 251 252 252
0.122445 -0.223484 0.050266 254 253 254
-0.061856 0.271448 0.049485 251 253 251
-0.095417 -0.254857 -0.026062 98 130 191
0.237315 -0.187418 0.057622 252 253 254
-0.080221 -0.281738 -0.014125 109 115 119
-0.081185 -0.044946 0.024136 102 121 155
-0.093130 0.260907 -0.038352 103 97 99
0.261662 0.163321 0.019822 251 252 251
0.308352 0.155478 0.038667 254 254 254
0.205219 -0.206107 0.025396 255 255 255
-0.086325 -0.265061 0.033130 97 124 177
-0.092081 -0.255588 -0.036685 119 126 131
-0.025955 0.274415 -0.018440 203 205 204
-0.081279 -0.275941 0.056247 253 254 254
-0.096292 -0.154958 0.026596 116 127 139
0.236244 0.173411 0.019497 253 253 254
-0.031195 -0.263498 -0.020932 251 252 252
-0.079300 0.232547 0.023068 114 118 128
-0.101532 0.130173 -0.013820 96 117 157
0.013862 0.252820 0.008821 250 251 250
0.101354 -0.229141 0.029171 252 252 252
-0.095062 0.197370 0.025803 96 119 163
-0.096338 -0.175686 -0.035428 104 134 187
-0.069472 -0.222392 -0.059994 100 145 223
-0.088843 -0.056703 0.009820 117 119 122
-0.011670 -0.269735 -0.021391 253 254 252
0.035815 -0.248038 -0.014737 251 251 251
0.336348 -0.150165 0.046938 252 253 251
-0.070898 -0.265771 0.039347 252 252 252
-0.063462 -0.279447 0.021712 254 254 254
0.023442 -0.249190 0.052282 252 252 253
-0.097900 -0.061775 -0.066476 105 129 175
0.068408 -0.251560 0.025388 249 250 250
-0.075284 0.283410 0.009015 253 254 253
-0.022016 -0.261656 -0.018906 253 253 253
0.361537 0.131757 0.000632 253 253 252
0.257779 0.163983 0.011345 252 252 252
-0.092915 -0.264894 -0.031596 108 115 121
-0.076821 0.214745 -0.004749 99 137 204
-0.069917 0.271543 0.009957 253 253 252
-0.073350 -0.208410 0.036698 97 117 154
-0.092848 0.251707 -0.019583 120 120 121
-0.049888 -0.280199 0.009898 253 252 254
-0.100319 -0.070478 -0.053661 101 137 205
-0.094476 -0.244205 -0.020282 104 142 213
-0.080048 0.030005 0.013230 117 118 119
0.157141 0.206600 -0.005428 251 252 253
0.048773 0.249339 0.060521 252 252 253
-0.090135 -0.232074 0.058405 120 122 125
-0.093507 -0.217043 0.036064 101 111 127
-0.090919 0.282760 -0.031223 101 120 160
-0.076784 0.210438 -0.072934 111 117 127
0.152818 -0.213442 0.037685 253 254 253
0.332094 0.135412 0.057473 254 254 253
-0.096330 -0.123193 -0.081894 103 126 164
-0.100033 0.123096 -0.069085 102 143 219
0.255408 0.164807 0.023928 253 254 252
0.232214 0.174543 0.023222 253 254 253
0.380266 0.119198 0.036553 254 255 254
-0.074846 -0.271864 0.022182 97 127 176
0.113180 0.222197 0.028977 252 252 251
-0.077037 0.225051 -0.061624 98 127 176
-0.055161 0.272101 -0.020072 249 250 251
0.268314 -0.180416 0.014743 254 254 254
0.104395 -0.237979 0.019733 250 251 252
-0.072234 -0.248286 -0.021992 101 142 216
-0.076463 -0.098945 0.030385 103 147 224
0.036770 -0.247503 -0.003701 253 252 253
-0.085251 -0.168857 -0.088344 103 135 194
0.358950 0.127891 0.058893 253 254 254
0.023550 0.261285 0.063565 251 253 253
-0.099356 0.032665 -0.038547 112 116 118
-0.060244 -0.266951 -0.009966 251 250 250
-0.049460 -0.278050 0.028404 252 253 253
-0.060498 -0.275265 -0.025444 251 252 251
-0.072219 -0.242110 0.045200 122 129 133
-0.100419 -0.113273 -0.022250 101 142 218
0.263081 0.162842 0.019029 251 252 253
0.036024 -0.246480 -0.018841 251 253 251
-0.085731 0.045259 -0.066854 117 119 122
-0.097120 0.239701 0.026221 112 123 133
-0.003109 -0.266721 -0.008790 252 253 252
-0.101178 -0.123887 -0.000255 102 135 193
-0.078669 0.187171 0.008461 101 137 210
-0.045360 -0.275172 -0.020351 250 251 252
-0.003549 0.272163 0.005120 252 252 252
-0.065961 -0.282240 0.018540 253 254 254
0.413737 -0.134055 0.025532 252 252 253
-0.093916 -0.172066 0.052914 98 137 206
0.189663 0.191964 0.025562 253 254 253
0.012268 0.270091 -0.018128 251 251 252
-0.094635 -0.253218 0.017810 143 148 147
0.406723 -0.131941 0.003977 254 254 253
-0.096072 -0.141171 -0.033266 105 141 204
-0.097402 -0.154799 0.042003 113 114 116
0.111973 0.231727 0.028077 253 255 253
-0.095694 -0.231963 -0.051924 97 120 165
-0.094073 0.039445 -0.051972 115 115 120
-0.013922 -0.266322 0.063306 253 254 254
-0.096025 0.182232 0.044121 117 122 126
0.151717 0.214666 -0.006641 251 253 253
0.327529 0.150424 -0.007204 253 253 252
0.273001 -0.186406 0.044144 253 253 254
0.192059 0.191469 0.022347 251 253 252
0.005415 -0.253333 0.001625 253 254 251
0.064490 0.235800 0.016931 254 254 254
0.235667 0.172293 0.013240 253 254 254
-0.083472 0.083572 -0.064873 100 124 168
-0.074574 0.196978 0.037566 99 130 189
-0.073110 -0.256897 -0.060507 104 145 218
0.374873 0.129978 0.034902 252 253 253
0.266534 -0.177136 0.004396 253 254 253
-0.098838 -0.147229 -0.033312 105 140 205
0.049539 0.255362 0.041204 198 199 197
-0.096830 0.176802 -0.002837 101 132 192
-0.080844 0.039507 0.022830 102 143 220
-0.079534 -0.116484 -0.016500 93 115 163
0.182607 -0.209427 -0.004605 251 252 251
-0.080178 -0.085810 -0.015553 98 136 204
0.152756 0.205477 -0.005879 252 253 253
0.042247 -0.245379 0.038478 253 253 253
-0.071779 0.236753 0.045420 107 113 124
0.373745 -0.139686 0.047887 253 253 253
-0.092984 -0.077638 0.033283 103 113 132
-0.000673 0.260379 0.004927 252 252 252
0.081700 0.243903 0.022405 251 251 251
-0.102278 0.080940 0.033664 116 113 116
-0.051412 0.270030 0.006724 249 251 251
-0.091328 -0.120381 -0.089820 103 141 211
-0.083822 -0.140693 0.045915 102 141 217
-0.073894 -0.225107 -0.056429 118 122 125
-0.039570 0.267578 0.060509 250 251 252
-0.082914 0.117702 -0.033697 96 127 184
-0.074703 -0.231338 -0.009998 113 129 156
-0.077521 0.129021 0.042109 117 123 136
-0.055516 -0.268659 -0.006213 253 253 253
0.054032 -0.252761 0.020933 251 253 253
-0.069996 0.277878 -0.000490 144 151 157
-0.074433 0.212527 0.053275 110 119 140
-0.075417 -0.104882 0.034503 114 118 124
-0.098018 -0.080200 0.003685 100 116 148
-0.096940 0.113066 0.036886 97 127 184
0.080578 0.232736 0.006566 253 254 253
0.174941 0.205607 0.056370 253 252 253
0.115751 0.219557 0.039305 253 253 252
0.083395 -0.233766 0.059367 252 254 254
0.264219 0.173398 0.050566 252 253 254
-0.095046 0.215950 -0.029211 101 130 183
-0.073332 -0.276545 0.014204 107 147 222
-0.095632 -0.200758 -0.025274 97 116 153
0.322741 0.149639 0.010964 253 254 253
0.320001 0.140346 0.004627 253 253 253
-0.036833 -0.267438 -0.011561 253 253 253
0.219131 -0.194116 -0.003503 252 253 252
-0.096491 0.197196 -0.066661 99 129 187
-0.079982 -0.045222 -0.027442 121 126 124
0.163493 0.200091 0.039533 252 252 252
0.241765 -0.187929 0.057289 252 252 253
-0.090969 -0.076660 0.030297 114 127 138
0.133347 -0.228790 0.016534 252 254 253
-0.099563 -0.094762 -0.060282 105 138 197
-0.100241 0.193285 0.011181 96 120 165
-0.084844 0.274339 -0.052892 104 126 164
-0.077014 -0.113507 -0.001181 102 145 224
0.322659 0.138121 0.007548 253 255 254
0.274638 0.169331 0.037524 252 253 254
-0.082217 0.099714 -0.013989 99 135 204
0.169420 0.211678 0.008026 252 253 252
0.272029 0.159915 0.014045 213 217 221
-0.087561 0.033084 -0.051696 108 114 120
-0.068444 0.282915 -0.021157 250 251 250
0.267978 0.171865 0.002577 253 254 252
-0.076282 -0.140059 -0.077103 119 123 126
-0.097840 0.211418 -0.075937 103 134 191
-0.075455 -0.137974 -0.080551 103 147 225
-0.070547 -0.238844 0.024368 125 129 135
0.060596 0.247605 0.033757 253 254 252
0.194585 0.201058 0.017395 253 253 254
0.096871 -0.240602 0.017644 251 253 253
0.053884 0.241882 -0.012918 252 253 253
-0.088123 -0.115697 0.039683 110 108 112
-0.098930 0.182802 -0.082045 123 124 125
0.375220 0.125186 0.012923 252 252 252
0.238201 0.171673 0.018011 253 254 253
0.313201 -0.169650 0.022343 253 255 253
0.309409 0.151315 -0.005022 253 253 252
-0.088879 -0.113343 -0.058720 94 123 179
-0.095767 -0.230555 -0.023256 103 141 211
0.182881 -0.212936 0.037248 254 254 253
0.258836 0.164287 0.032754 251 253 252
-0.089190 0.102636 -0.090167 92 119 174
-0.001274 -0.253066 0.036390 252 253 252
-0.080937 0.137923 0.019110 103 143 215
-0.096240 -0.120104 -0.080339 98 133 199
-0.098119 -0.169569 0.009620 98 132 196
0.046551 -0.249635 0.061111 252 254 253
0.010885 0.268644 -0.005955 252 254 253
0.010465 -0.253768 0.033449 250 251 250
0.139594 0.221398 0.045513 251 252 252
0.020652 0.254424 0.004592 251 252 251
-0.096159 0.250983 -0.005394 100 122 164
-0.093295 0.268430 -0.055180 103 111 112
0.176969 0.206937 0.042579 253 254 252
0.265137 -0.189956 0.008355 253 254 252
-0.067492 0.279549 -0.011950 111 148 214
-0.070445 0.251565 -0.009942 106 130 171
-0.101551 0.097649 0.019102 101 142 218
0.140194 -0.215251 0.020390 252 254 253
0.201025 0.188714 -0.006491 252 252 252
-0.076577 -0.182588 -0.035730 97 128 185
0.130244 0.215687 0.002981 252 253 252
0.057503 -0.241130 0.047907 251 252 252
0.006667 -0.253716 0.002147 251 252 252
0.041857 0.258677 0.025142 202 204 202
0.049999 0.254381 0.052296 252 252 252
0.380014 -0.148611 0.009801 252 253 253
0.065033 -0.238976 -0.013109 252 253 251
-0.011161 0.261376 0.016717 251 252 251
0.017472 -0.261515 -0.024136 251 253 252
0.007669 0.268076 0.062234 252 252 254
-0.097851 0.155578 0.043679 106 110 115
0.139621 0.220348 0.040182 253 252 253
-0.082966 0.038682 -0.022600 98 135 200
0.355173 -0.155217 0.011496 252 254 254
-0.099665 0.129167 0.027026 117 122 128
-0.068419 0.273716 0.005607 251 251 251
0.365075 0.124782 0.021943 252 253 254
-0.079626 -0.032404 0.008839 119 125 126
-0.099298 0.102712 -0.069351 106 134 182
0.036587 0.253194 0.062707 251 252 253
-0.079576 -0.123310 -0.056708 100 138 211
-0.080164 0.176558 -0.082591 97 123 172
-0.073220 -0.181268 -0.021081 114 120 124
-0.013730 -0.256058 0.038447 252 252 252
0.233252 0.182961 0.016620 254 254 253
-0.074833 0.255576 -0.018517 97 131 195
-0.090074 -0.274914 -0.002616 98 136 204
-0.086854 0.237926 0.050949 112 122 132
-0.097023 -0.133913 -0.029926 99 125 174
0.034255 0.246290 0.035914 251 251 251
0.151053 0.209331 0.037405 251 253 253
-0.075731 -0.276474 -0.027611 252 254 253
-0.069167 -0.269795 -0.005396 253 252 253
-0.086706 -0.268400 -0.033396 116 121 122
-0.095911 -0.210629 -0.072230 99 141 213
-0.076743 -0.154076 -0.007201 99 133 197
0.170143 -0.210585 0.033424 252 253 253
-0.093521 -0.240949 0.036227 114 116 126
-0.077472 -0.139819 0.032308 112 120 141
0.002389 0.258376 0.062601 254 254 254
-0.087811 -0.132273 -0.090819 112 118 121
0.322737 -0.165844 0.010627 252 254 254
-0.078178 -0.120568 -0.068986 100 143 219
0.178469 -0.214271 0.041461 253 255 253
0.207067 0.196234 0.036417 252 253 252
-0.082414 0.263431 0.038113 95 129 189
0.159268 0.205160 -0.008264 254 254 252
-0.060842 0.285566 0.031507 251 254 252
-0.071903 -0.239802 0.050007 104 135 190
0.224607 -0.200065 0.041728 254 254 253
-0.094866 0.055140 0.031903 121 128 133
-0.098220 0.174225 -0.077922 98 133 201
-0.099862 0.040951 -0.020195 114 122 119
0.098732 0.237502 0.022060 251 252 251
-0.025462 -0.270476 -0.012633 252 252 252
0.004370 0.269753 0.059618 253 254 252
0.157568 -0.212091 0.045301 254 254 253
-0.070444 0.249867 -0.040914 114 115 116
0.371349 0.121257 0.047798 253 254 254
-0.059835 -0.254535 0.007594 191 197 199
0.085912 0.229619 0.055738 254 253 254
0.045087 -0.244011 0.016225 250 253 252
-0.060301 0.270847 0.015323 250 251 252
0.284822 -0.179183 0.032080 252 253 254
-0.065425 -0.219447 0.023887 248 250 250
-0.050991 0.272280 -0.002026 252 253 251
-0.072208 -0.199945 0.054930 99 124 173
-0.084135 0.059054 -0.021408 100 141 216
-0.074845 0.163725 0.045788 97 123 174
-0.083139 0.025172 0.008663 122 127 131
0.352625 -0.147373 0.026085 253 254 253
0.154157 -0.223801 0.026254 253 253 253
-0.089971 -0.022342 0.018089 118 119 123
-0.093124 0.103631 0.040552 116 121 123
0.054609 0.252567 0.044948 251 252 254
-0.073424 -0.108672 -0.089285 112 101 102
0.137741 0.212119 0.045643 253 254 253
-0.067326 0.279487 0.009480 111 149 219
-0.013134 -0.269275 0.047322 252 253 252
-0.080229 -0.089101 -0.011949 99 136 207
-0.092175 -0.239229 0.041724 95 126 188
-0.011446 -0.270394 0.012656 249 250 250
0.210157 0.183120 -0.000381 253 254 253
0.287808 -0.178161 0.000930 254 254 254
0.142612 -0.223381 0.048897 253 255 254
0.309669 -0.172759 -0.002512 253 253 254
-0.086926 0.100839 -0.087332 92 121 182
-0.082392 0.043509 -0.025734 96 123 172
-0.086080 -0.268435 0.040569 126 143 165
-0.098264 0.162765 0.019856 99 129 183
0.329614 0.137209 0.009071 252 252 254
0.162619 -0.219311 0.015845 251 253 253
-0.093364 -0.222458 -0.025114 103 142 214
-0.074111 -0.257533 -0.035795 98 125 174
-0.097846 0.186137 -0.075842 118 122 120
-0.099393 0.149001 -0.082995 138 141 142
-0.081855 0.106517 -0.083521 125 132 134
0.139370 0.212817 0.058104 254 255 254
0.056413 0.253203 0.005117 252 253 253
0.073499 -0.248366 0.037444 206 210 206
0.109111 -0.235493 0.060886 250 252 251
0.247245 -0.194696 0.007215 254 253 253
-0.070654 0.211655 0.054482 115 119 118
-0.099890 0.027660 -0.028008 113 114 117
0.110908 -0.225500 -0.014180 253 253 254
0.365666 0.133652 0.025242 254 254 254
0.210974 -0.195766 0.033720 252 253 252
0.296518 -0.167248 0.040509 255 255 255
0.209478 0.185499 0.056822 252 252 252
0.254356 0.176668 0.004255 254 254 254
-0.073600 -0.281450 0.002858 252 252 251
-0.075380 -0.180576 -0.081815 113 116 115
0.381447 0.124062 0.049650 253 254 253
0.261686 -0.187441 0.042567 252 253 252
0.252177 -0.180692 -0.003733 249 250 250
-0.073798 0.171475 0.043439 99 125 171
0.016943 -0.262906 -0.022163 249 250 251
0.085755 0.239174 -0.014803 252 253 252
-0.097139 0.038053 -0.054216 106 144 217
-0.099643 0.128840 -0.080861 125 130 134
-0.081955 0.255053 -0.063338 103 146 225
0.162101 0.214810 -0.002914 251 251 251
-0.098558 0.056016 0.027585 114 121 120
-0.096410 0.027945 -0.019940 100 136 205
0.210232 -0.199471 -0.005062 251 254 252
-0.101977 0.095296 0.036244 96 121 164
0.302542 -0.172427 0.037625 254 254 253
-0.088002 -0.213655 -0.064175 101 137 208
-0.099625 0.157683 -0.034025 97 128 187
0.237261 0.185681 0.054142 254 254 254
-0.033534 0.268339 0.037951 253 253 253
-0.094717 -0.231655 -0.007339 110 118 117
0.231089 -0.192329 0.058555 254 254 253
-0.079639 0.168028 -0.064973 100 135 199
-0.100922 0.065564 0.009718 98 131 189
-0.098783 -0.157064 0.041973 104 146 224
-0.098597 -0.113416 -0.006858 100 145 223
-0.077647 -0.065628 -0.060584 100 140 213
-0.074081 0.191390 0.039233 112 114 120
-0.075497 -0.276273 -0.025759 252 252 253
0.332280 -0.155876 0.052471 254 254 253
0.310958 -0.170522 0.043264 253 254 254
-0.040638 -0.264035 0.052937 251 252 251
0.345750 -0.150965 0.019333 252 252 253
0.172439 -0.216038 -0.013269 252 253 253
-0.002698 -0.255659 0.058885 252 254 252
0.170845 -0.216301 -0.001795 253 254 252
-0.064435 -0.268855 0.022718 252 252 252
0.294095 0.150250 0.026648 253 253 253
-0.074416 -0.237540 0.008286 97 137 211
0.387073 -0.143815 0.004835 254 254 255
0.014045 -0.251324 0.027326 252 252 252
-0.073895 -0.215987 -0.013063 102 142 217
0.089383 -0.230946 0.008267 252 253 253
-0.073270 -0.211279 0.048125 98 123 163
0.199094 -0.199683 0.034711 251 252 251
-0.075760 -0.156087 -0.032456 101 133 195
0.224269 -0.190850 -0.008637 253 253 251
-0.077549 -0.120198 -0.087973 99 130 184
0.285127 0.154399 0.033986 252 255 254
-0.058603 -0.279583 -0.023303 253 253 253
0.214551 -0.201706 0.057910 251 253 252
-0.051569 -0.273503 -0.024022 253 253 253
-0.095580 -0.181714 0.050493 104 146 224
0.204363 -0.197539 0.014789 251 253 253
-0.041974 0.272058 0.050796 251 253 252
0.208919 -0.204972 0.043381 253 255 253
0.037004 -0.244078 0.022976 251 252 252
0.181531 0.207109 0.019321 251 251 252
-0.072720 -0.215073 0.046917 102 127 169
0.200538 -0.204176 0.024183 253 254 253
-0.046868 0.282034 -0.013009 251 253 252
-0.072171 -0.270179 -0.006285 250 251 250
-0.077144 0.270762 0.020238 249 249 250
-0.091478 0.095990 -0.084194 113 116 118
-0.102939 0.071629 -0.038655 107 119 130
0.368199 0.121529 0.037476 253 254 253
0.182125 0.194619 0.032290 254 254 254
0.380068 -0.140699 0.042339 252 252 252
-0.002091 -0.264680 -0.023050 254 254 254
0.364385 0.124369 0.049189 254 255 255
-0.099324 0.125840 -0.007628 92 115 161
0.367498 0.123347 0.044580 252 254 253
-0.070025 0.276888 -0.021729 103 141 212
-0.074853 -0.127438 0.046587 115 114 118
-0.023633 0.280733 -0.001359 251 252 252
-0.085896 -0.277631 -0.004248 109 125 155
0.382036 -0.138796 -0.004192 251 252 253
-0.083895 0.215636 -0.078705 123 128 128
0.237995 -0.185459 0.002068 250 251 251
-0.100129 0.075566 0.008548 100 137 203
-0.097593 -0.165587 -0.028995 98 125 174
-0.093926 -0.223834 -0.048251 110 112 113
-0.093608 0.030432 0.017645 103 137 198
-0.082931 0.067950 -0.075822 116 132 148
0.125714 -0.222298 0.057416 250 251 252
0.284319 -0.179753 0.045656 252 252 252
-0.099658 -0.071331 -0.020366 105 143 214
0.270680 0.159100 0.048582 252 255 252
0.120820 -0.223021 0.035581 252 253 252
0.389627 -0.144908 0.006477 253 255 254
0.139329 -0.218351 0.042903 252 252 251
-0.075744 -0.133150 -0.072817 99 118 156
-0.091522 0.267591 -0.037619 104 142 214
0.042154 0.256241 0.036253 252 252 253
-0.101091 0.103622 -0.082268 103 141 212
-0.074695 0.270029 0.032311 252 253 253
-0.070035 0.268956 -0.056846 108 111 118
0.037138 0.254856 0.053190 251 252 252
-0.074261 -0.224498 -0.020459 117 123 129
0.338427 0.146657 0.019288 252 253 253
-0.068719 -0.281323 -0.021238 251 253 253
-0.097283 -0.181600 0.043087 100 129 182
0.011441 -0.252465 0.034473 252 252 253
0.260762 -0.187738 0.039854 253 253 253
0.334746 0.133955 0.032161 252 253 252
0.057971 -0.240003 -0.014630 251 253 253
-0.069090 -0.269368 -0.006937 251 253 253
-0.094685 -0.169870 -0.079784 116 120 122
-0.089599 -0.170193 0.014961 102 140 206
0.143166 -0.216582 0.014786 254 254 253
-0.097350 -0.048498 0.015981 103 144 223
-0.099947 0.030141 0.025587 104 145 222
-0.080251 0.219888 -0.077111 113 109 109
-0.098787 -0.153022 0.024845 126 129 131
-0.039981 -0.260852 0.029299 251 253 252
-0.100071 -0.082859 -0.036587 97 121 165
0.289575 -0.168445 0.039326 251 252 252
-0.093603 -0.241424 -0.047592 104 140 211
0.128414 0.214779 0.061136 253 253 253
-0.024129 0.269475 -0.019535 253 253 252
-0.097501 -0.115247 -0.071296 96 118 162
0.085185 0.241973 0.006198 252 251 252
-0.081521 0.109438 0.009089 100 136 202
0.036305 -0.257213 0.003171 252 253 252
-0.081428 0.087366 0.004895 99 127 184
0.384923 -0.147276 0.021383 253 255 255
-0.078758 0.140678 -0.013546 99 133 192
-0.104193 0.120664 -0.059300 101 134 193
0.143261 0.221424 0.015002 252 253 253
-0.010994 -0.256459 0.061268 253 253 253
-0.092131 0.253295 -0.028315 100 131 190
-0.079733 -0.053626 0.008186 101 126 175
0.068366 0.237166 0.013683 254 254 254
-0.074531 -0.118343 0.031815 121 126 127
-0.076543 -0.273300 -0.019563 250 251 251
-0.099938 0.110379 -0.073332 111 120 133
0.125278 0.228416 0.046811 253 252 251
-0.098737 -0.083347 0.024277 102 140 209
-0.090193 0.088408 0.039368 109 113 115
-0.092773 -0.242125 0.042674 96 127 185
0.242548 0.183696 0.001568 251 252 252
-0.092241 0.010651 0.006461 110 116 121
-0.098534 -0.083840 0.032258 119 127 134
0.325526 0.137316 0.007263 251 251 251
-0.040153 0.282824 -0.007557 251 251 251
0.348856 0.134775 0.006529 253 253 253
-0.089636 -0.275232 -0.025857 109 114 116
-0.087471 0.037687 -0.052753 114 154 231
0.198613 -0.205008 0.008799 253 253 252
0.178428 0.192607 0.058840 252 254 254
-0.094556 0.278248 -0.004049 105 137 196
-0.054059 0.272675 0.008513 250 252 252
-0.086954 0.213980 -0.080744 117 121 121
0.238888 -0.189048 0.054615 254 253 253
-0.085610 0.222506 0.056273 99 121 169
0.002433 -0.252256 0.062463 253 253 254
-0.094410 0.213906 0.033244 115 127 141
-0.083737 0.092149 -0.060943 101 141 213
-0.075111 0.181558 0.046362 121 127 133
0.313442 0.154457 0.052192 253 254 254
0.046331 -0.254869 0.053139 251 252 251
-0.099254 0.182181 -0.072460 95 124 178
-0.095489 0.230855 -0.060507 95 115 155
0.228872 0.175682 0.046195 251 252 252
-0.079754 -0.045063 -0.000390 107 113 122
0.106375 0.223749 0.059435 253 253 253
-0.093439 -0.235251 0.029956 120 126 131
-0.088594 0.082223 -0.082702 107 133 183
0.044436 -0.246267 -0.016547 253 255 254
-0.093348 -0.230821 0.035117 99 132 187
-0.073160 -0.204405 0.049113 104 143 217
0.268027 -0.176671 0.030590 252 253 252
0.091793 0.239855 0.009164 251 252 252
-0.032769 0.266159 0.001390 252 253 254
-0.078531 0.180629 -0.038980 109 132 174
-0.096956 0.114131 0.042158 98 137 209
-0.078658 -0.069283 -0.051781 115 116 117
-0.092263 -0.274085 -0.029233 101 114 136
0.372393 0.130960 0.011904 251 252 252
-0.081079 0.178110 0.049712 101 138 206
-0.076638 0.220518 -0.063243 100 141 217
0.051287 -0.244218 -0.000637 252 252 251
0.077627 -0.249124 0.058441 252 252 252
-0.079865 -0.066634 -0.035325 99 138 203
-0.079876 0.184065 -0.083863 104 139 203
0.112839 -0.225849 0.034480 252 252 253
-0.096115 0.099713 -0.087763 122 122 124
0.190662 -0.202073 0.026529 253 253 252
-0.073322 -0.224396 -0.039643 118 119 119
-0.094840 0.240835 -0.055455 96 128 188
0.088598 0.239042 0.053070 254 254 254
0.015744 -0.262258 0.042205 252 253 252
-0.076547 -0.160773 -0.082177 119 120 118
-0.021919 0.278645 -0.019003 251 252 250
-0.098773 0.096406 -0.009457 105 135 186
0.059739 0.252615 -0.014205 252 251 251
0.275103 0.168662 0.043450 252 253 252
0.382659 0.125427 0.026688 254 254 254
-0.078230 0.184658 -0.063494 97 125 171
-0.096280 -0.139190 -0.080750 105 125 162
-0.044087 -0.265896 0.003813 250 251 251
-0.095571 0.201880 0.049585 113 114 118
0.152695 0.207287 -0.000546 252 253 253
0.082072 -0.234602 0.040416 249 250 250
-0.092974 -0.252473 0.004976 99 131 188
-0.081341 0.119898 0.025325 94 120 172
-0.071934 -0.255296 0.044026 120 126 126
-0.097723 0.166234 -0.036983 99 126 180
0.050684 -0.244823 -0.006639 253 253 252
0.183346 0.205633 0.018357 251 253 253
0.040119 0.258995 0.040253 252 252 252
0.092106 -0.231687 -0.005961 252 253 251
0.073065 0.235760 0.025332 250 251 251
-0.022821 0.277335 0.022261 253 253 253
-0.098435 0.087843 -0.062014 106 137 192
0.123511 0.215952 0.035582 252 254 254
-0.099163 0.159674 0.019874 96 123 176
0.136703 -0.217706 0.010632 251 251 251
0.005087 -0.261207 0.010247 214 213 214
-0.071209 -0.278739 -0.002521 96 133 196
0.138564 0.220312 -0.011374 252 253 252
0.001994 0.272414 -0.004572 253 253 252
-0.092159 0.264062 -0.029085 134 137 136
0.135112 0.212239 0.015523 252 252 252
0.056945 0.248405 0.030466 200 204 210
0.409118 -0.130890 -0.005759 253 253 252
-0.077365 0.193532 0.006150 96 122 172
-0.069657 -0.268023 0.023809 110 113 115
0.329292 -0.156406 0.020445 253 254 253
-0.094655 -0.239378 0.020844 136 141 141
0.196238 0.188386 0.041664 252 254 253
0.014524 0.267491 0.061882 252 253 252
-0.090220 0.285429 0.006461 103 105 109
-0.069393 0.277063 -0.017783 253 253 252
-0.074516 -0.224157 -0.037142 100 134 195
0.362812 -0.144245 0.042244 252 252 253
-0.098206 -0.128832 -0.084696 108 137 188
-0.072350 0.232315 0.011195 112 113 118
-0.097672 0.175627 0.047081 98 123 166
0.291877 -0.167322 0.001860 252 252 254
-0.072270 0.217033 0.046034 115 120 121
0.129412 -0.221304 0.048112 251 254 252
-0.082581 0.222868 -0.079227 116 126 139
-0.071795 0.272114 -0.051099 107 136 190
-0.089601 -0.224068 0.055890 110 115 118
-0.073498 -0.088846 -0.052230 114 116 119
0.204322 -0.206474 0.046160 252 252 253
0.052692 0.252457 0.038382 252 253 254
