ply
format ascii 1.0
element vertex 1221
property float x
property float y
property float z
property uchar red
property uchar green
property uchar blue
end_header
-0.070880 -0.260910 -0.086260 31 31 34
-0.132637 -0.025860 0.062325 30 30 32
0.042187 -0.345254 0.024252 251 251 251
-0.124670 -0.100862 0.025575 23 27 116
0.327043 -0.254965 0.029428 252 253 252
0.030700 -0.335053 0.054859 37 62 153
-0.107362 0.120516 -0.095309 35 38 35
-0.111346 -0.135489 -0.052730 17 20 111
0.502899 -0.181020 -0.056059 255 255 254
0.001978 -0.310448 0.053662 33 51 90
-0.043265 -0.277532 -0.074812 28 29 122
-0.135494 -0.012006 0.045750 33 33 34
-0.012589 -0.316860 0.015101 24 36 132
0.324504 -0.253976 0.026340 251 252 253
0.360172 -0.236854 0.005058 249 250 251
-0.033311 -0.278886 0.082032 41 63 149
-0.119668 0.148305 0.086033 33 34 40
0.283268 0.275384 -0.013118 27 28 49
0.006873 0.330866 -0.020123 30 26 25
-0.082985 -0.230214 0.083245 40 55 138
-0.000200 -0.335646 0.050666 204 206 205
0.428445 -0.199590 -0.053711 249 250 250
-0.072823 0.241808 0.073973 22 29 94
0.038431 -0.349352 0.046967 121 131 148
0.073079 0.336594 0.058049 233 231 233
0.078285 0.334888 0.050444 30 24 27
-0.060582 -0.230108 0.073525 47 55 89
0.335791 -0.251136 -0.051218 250 250 250
0.017980 0.317222 0.046007 90 98 109
0.184030 0.314118 -0.009985 251 252 253
0.034395 -0.333315 0.044742 40 65 144
-0.110599 -0.005712 0.059773 29 31 33
0.065048 0.331801 -0.022891 29 28 29
0.536025 0.164317 -0.035498 253 253 254
0.326581 0.247558 0.023090 249 249 249
-0.061298 0.282586 -0.093176 27 27 27
0.493230 -0.185596 -0.029441 25 24 28
0.342331 0.250547 -0.031350 22 23 57
0.053515 0.334493 -0.018803 26 28 26
0.414477 -0.208023 -0.044464 23 22 25
-0.114201 0.169386 0.084012 34 38 57
-0.012262 -0.307345 -0.039011 35 47 136
0.447584 -0.204038 -0.004599 252 254 253
-0.102196 -0.188271 0.011211 23 27 117
0.001985 0.324678 -0.005671 31 27 24
0.465329 0.203999 0.011548 251 251 252
0.188152 0.310955 0.046753 252 252 252
0.290705 -0.267074 -0.008817 172 174 174
-0.057454 -0.259695 0.097261 32 32 34
-0.133886 -0.018309 0.026038 245 245 246
-0.137264 0.029160 -0.017050 129 127 126
-0.054448 0.284050 -0.069799 30 32 32
0.522779 0.167931 -0.004293 254 253 252
-0.086618 0.212721 0.081173 26 33 102
-0.090488 -0.223929 -0.094290 28 26 125
0.019540 -0.339928 -0.006646 51 69 153
0.015540 0.334313 -0.023270 31 29 32
0.404885 0.225533 -0.006887 25 23 26
0.092327 -0.341307 0.012853 164 164 163
-0.131467 0.026163 0.052226 236 237 239
0.217259 0.301925 0.019583 249 249 250
-0.093446 0.205381 -0.098541 162 163 163
-0.110810 0.144516 0.019806 33 39 106
-0.131531 0.083638 0.088126 213 214 215
0.512571 -0.174151 -0.024314 253 254 252
0.233981 -0.297123 -0.021926 234 235 235
0.000501 0.297181 0.053621 29 28 30
-0.125383 0.131177 -0.087605 29 31 30
-0.068613 -0.237343 0.012435 35 47 135
0.234553 0.284089 0.017602 250 251 251
-0.128525 0.049356 0.053277 26 25 119
-0.100599 0.153337 -0.091222 44 37 40
-0.032648 0.303526 0.065400 186 186 186
0.170590 0.314186 -0.015165 178 179 180
-0.124439 0.068249 -0.041633 28 29 29
-0.109585 0.106693 0.083201 23 26 125
-0.115912 0.064193 -0.058631 214 214 215
-0.124142 0.100143 -0.042312 27 30 105
-0.084876 -0.236434 0.098780 222 223 223
0.164490 0.307398 0.019791 205 205 204
-0.109800 -0.060591 0.042076 28 28 30
0.415390 -0.213265 -0.054843 25 25 29
-0.085708 -0.232719 -0.072943 35 42 128
-0.036553 -0.287698 0.081006 38 58 147
-0.082031 0.205295 0.054271 36 45 119
0.058398 -0.340707 -0.013750 198 200 199
0.060103 -0.321925 0.070583 206 206 205
0.173825 -0.309326 -0.024547 249 249 249
-0.035158 -0.288031 -0.031660 26 32 112
-0.103804 0.147265 0.065544 29 34 102
-0.091952 -0.230401 0.091557 222 221 221
0.216831 0.289934 0.012465 184 185 185
0.519047 -0.174441 -0.067342 27 26 28
0.391277 -0.228100 0.001545 253 253 254
-0.119319 0.121183 0.018523 23 27 107
-0.115787 0.172630 0.087970 32 29 33
0.401466 -0.211505 -0.047199 254 254 253
0.309755 -0.258129 -0.049005 253 254 253
0.065413 0.344525 0.009866 246 247 247
0.085307 -0.339827 0.020103 29 31 31
0.091062 -0.347382 0.004942 253 255 254
0.531182 -0.167228 -0.068561 24 24 28
0.218912 0.292499 0.041265 253 254 253
0.118434 0.323785 0.009552 248 249 249
-0.061975 -0.224432 0.100588 228 227 226
-0.018853 -0.308658 -0.011535 42 57 148
-0.014540 0.317061 0.015032 26 25 27
-0.125091 -0.107470 0.081023 36 34 38
-0.067657 0.232997 -0.106056 174 175 175
0.096395 0.341635 0.010728 250 251 252
0.496478 -0.178979 -0.041771 253 255 253
-0.110303 0.026640 0.063366 221 222 221
-0.090006 -0.218258 0.097338 34 34 38
-0.110688 0.065996 -0.040471 32 33 33
0.310408 -0.264797 0.024078 254 253 253
0.124702 -0.339052 -0.010006 248 249 248
0.154157 -0.328473 0.024107 151 152 150
-0.110390 0.126616 -0.100016 30 29 29
0.052314 -0.320004 -0.026471 27 33 91
-0.006614 -0.324581 0.021863 31 51 141
0.189386 0.312327 -0.031261 246 248 247
0.066706 0.323621 0.039029 24 27 28
-0.078642 -0.234335 -0.075276 24 29 120
-0.038496 0.297569 0.057512 34 36 42
0.268517 0.282744 -0.013425 251 252 252
0.115897 -0.343952 -0.012967 183 183 182
-0.076910 -0.246104 0.010188 23 29 128
-0.100158 -0.218733 -0.105946 34 30 32
-0.130385 -0.086439 -0.012541 30 27 29
-0.089279 -0.205321 -0.044929 26 25 113
-0.133390 0.042334 -0.029012 31 30 31
0.026021 0.302127 0.063806 187 186 184
-0.047806 0.272588 0.065324 29 37 70
-0.103611 0.176145 0.067588 20 24 103
0.106855 0.340576 0.053572 250 250 250
-0.070189 -0.230498 0.099585 29 29 32
0.147208 -0.326671 0.007489 182 182 182
0.118986 0.335699 0.022444 252 253 251
-0.115022 -0.062378 -0.008077 28 27 32
0.102158 0.325266 0.021046 227 228 227
-0.116257 0.053794 -0.033793 31 35 33
-0.091925 0.207079 -0.114527 35 30 23
-0.073454 0.236611 0.073293 24 33 80
-0.079283 0.247058 -0.088036 31 31 34
-0.092191 -0.215826 -0.085724 247 247 247
-0.105613 0.173668 -0.054721 25 33 67
-0.125775 0.046089 -0.041919 219 219 217
-0.079589 -0.211017 -0.107710 34 29 33
-0.092639 -0.234088 -0.102453 223 224 223
0.155346 -0.323191 0.022269 179 179 179
0.020386 0.331472 0.043653 251 251 251
-0.104996 -0.152262 0.046110 22 28 119
0.255231 0.285641 -0.023112 165 166 166
0.253784 0.275890 0.028319 252 252 252
0.031594 0.341997 0.002179 241 242 242
-0.043993 0.269448 -0.025787 32 35 52
0.075318 -0.337527 0.017539 206 208 204
-0.112758 -0.104044 0.044454 21 25 95
-0.017647 0.308247 0.074969 25 27 27
0.019929 -0.334134 0.055660 45 69 144
-0.024598 -0.300328 -0.028154 32 43 134
0.332704 0.246798 0.002075 253 253 252
0.090636 0.342899 0.023564 218 219 219
0.313820 -0.254226 0.012511 251 253 252
0.086877 -0.345354 -0.007144 230 232 232
-0.107452 -0.058286 0.047678 35 35 36
0.291710 -0.275300 0.031828 253 254 252
0.353135 -0.237819 -0.034474 251 253 254
-0.038578 -0.295430 -0.009675 29 39 137
0.049588 0.340528 0.014718 248 249 249
0.378323 0.228142 -0.025424 251 251 251
0.231845 -0.284141 -0.024124 212 212 211
0.395459 0.231913 0.029203 31 36 82
0.208041 0.309105 -0.005084 209 210 209
0.547999 0.161570 -0.027534 254 253 252
-0.087285 -0.228910 0.096641 230 231 230
-0.057417 -0.274932 0.049357 23 34 122
-0.120980 0.144628 0.087211 188 187 186
0.246919 0.277899 0.035552 25 33 89
-0.120428 -0.138623 0.090262 35 37 38
0.399518 -0.218403 -0.011865 27 25 29
0.165276 0.315899 -0.024450 220 220 218
-0.017292 -0.310815 0.071967 30 55 133
-0.084939 -0.237787 -0.060528 21 24 126
0.143906 -0.319463 0.013562 253 254 253
0.400340 0.225735 -0.028736 28 26 28
0.310114 -0.261854 -0.026783 250 251 252
0.532875 -0.169930 -0.053525 253 253 253
0.237703 -0.292616 0.020683 184 185 184
0.087317 -0.347394 0.029247 30 26 28
0.283301 0.265273 -0.028257 252 253 251
0.486353 -0.182782 -0.020790 252 252 253
-0.033352 -0.274730 0.085700 37 56 131
-0.118419 -0.072623 0.037100 25 28 125
0.156757 -0.325489 -0.002678 252 252 252
-0.110825 -0.074620 -0.011969 36 37 38
0.191137 -0.314381 -0.027369 253 254 253
0.136449 -0.322870 0.013472 250 251 250
0.146398 -0.328369 0.042601 167 167 166
-0.111074 -0.048416 0.020709 31 33 29
-0.132458 0.043262 0.066351 236 237 238
0.011786 -0.334801 0.056814 231 233 231
-0.053580 -0.275027 0.036098 27 35 126
0.504864 -0.177808 -0.067566 26 25 28
-0.131110 0.005133 0.058215 32 34 34
0.080893 -0.351289 0.037136 250 251 251
-0.116003 0.128063 0.040274 26 29 105
0.170151 -0.312792 0.037292 220 222 223
-0.116134 0.156174 -0.052400 27 27 86
0.227501 0.300150 -0.003072 201 201 201
0.106405 -0.344842 0.044636 223 226 224
-0.126453 0.040279 -0.026413 32 35 34
0.520930 -0.167544 -0.063060 254 253 254
-0.128929 0.095251 -0.077349 31 33 32
-0.048118 -0.284959 -0.018994 35 44 144
0.149214 -0.317972 0.026825 252 254 252
-0.135122 0.021610 0.038848 237 239 240
0.458886 -0.195584 -0.052130 251 253 251
-0.082891 -0.229486 -0.006155 28 34 123
-0.082766 -0.222966 0.051641 24 34 122
0.297649 0.261310 -0.003890 249 251 250
0.237178 0.296630 0.015019 248 248 249
0.239709 -0.299958 0.042073 253 253 255
-0.003239 -0.297940 0.089966 53 79 128
0.030776 -0.330867 0.037168 25 27 28
-0.084483 0.212814 0.005323 22 24 92
-0.087739 -0.224602 -0.021985 24 29 123
-0.112012 0.144737 -0.017525 37 46 99
0.086956 0.335106 0.055868 26 27 28
-0.056577 -0.290967 0.086921 33 34 36
-0.107206 -0.183734 0.081695 235 234 235
-0.085369 -0.217738 -0.012650 23 30 120
-0.018620 -0.296022 0.066647 23 40 128
0.209884 -0.298108 0.017478 217 218 217
-0.109955 -0.160999 -0.026146 20 24 121
0.504983 -0.172711 -0.052415 26 24 28
-0.107405 -0.014094 0.062798 249 249 251
0.043501 0.347331 0.033060 253 253 254
0.375486 -0.225550 -0.050195 252 252 252
-0.124738 0.073909 0.032138 21 25 114
-0.127003 0.026551 -0.017400 33 29 31
0.015841 0.320967 -0.034617 30 27 26
-0.120480 0.083655 -0.018430 30 35 118
0.117307 -0.341440 0.014105 31 29 30
-0.108036 0.204463 -0.091428 172 172 173
-0.081811 0.221225 0.021445 21 26 91
0.331650 -0.249230 -0.048581 26 25 28
0.398816 0.226816 0.029481 26 30 69
0.155056 -0.316145 0.021982 251 252 251
0.121107 0.337366 -0.005966 220 221 221
0.045725 -0.343963 0.038359 201 201 201
0.395766 -0.219156 -0.054023 25 25 28
0.101870 -0.338240 0.003109 253 254 252
-0.110570 -0.141017 0.014816 23 27 128
0.264647 0.283197 0.014134 252 253 253
-0.015177 -0.324972 -0.042772 31 41 131
0.072652 0.345195 -0.001463 253 254 254
-0.080076 -0.258380 0.075310 218 218 217
-0.097786 -0.200258 -0.016050 29 35 129
-0.108796 -0.001574 0.041064 229 229 229
0.066293 0.325038 0.019029 35 30 27
-0.119669 0.113732 -0.041388 19 22 102
0.541918 -0.165759 -0.048120 252 254 252
-0.114464 -0.180936 -0.092615 31 30 32
0.105949 -0.344986 -0.020752 221 222 221
-0.119827 -0.094019 0.064382 30 29 32
0.146069 -0.333109 -0.014277 250 252 251
-0.109298 -0.166532 -0.033196 26 30 117
0.178323 0.318329 0.004896 249 249 249
-0.100773 -0.148806 0.094752 242 242 243
0.127298 -0.341957 0.049658 192 191 191
-0.094226 -0.196115 0.100117 228 228 228
0.019412 0.307314 0.056885 180 181 179
-0.056508 -0.282327 -0.067721 23 26 121
-0.127674 0.035279 0.041971 29 29 29
0.123612 -0.342506 0.049989 153 153 152
0.243484 0.278436 -0.017223 252 253 252
0.028056 -0.324715 0.081726 210 211 210
0.374471 -0.229666 -0.055910 25 26 28
0.080906 -0.326099 0.064242 25 25 26
-0.106084 0.167944 0.087490 184 183 184
-0.134195 0.042135 -0.017192 214 215 213
0.230685 -0.287653 0.041991 253 253 252
0.215644 -0.305128 -0.007056 228 230 230
0.144955 -0.333532 0.053256 251 252 251
0.028509 -0.326977 0.071669 55 77 151
0.447179 -0.203375 -0.050748 254 254 253
0.241355 0.283922 -0.010243 168 169 168
-0.011753 -0.308499 -0.031583 25 39 137
0.147047 0.312722 -0.018257 251 251 250
0.047148 0.345284 0.023600 24 27 25
0.423057 -0.210446 0.011170 254 254 253
-0.106803 0.170512 0.025074 25 30 89
0.136160 0.316832 0.035152 228 229 227
-0.009925 0.301570 -0.064396 184 183 182
-0.120108 -0.132862 -0.024545 31 35 121
-0.002878 0.326075 0.000096 29 26 29
-0.120649 -0.011462 0.013145 236 236 237
0.169364 -0.321488 -0.007280 251 253 252
-0.078545 -0.198282 0.094192 31 30 33
0.074317 0.331203 -0.016265 28 29 29
0.358486 -0.237108 -0.007828 251 252 252
0.201031 0.294471 -0.022487 253 253 253
-0.123284 0.088884 -0.001277 27 32 112
-0.099109 0.146422 0.090527 136 140 141
-0.060452 0.262611 0.088766 166 167 165
0.366787 -0.238126 -0.053792 27 24 28
-0.135001 0.005998 0.020789 228 228 228
-0.011884 -0.309011 -0.061707 200 199 199
-0.120333 0.098772 0.034281 19 24 108
-0.111507 -0.115488 -0.079853 37 39 35
-0.014546 -0.313405 -0.066902 32 29 30
-0.019538 -0.298044 -0.080707 31 34 34
-0.120840 0.103313 -0.013402 24 27 93
0.016249 0.306249 0.000726 26 25 29
-0.117669 0.079187 0.033655 26 32 116
0.394899 0.220146 -0.026639 254 254 254
0.083976 -0.337073 0.017097 250 251 250
0.300452 -0.257677 -0.046448 251 252 252
-0.109998 0.043158 0.051845 27 31 29
0.286767 0.277066 -0.001399 252 253 252
0.034270 -0.351103 -0.012244 31 33 34
0.156992 0.324230 -0.001932 253 254 254
-0.113821 0.104557 0.071625 21 22 106
0.227644 0.297583 -0.004239 251 252 253
0.251397 -0.294318 0.039304 252 252 254
0.493151 0.187285 -0.010715 26 24 29
0.017718 0.333781 0.052117 212 211 212
-0.134672 0.040639 0.052754 45 46 49
0.098317 0.342488 0.007116 213 213 212
0.228044 -0.299145 -0.005021 252 253 252
0.316258 -0.253300 0.002051 249 251 249
0.329876 0.245112 0.037230 252 252 251
0.243974 -0.296906 0.039967 218 222 221
0.051659 -0.354247 -0.005778 253 253 253
0.058052 -0.354825 0.046505 115 118 119
-0.035451 -0.300470 -0.017517 37 47 143
-0.047381 -0.295943 -0.070014 26 31 128
0.379420 0.234002 0.003611 24 24 28
-0.118539 -0.150378 -0.066657 21 23 119
-0.047505 0.284264 0.082363 27 30 30
0.026463 0.338767 -0.012005 248 249 249
0.307907 -0.267308 0.027561 254 255 254
-0.023348 -0.297897 -0.016533 26 33 119
0.152553 0.325388 0.030268 217 217 216
0.018814 0.324147 0.066410 204 203 203
-0.098316 -0.130970 0.089170 28 31 32
0.063664 0.323030 -0.024566 32 22 28
0.144629 -0.322741 0.053893 254 255 254
0.377097 0.229876 0.016150 23 24 61
-0.120362 -0.114183 -0.085994 250 251 249
0.240129 -0.299827 0.017839 200 200 199
0.127629 0.320547 -0.018510 252 252 250
-0.055031 0.249644 0.054915 28 34 89
-0.114905 -0.116477 -0.088455 244 245 245
-0.106619 0.143975 0.057973 24 32 100
0.464855 0.193123 -0.020422 254 254 254
0.048764 0.351638 0.032550 247 248 248
0.072793 0.336927 0.042588 221 222 222
-0.048199 -0.289349 -0.082901 28 33 134
0.039978 -0.323076 0.063668 28 28 30
-0.118443 0.076176 -0.027073 18 20 106
0.316382 0.251848 -0.028216 252 252 251
0.050179 0.321578 -0.018471 187 187 187
0.124768 0.325575 -0.018325 253 253 253
-0.122999 0.089798 0.024474 21 23 102
-0.057151 0.279959 -0.090579 177 176 177
-0.110933 0.003601 0.012000 231 231 231
0.533172 0.170129 -0.019777 25 24 26
0.298552 0.271180 0.028584 253 252 251
0.005804 -0.314753 -0.046389 27 34 115
0.031873 0.336260 -0.013892 244 245 245
0.038906 -0.337659 -0.023849 188 189 187
0.210608 0.291550 0.014102 178 178 178
0.054556 -0.354407 -0.007853 202 202 203
0.487010 -0.186886 -0.065896 253 253 253
-0.018352 0.284507 0.062820 21 29 94
0.226481 0.297122 -0.026478 165 166 168
0.360609 -0.233778 -0.043126 252 253 254
-0.093466 0.186319 0.080627 22 27 100
-0.069383 0.225271 0.094294 163 163 162
0.333734 -0.245588 0.021149 33 41 78
0.055995 0.321515 0.063905 203 204 203
-0.101573 -0.179305 0.023768 30 34 130
0.206786 -0.310857 0.043223 227 228 228
-0.024529 -0.301271 0.026840 43 59 149
-0.012077 0.281094 0.070126 178 178 177
0.201580 0.304773 0.013707 169 169 169
0.431250 -0.209672 -0.022033 250 251 251
0.095733 0.344622 0.001824 198 197 197
-0.119702 0.113997 -0.021585 23 26 100
0.200287 -0.315721 0.027238 173 172 173
-0.011163 -0.303369 0.079360 40 64 150
-0.134751 -0.041240 0.039403 242 245 244
-0.113327 -0.140972 -0.072513 26 26 125
-0.002607 -0.320163 0.043064 35 56 149
0.371271 -0.236954 0.016769 253 252 251
-0.006743 -0.305699 0.089958 216 215 215
-0.125035 0.072760 -0.011279 18 19 93
-0.110214 -0.075555 0.041252 32 33 32
-0.097371 -0.191198 -0.005460 26 31 116
-0.111630 0.087644 0.091150 210 210 208
-0.099678 0.171200 -0.108503 180 179 179
-0.075041 -0.266642 -0.076529 235 236 236
0.486954 -0.187868 -0.033060 253 255 254
0.060816 -0.332383 0.062974 26 26 27
-0.083556 0.218995 -0.109789 29 27 27
-0.087393 -0.218265 0.058501 22 31 120
0.154562 0.327081 -0.010073 253 254 252
0.081025 0.336481 -0.014615 196 196 195
0.045219 0.342696 0.011784 235 236 237
-0.132803 -0.079611 -0.024408 251 253 252
-0.054853 0.273423 -0.100199 31 27 28
0.242799 -0.290565 -0.012894 182 184 183
-0.003900 -0.316612 -0.023149 29 41 132
-0.112329 0.137891 0.080848 28 27 106
0.171103 0.318192 0.033307 252 253 252
0.098217 -0.347382 0.044514 254 253 254
-0.115315 -0.090254 -0.066041 31 29 30
0.239287 0.281507 0.002739 253 254 252
0.054730 0.331953 0.001647 199 199 198
-0.133392 -0.063410 0.027398 215 215 211
-0.039013 -0.273615 -0.000482 22 33 110
-0.098964 0.193970 -0.012620 28 30 81
-0.059408 -0.253942 0.070727 38 56 134
0.188862 0.299628 0.004251 252 253 252
-0.000439 -0.328196 -0.006098 28 43 123
-0.126181 -0.090038 0.022060 18 21 114
0.534689 0.168199 -0.032787 22 23 62
-0.100558 -0.172705 0.082506 58 65 74
0.368471 0.233395 0.028887 254 254 254
0.119649 0.339281 0.024371 221 221 219
-0.042214 -0.271120 0.073604 28 29 32
-0.033673 0.277427 0.085521 30 31 34
0.133491 -0.334353 -0.011441 252 253 251
0.509796 -0.176763 -0.055239 253 254 253
0.060653 -0.337757 0.052551 26 25 26
0.340547 -0.253269 -0.025997 49 54 64
0.149455 0.326907 0.009802 249 251 251
0.059690 0.337492 0.042583 234 234 235
-0.137651 0.003650 0.049085 238 240 242
-0.127671 0.060666 0.003534 26 34 66
0.131252 0.337032 0.014497 207 207 209
0.021629 -0.330771 0.049143 30 26 29
-0.093072 -0.201852 0.056090 23 31 122
0.077162 0.329927 0.045015 251 251 252
0.345247 0.248283 -0.016075 25 24 27
0.009547 -0.344824 -0.005082 26 29 27
-0.136156 0.008918 0.038824 240 240 240
-0.112026 -0.105422 -0.074089 31 30 31
0.095611 -0.333550 -0.001147 27 28 29
0.010888 0.303401 0.083493 182 185 183
-0.083046 -0.221497 0.028483 36 50 137
-0.120302 0.071338 -0.033432 49 64 139
-0.128657 0.039393 -0.031358 35 33 29
-0.045729 0.252082 -0.098261 175 175 174
-0.114761 -0.154394 -0.049453 25 26 128
-0.116992 0.133465 0.087875 194 194 194
0.405281 -0.211339 -0.040470 254 254 254
-0.064045 -0.246259 0.032970 24 35 128
-0.046647 -0.285752 -0.020988 26 29 117
0.038770 0.317784 0.006298 24 26 28
0.072189 -0.354234 0.018317 250 252 250
-0.095316 0.175238 -0.093661 180 179 178
0.253630 -0.288091 -0.025797 208 207 207
-0.118351 0.123207 -0.005067 30 36 114
0.307486 -0.257062 0.003961 221 221 220
-0.021178 0.269547 0.079520 28 30 30
-0.128529 -0.037823 0.059871 241 243 243
-0.104163 -0.183571 -0.047934 27 29 117
-0.131170 -0.036783 0.052735 29 28 29
-0.045183 -0.284851 0.028142 30 43 126
0.172561 0.305492 -0.001596 250 251 251
-0.017899 0.283208 0.074879 186 186 185
0.068630 0.340744 0.031435 187 187 186
0.035620 -0.334528 0.027390 38 61 140
-0.110322 0.131274 0.056850 30 37 106
-0.108459 -0.157695 -0.005480 22 26 114
-0.117336 -0.130300 -0.070093 242 242 242
0.518160 -0.170843 -0.022820 25 24 27
-0.072937 -0.209207 0.099386 28 29 32
-0.104797 -0.167877 -0.059763 29 32 108
0.075898 -0.345705 -0.008106 234 234 235
0.066096 -0.339666 -0.006461 238 239 239
-0.019312 -0.301443 -0.086586 35 34 33
-0.034492 0.275218 -0.095488 27 28 26
-0.081322 -0.230980 -0.093621 26 27 129
0.056237 0.334027 0.041606 170 170 171
0.349807 0.240183 -0.017889 250 251 252
0.131684 0.323672 -0.022801 253 254 252
0.339216 -0.252735 0.024046 254 255 253
-0.003065 0.322628 0.024258 25 25 27
0.299457 0.258689 0.036709 254 253 253
0.358537 0.235920 0.022083 252 252 254
0.091430 -0.339296 0.012092 189 192 189
-0.033815 0.264565 0.086562 184 183 183
0.106797 -0.344744 0.014284 185 186 185
-0.024059 -0.297067 -0.057866 22 29 139
0.062774 -0.336892 -0.018999 252 252 253
-0.099450 0.177914 -0.101957 151 151 151
0.131956 -0.342154 0.043440 184 185 184
0.281361 0.282259 0.009547 250 249 249
0.331384 -0.246936 -0.005052 250 251 250
0.222888 -0.301333 0.010810 176 177 176
-0.118336 0.106793 -0.034743 19 24 109
-0.127169 0.051433 -0.048676 32 29 29
-0.091996 -0.205800 -0.055222 21 25 120
0.271186 0.277054 0.042610 252 251 252
-0.093088 -0.167972 0.080966 245 245 244
0.071323 -0.350889 0.047575 251 253 251
-0.102603 -0.161295 0.069579 24 32 100
0.140573 -0.335525 0.046024 157 157 156
0.098733 -0.347816 0.051901 225 225 224
0.355821 0.246428 -0.003545 253 254 253
-0.107998 0.151192 -0.041251 22 25 79
-0.064010 -0.238606 0.069190 31 39 126
0.094759 -0.347090 0.045941 252 253 253
0.330633 0.257523 0.032463 26 25 62
-0.106080 0.175583 -0.014551 28 33 90
0.020280 -0.334423 -0.011915 29 30 30
0.345459 -0.241096 0.018569 33 40 76
-0.112545 -0.025218 0.025485 230 231 230
-0.077089 0.233623 0.047843 24 25 98
-0.135836 0.023696 0.017029 40 47 51
-0.116515 -0.090387 0.088330 31 31 34
0.063549 -0.342853 0.025206 28 30 30
-0.004875 -0.315044 -0.000553 39 57 151
0.309935 0.252044 0.011429 23 27 74
0.503968 0.181846 0.018762 251 252 254
-0.132740 0.055381 0.071643 206 206 206
-0.022362 -0.308552 0.058565 40 57 136
0.108387 0.338455 0.038413 254 254 254
-0.113183 -0.169198 -0.058519 26 32 125
-0.051631 -0.260697 0.075685 43 47 52
-0.065584 0.233910 0.064900 33 42 109
-0.108319 0.151532 -0.023422 23 28 99
-0.122445 0.084498 0.018536 21 24 107
-0.130464 -0.026612 0.073366 29 31 32
0.050998 0.350743 0.015621 245 246 246
-0.108308 -0.087519 0.077774 30 35 34
-0.105538 -0.164837 -0.069178 24 21 107
-0.006926 -0.319188 -0.063248 31 31 32
0.428248 0.211282 0.007079 251 251 251
0.434392 0.210018 0.022946 247 248 248
-0.111341 -0.063652 -0.025898 39 38 41
-0.062066 -0.278550 0.097773 212 212 210
-0.002602 -0.302329 0.085697 25 26 27
-0.095604 0.189461 0.023935 24 24 90
-0.124660 0.053227 0.083345 222 223 222
-0.035699 0.284459 -0.089465 178 179 178
0.063085 0.346974 0.025281 32 28 29
0.291723 -0.262703 -0.033752 252 253 252
0.127027 -0.337846 0.037412 205 206 204
0.442989 -0.197765 -0.035847 253 253 252
0.359545 -0.239334 -0.050163 26 24 27
-0.102717 0.152401 -0.102079 30 26 25
-0.114557 0.089088 0.093546 32 34 35
-0.039233 0.295333 0.073308 29 26 29
-0.106570 0.148052 0.067561 30 34 112
0.292219 0.261774 -0.016095 249 250 249
-0.121791 0.104503 -0.062630 21 24 105
-0.110839 0.157232 -0.060984 25 29 70
-0.031826 -0.290987 -0.032170 26 36 131
0.271452 -0.269424 -0.036023 248 249 249
-0.023246 -0.295187 0.095042 26 26 28
-0.134242 -0.044779 0.002281 231 232 231
0.165979 0.308635 0.020647 247 248 248
0.356217 0.236320 -0.017374 24 24 27
0.138990 -0.333295 0.037346 187 187 187
-0.119122 0.009474 0.014308 29 27 29
0.137694 -0.335888 -0.006232 252 254 254
0.044980 -0.341344 -0.018436 222 221 222
0.543165 -0.163101 -0.061120 250 252 254
0.222879 -0.295316 0.043790 216 217 215
-0.039688 -0.269531 -0.076829 25 30 136
0.078491 0.329602 -0.019627 197 198 197
0.029081 -0.337700 0.005014 42 65 154
0.424931 0.221476 -0.000553 20 22 68
0.298839 0.259127 -0.009369 252 253 253
-0.084111 0.205308 0.067136 23 28 100
-0.120495 0.097937 0.062241 24 26 115
-0.130176 0.018603 0.047582 28 31 31
-0.120700 0.090813 0.031714 18 23 103
0.070211 -0.339814 0.058335 182 183 181
-0.034114 -0.287387 -0.043494 29 33 123
-0.005416 0.317491 -0.053107 24 24 26
-0.085830 -0.211848 0.074043 28 36 128
-0.125739 0.137413 -0.096072 45 44 41
0.273163 -0.269491 -0.033304 186 187 186
-0.128861 -0.104355 -0.067683 29 29 27
-0.078917 -0.250630 -0.073630 23 24 119
-0.103461 -0.178009 0.035911 20 25 117
-0.123096 0.102628 -0.017544 19 19 99
0.018630 0.325029 -0.041656 193 193 193
0.305846 -0.254975 -0.038830 251 251 250
-0.039867 -0.285480 0.041893 36 52 147
0.046902 0.353440 0.017601 247 249 248
0.209763 0.290913 0.028341 204 204 203
-0.129460 0.102848 -0.077571 29 29 29
0.331359 -0.248862 0.006047 250 252 251
0.293755 -0.273663 -0.025636 254 255 254
-0.113450 -0.138464 0.000409 21 28 109
0.070413 0.330400 0.043742 253 254 254
0.371141 0.231541 0.033209 253 253 252
-0.011604 -0.321051 -0.002646 49 67 153
-0.117430 0.086477 0.027301 29 35 112
-0.056909 -0.291068 0.073378 45 46 49
-0.000419 -0.302430 0.080747 40 61 132
-0.042190 -0.294295 0.052596 38 54 142
0.215933 0.290159 0.040692 253 254 254
-0.079829 0.233636 -0.106977 38 31 29
0.229652 0.298032 0.036366 196 197 196
-0.048710 0.280919 0.085024 27 28 29
-0.087798 -0.237799 0.088902 216 216 217
-0.120767 0.072647 -0.046562 21 26 97
-0.062561 -0.291448 0.068638 36 35 41
0.446763 0.209147 0.023720 252 252 253
-0.115742 0.115477 0.040406 24 24 119
0.393970 0.228305 0.012175 21 24 66
-0.113798 -0.134419 -0.020656 24 24 115
-0.114650 -0.066547 0.027625 250 251 251
-0.046286 0.259185 -0.098992 28 28 28
0.203175 0.293700 -0.003745 194 194 193
-0.093598 0.201560 -0.001971 31 37 97
-0.106319 0.173325 -0.024240 24 29 98
-0.120409 0.077144 -0.055888 29 36 95
-0.125118 0.049196 -0.014162 32 38 114
0.053405 0.345958 0.041549 253 254 252
-0.108198 0.161593 -0.083063 60 72 106
0.416664 -0.210046 -0.014411 252 254 254
0.003031 -0.324877 -0.007653 218 218 217
-0.076204 -0.256142 0.096023 216 219 217
-0.017874 -0.296414 0.034930 36 51 132
-0.131068 0.058664 -0.021241 20 22 109
0.455277 0.199566 0.023426 253 253 253
-0.080737 -0.243955 -0.110299 41 41 40
0.162558 0.320817 -0.019268 250 250 249
-0.108511 -0.134982 0.077496 35 32 37
-0.037031 0.250229 0.078046 26 24 25
0.283566 -0.264592 -0.024774 253 255 253
-0.107912 -0.204072 -0.096573 227 228 227
0.493515 -0.179618 -0.029395 253 252 254
-0.126662 -0.097544 -0.028178 23 21 102
-0.060327 0.273276 -0.086266 31 31 32
0.047214 0.338111 -0.015172 99 107 128
-0.123351 -0.121684 0.082635 244 243 244
0.353454 -0.238695 0.002293 254 255 253
-0.132145 0.046197 0.068184 216 217 215
0.136741 0.312606 -0.019178 207 207 208
-0.130660 -0.055649 -0.013921 34 33 39
-0.100787 0.115636 0.078929 192 192 190
0.079352 -0.341069 0.050528 251 253 252
-0.105893 -0.161035 -0.099316 238 239 239
-0.091062 0.206958 0.076905 34 42 109
0.562302 0.158543 -0.043278 253 253 253
-0.120632 -0.125714 -0.024452 23 27 115
0.076471 0.344831 0.033295 235 237 237
0.253103 -0.289062 -0.008954 201 201 201
0.333270 0.245982 -0.031483 253 253 252
-0.117278 0.116749 -0.010629 32 39 108
-0.090398 -0.199119 -0.039808 32 42 128
0.093970 0.339790 0.001095 253 253 252
0.024657 0.335627 0.042226 18 21 79
0.125378 0.322138 -0.018012 244 245 245
0.063355 -0.351662 -0.001256 190 190 191
-0.035974 0.271942 0.047117 26 29 89
-0.112288 0.106611 -0.090399 31 28 27
0.242421 0.294756 0.039890 252 253 253
-0.030370 0.288335 0.073548 175 175 175
0.362776 0.242769 0.002530 26 23 27
-0.059978 0.255556 -0.094911 34 23 22
-0.124911 -0.095486 0.033729 21 27 117
0.147608 0.331822 0.038725 194 194 194
-0.114144 -0.084683 -0.058124 31 31 31
-0.036835 0.299386 -0.071384 26 27 27
0.520432 0.173952 -0.010693 253 253 251
-0.104294 -0.187447 -0.043867 27 25 112
-0.086084 -0.229363 -0.085305 29 29 90
-0.101709 0.153687 -0.106680 30 30 27
-0.047849 -0.280956 0.035705 25 41 130
-0.055563 0.241972 -0.096279 176 175 171
-0.007356 0.323950 -0.007330 33 28 29
0.194738 -0.300854 -0.011106 253 254 252
-0.032219 -0.303901 0.022462 34 48 139
0.348915 -0.236865 -0.045341 249 251 250
-0.125987 0.028688 -0.020863 33 31 33
-0.024195 0.309502 0.030274 31 33 38
-0.133839 -0.050009 0.007217 30 30 31
-0.109185 -0.160854 -0.028449 26 27 112
0.249949 0.274243 0.007960 253 253 253
-0.084711 -0.228282 -0.093013 225 225 225
0.392576 0.230762 0.009444 253 254 253
0.199403 0.295078 -0.015021 251 253 251
0.508512 -0.177448 -0.067988 25 23 26
-0.075593 0.215433 0.049098 28 30 87
-0.076760 0.211258 0.056053 28 33 94
-0.112681 0.117175 -0.068532 61 79 144
-0.118243 0.126668 -0.018849 25 27 91
-0.032118 0.270073 -0.088164 169 169 169
0.002686 -0.329313 0.050569 49 72 163
-0.082259 -0.212181 0.024931 31 37 120
-0.111462 0.150353 0.013257 26 29 109
0.074147 0.329765 0.062256 94 102 117
-0.073536 0.197540 0.090664 33 29 28
0.337625 0.244571 -0.028166 253 253 252
-0.107710 -0.202359 -0.104717 33 33 33
-0.122247 0.095173 0.029103 28 33 103
-0.092708 -0.200545 0.018685 37 45 139
0.484631 -0.182299 -0.057921 251 252 253
-0.037702 -0.295592 -0.068736 71 88 152
0.048387 -0.357361 0.030401 228 229 229
0.091100 -0.348924 0.002445 195 196 194
0.016601 -0.331167 0.064554 28 29 32
0.038498 0.334332 -0.009469 209 210 210
0.293759 0.262080 0.003271 252 254 252
-0.093875 0.221045 -0.104963 155 157 157
-0.100286 0.179437 0.080086 23 28 99
0.434885 0.205708 0.011443 253 253 254
-0.134485 -0.036699 0.059272 33 35 33
-0.054603 -0.295921 -0.081130 230 229 228
0.009820 -0.346117 -0.013378 233 234 233
0.413881 0.216864 0.005633 253 254 253
-0.124136 -0.108431 0.030318 22 27 116
0.222939 -0.294082 -0.008677 249 250 249
0.534530 -0.167070 -0.049959 26 24 26
0.436873 0.213030 0.005857 22 24 57
-0.114032 -0.133714 0.008440 26 33 128
0.299718 0.262913 0.041020 253 254 254
-0.068764 -0.240621 0.006637 27 34 132
0.070625 0.346377 0.011276 248 249 250
-0.097660 0.188362 -0.006447 23 27 82
0.012527 -0.331835 0.069094 235 236 236
0.157532 0.316451 -0.025261 251 252 251
-0.049331 -0.266549 -0.020992 24 31 125
-0.128839 0.123071 -0.083374 28 32 30
0.021332 0.311592 -0.042288 28 29 30
-0.101602 0.120177 0.086835 195 194 193
0.005249 -0.323127 -0.034603 33 38 60
-0.037814 -0.282177 -0.095723 216 217 217
-0.032147 -0.299941 0.084728 42 61 142
-0.110637 0.126404 0.072475 36 46 109
0.105732 -0.340634 0.021429 196 196 196
0.395704 0.228339 -0.010808 24 27 73
0.382658 -0.225269 -0.053403 254 253 253
-0.061585 -0.244916 -0.100042 35 34 31
0.049112 0.324690 -0.020407 26 27 28
-0.131249 0.062901 -0.007149 48 62 140
-0.113558 0.156259 -0.066060 27 27 87
-0.090861 -0.215308 -0.034882 20 23 125
0.327869 0.249077 -0.033215 25 24 27
-0.120409 0.050601 -0.015249 22 26 101
0.279483 0.280111 -0.022811 172 173 173
0.367362 -0.229056 -0.026664 25 24 29
-0.121034 0.104577 -0.005844 30 33 100
-0.110775 0.145287 0.076508 21 24 110
-0.086594 0.215132 0.039832 36 43 113
0.166258 -0.329220 0.028110 250 253 251
-0.118420 0.076307 0.007766 26 30 100
-0.111059 0.147250 0.034526 26 29 103
0.087969 -0.340436 0.058984 152 153 151
0.103463 0.340863 0.051802 24 21 26
-0.091559 -0.219964 -0.083047 33 33 129
-0.107033 -0.134610 -0.077315 30 26 26
-0.082496 -0.243360 0.088301 45 45 51
0.297388 -0.259677 0.027945 249 250 250
-0.114847 0.108817 -0.004935 26 32 115
-0.127643 0.093398 -0.059644 31 28 31
0.549686 0.159741 -0.040665 252 254 254
0.152327 0.312024 0.008313 215 215 214
-0.084688 0.210384 0.062426 29 28 91
0.152754 -0.319122 -0.024389 205 206 206
-0.064301 -0.249949 0.005967 25 32 122
-0.060176 0.219592 0.082224 32 32 35
-0.076086 -0.233772 -0.095909 231 232 233
0.003466 0.322419 0.068010 30 26 31
-0.065636 0.267577 0.062026 46 46 63
0.425223 0.214407 -0.031249 25 26 27
0.032918 0.344124 -0.003001 253 254 254
0.027081 -0.326755 0.050586 43 68 145
0.460491 0.193974 -0.019753 251 251 252
-0.111857 -0.048284 0.011052 237 238 238
-0.100455 0.173379 0.050224 34 43 118
-0.030610 0.280787 0.010121 26 30 58
-0.087530 -0.206722 -0.021720 33 42 129
0.030395 0.334644 -0.014195 254 254 253
-0.102139 -0.163457 -0.099819 33 31 32
-0.117690 0.084206 -0.039060 23 26 103
0.484903 0.195042 0.018054 253 252 251
-0.116642 0.095144 0.095120 30 28 32
0.147368 0.312222 0.002053 251 252 252
-0.066842 0.245315 0.045402 17 23 99
0.321713 0.260420 -0.016576 252 253 251
0.101844 -0.340094 0.029155 168 169 167
-0.084002 -0.218114 -0.065419 24 29 120
-0.046387 -0.287812 0.093695 219 219 218
-0.125250 0.079639 0.010342 32 38 115
-0.016866 -0.303347 -0.040685 27 34 136
-0.063209 -0.234734 0.097796 29 28 34
-0.086127 -0.220703 0.074484 36 41 78
0.026006 0.322686 0.067397 29 30 33
0.525328 -0.172991 -0.027012 250 252 251
-0.125864 -0.085434 0.019837 18 20 106
0.153282 -0.319362 -0.013076 146 146 147
-0.131294 -0.031577 0.073391 35 35 37
-0.029266 0.282070 0.065745 29 28 30
-0.128816 0.035122 0.053362 37 47 132
-0.086293 -0.251776 0.081260 33 33 36
0.424620 0.210332 -0.030304 254 253 254
-0.125478 -0.114208 -0.057550 22 25 105
0.365625 0.244383 0.027684 251 251 250
0.520423 0.171663 -0.035263 26 24 28
0.333763 0.245895 0.014472 252 252 252
0.167151 0.321850 0.000456 250 250 250
0.304098 0.267508 0.001943 252 251 253
-0.059918 0.267517 0.087314 32 32 35
-0.094218 -0.197077 -0.108506 30 28 31
0.192718 -0.309005 -0.033630 182 183 184
-0.115183 0.039977 -0.035098 30 32 31
-0.057718 -0.269328 0.034780 40 56 134
0.044970 0.338143 -0.007856 201 202 201
-0.130430 0.040641 0.066196 220 221 219
-0.017637 -0.321008 -0.054554 30 32 31
0.351991 -0.244811 -0.046426 248 249 249
0.158771 -0.315250 -0.029222 250 252 250
-0.119338 -0.076166 0.043560 24 29 117
-0.095299 -0.175972 -0.090923 236 236 236
-0.066699 -0.218441 0.073751 43 59 142
-0.067835 -0.238680 -0.068108 33 34 120
-0.117152 0.010887 0.082293 249 249 250
0.141111 0.321106 -0.025541 254 254 254
-0.129011 -0.090878 0.017246 25 26 110
-0.104909 -0.168013 -0.068754 25 28 119
-0.115301 0.143797 -0.055111 28 30 83
-0.115204 0.115140 0.062933 22 28 117
0.143472 -0.337010 0.051864 146 146 143
-0.129702 0.023089 0.082951 226 227 225
0.387491 0.225761 -0.011014 253 252 253
0.047709 -0.352929 0.016715 248 248 248
-0.104243 -0.167214 -0.018976 19 24 115
-0.109329 -0.065381 0.037463 245 247 246
-0.107423 -0.071177 0.064631 234 236 236
-0.089497 0.186019 0.074091 23 27 103
-0.129136 0.039188 -0.031109 219 220 219
-0.091917 0.175928 -0.107608 31 26 26
0.278303 -0.276283 -0.044100 253 252 251
-0.076429 -0.266492 -0.100611 221 221 221
0.182346 -0.317021 -0.004324 247 249 248
-0.131719 -0.000033 0.002496 236 237 239
-0.118265 0.042995 -0.016635 74 88 157
0.330844 -0.244939 0.025431 253 254 252
0.151884 -0.315617 -0.032419 250 253 252
-0.078604 -0.241692 -0.103417 232 232 232
-0.027939 -0.310379 -0.023402 29 41 132
-0.069596 -0.229174 0.022090 46 64 153
-0.078162 0.239235 -0.103117 161 162 162
0.438742 -0.206365 -0.000695 27 31 74
0.439947 0.205836 0.001371 249 250 250
0.001127 0.310665 -0.014918 29 31 30
0.052488 0.341374 0.055825 250 250 250
-0.119242 0.100643 0.084115 30 38 121
0.247308 -0.281415 -0.018144 201 203 202
-0.005915 -0.319439 0.062194 41 64 145
-0.100249 -0.166704 -0.091133 32 33 31
-0.057306 0.240964 -0.102584 41 36 37
-0.067924 0.270931 0.081360 29 28 29
-0.107955 -0.198368 -0.092463 238 238 240
-0.039330 -0.302902 0.064522 29 28 31
0.055509 -0.339453 0.026943 26 27 26
-0.112358 -0.137979 0.021339 29 32 122
0.079849 0.343683 0.028894 248 248 248
-0.069130 -0.241922 -0.052605 27 34 131
-0.001297 -0.332626 0.028606 30 33 34
-0.056292 0.266814 -0.099594 174 175 174
-0.118558 0.062308 0.027707 19 24 107
-0.108315 0.145966 0.083440 30 31 33
-0.007453 -0.326305 0.018242 49 68 152
0.457942 -0.196424 -0.060699 27 28 52
-0.098265 -0.180695 -0.049716 23 26 112
0.207887 0.307542 0.004754 247 248 248
-0.117971 0.085492 0.018410 29 31 123
0.025426 0.332267 0.057625 251 253 253
-0.132616 0.049123 0.019702 18 19 107
0.453067 0.207060 0.024425 251 251 252
0.041788 0.331836 0.019593 233 233 234
0.307308 0.267098 0.010673 253 254 252
0.330502 -0.251533 -0.044944 26 25 27
-0.085964 -0.235738 -0.066098 22 25 118
-0.110379 -0.012324 0.033862 30 29 30
-0.073366 0.221108 -0.099979 168 166 166
0.480894 0.189270 0.019836 253 254 254
0.443320 0.209962 0.002242 254 254 254
0.183895 0.300931 0.021260 251 253 252
-0.118719 -0.155731 -0.104659 30 28 29
0.462306 -0.190976 -0.018622 254 255 254
0.222856 0.295968 -0.025119 177 178 177
-0.080430 -0.227393 -0.044368 27 26 108
-0.060270 -0.256648 -0.017280 30 41 111
0.023962 -0.328620 -0.000445 46 66 147
-0.072110 -0.240566 -0.078563 28 30 134
0.345501 0.248466 0.038272 253 253 253
-0.111538 0.104059 -0.085012 31 31 30
0.327891 -0.245934 -0.008227 216 218 217
-0.132527 0.040935 0.006274 34 40 127
0.440039 -0.203195 0.001146 253 254 252
0.133445 -0.339188 0.035145 253 255 254
-0.012627 -0.309196 0.029934 27 37 127
-0.087365 -0.184400 0.085532 28 30 32
0.117607 0.333124 -0.019005 250 250 250
-0.124217 0.077099 0.040632 23 25 114
-0.131053 -0.071502 0.006532 248 251 250
0.051298 0.328127 0.021524 191 190 190
0.298499 -0.265092 -0.043596 25 26 29
-0.118567 0.084237 0.045097 32 35 126
0.168984 -0.326188 0.035833 222 224 222
0.322066 -0.258026 -0.043586 252 254 252
0.315377 0.262531 -0.004347 24 26 57
0.153825 0.312832 -0.004948 250 251 250
-0.098509 -0.202800 0.098892 234 234 235
-0.004011 -0.314926 -0.022358 31 40 116
0.010825 -0.319428 0.027827 39 59 138
0.401374 0.216366 -0.001804 26 25 28
0.171709 0.318558 -0.003511 245 246 247
-0.041139 -0.266912 0.082972 43 61 137
-0.111424 -0.051005 0.030048 29 31 30
-0.009262 -0.298313 0.081990 39 59 127
-0.117260 0.117687 0.001111 19 22 108
0.013323 -0.335038 0.029552 213 215 214
-0.132285 -0.067148 -0.016981 243 244 244
-0.015506 -0.303382 0.010857 50 66 151
0.349475 -0.244094 -0.036148 253 255 254
0.017670 0.335215 0.002596 235 235 236
-0.008602 0.305917 0.077306 30 26 30
-0.091966 0.194033 0.040050 23 25 92
0.278764 0.279970 0.012487 252 253 252
-0.122840 0.098940 0.007623 28 30 108
-0.125548 0.093804 0.085489 30 29 31
0.033686 -0.333124 -0.034925 27 27 28
0.358692 0.242971 -0.002071 27 23 29
0.256817 -0.287424 -0.022193 254 254 253
-0.011712 0.274700 0.080882 33 26 28
0.297652 -0.259616 -0.033369 251 251 251
-0.121494 -0.112745 0.056734 21 26 121
0.524000 -0.172097 -0.054520 253 253 251
-0.033242 -0.297771 -0.024555 24 32 123
-0.118176 0.015324 0.006759 29 31 30
-0.079566 0.237179 -0.105010 35 35 37
0.081310 -0.350425 0.044978 116 121 126
-0.125405 0.124207 -0.085970 29 32 32
-0.134423 0.005170 0.048002 225 225 226
-0.125865 -0.012976 0.042013 30 31 30
0.022673 -0.340154 -0.007175 208 207 206
-0.055293 -0.262127 -0.057085 22 30 134
-0.122137 0.095769 0.077652 200 202 205
0.373142 0.237781 -0.009889 253 252 252
0.288322 0.275179 -0.031838 252 254 252
0.046153 0.347290 0.057651 252 253 253
0.013822 -0.305363 0.083788 27 28 29
0.224498 0.289131 0.030380 194 193 193
-0.132517 0.032812 0.066900 220 221 220
-0.015825 -0.295501 0.058277 40 58 138
-0.071703 0.257453 0.083733 181 181 180
0.005749 -0.312733 0.042179 42 61 144
-0.123462 -0.130028 0.079197 30 31 32
0.119360 0.332473 0.053905 201 200 199
0.076021 0.347806 0.009104 156 156 159
0.095607 -0.345618 0.011110 246 247 247
0.198482 -0.313004 -0.007064 212 213 213
-0.109208 -0.161985 -0.082757 23 21 114
0.293602 -0.260123 -0.032369 253 253 252
-0.112858 0.135271 -0.048084 22 27 98
0.038231 -0.343743 0.066228 115 127 158
0.501677 0.177217 -0.038962 29 28 32
0.318982 0.251509 -0.016480 27 24 28
0.412058 0.216392 0.012217 253 254 254
0.094706 0.339792 0.051139 194 194 193
0.228333 0.293986 -0.028040 171 172 172
-0.108420 -0.123870 -0.066315 29 30 33
0.374107 0.238862 0.007303 252 253 252
0.496565 0.181635 -0.037738 26 24 27
-0.062631 0.273324 0.070820 31 28 31
-0.085616 -0.222745 -0.080184 56 74 144
0.114717 -0.335820 0.028415 253 254 253
0.442798 -0.205453 0.001958 252 251 251
0.063479 -0.353470 0.054604 238 239 239
-0.107177 0.178721 0.094970 28 28 31
0.370250 -0.227980 -0.022804 251 252 252
-0.102969 0.165286 -0.091772 118 129 151
-0.098715 0.128272 0.088834 194 195 192
-0.081761 0.199836 -0.104594 31 32 33
0.489498 -0.186366 -0.010749 253 255 253
0.015141 -0.325430 0.060555 36 57 146
-0.050664 -0.272717 -0.080608 22 26 123
-0.111743 0.017516 0.003300 235 236 238
-0.093781 -0.204644 -0.087864 21 21 123
0.059925 -0.333815 0.049790 29 31 29
0.058430 0.333430 -0.000250 252 252 252
0.088023 -0.334659 0.059509 253 254 252
0.043460 0.337530 0.013766 237 237 238
0.379388 -0.231898 -0.053456 24 24 27
-0.121060 -0.094703 0.053655 33 31 36
-0.130615 -0.049811 0.024207 32 32 31
-0.011043 -0.301103 0.093353 212 214 213
-0.086554 -0.224205 0.025419 25 31 125
0.098403 0.340480 0.029043 246 247 247
-0.099678 0.188347 0.070492 22 28 104
0.337411 -0.241002 -0.023536 249 250 250
-0.007727 0.316308 0.070927 26 28 30
0.355619 -0.236882 0.002419 246 247 248
-0.072357 -0.231839 -0.096426 238 237 237
0.470851 -0.191789 -0.039539 24 23 26
0.474950 -0.186259 -0.006018 253 254 252
-0.093263 0.191142 0.055723 21 29 97
0.471188 -0.187485 -0.064631 25 25 41
-0.100377 0.181685 0.083829 18 23 105
0.264027 -0.286100 0.034282 200 202 201
0.348108 -0.240884 0.004545 251 254 253
0.142530 0.331172 0.049259 249 250 250
-0.087770 -0.192057 0.029052 25 36 122
-0.024878 0.312114 0.043788 31 29 32
-0.099529 -0.192450 -0.010964 21 26 120
-0.118824 0.107252 -0.005593 21 27 99
0.030163 -0.339669 0.006220 34 50 118
0.528787 -0.171299 -0.016074 251 252 251
-0.134099 0.009158 0.006608 238 239 239
-0.123106 0.096678 -0.013277 31 35 110
0.355535 0.238003 0.003284 253 253 252
-0.085162 0.198948 -0.096600 35 39 41
-0.106647 0.088396 0.082050 31 30 32
-0.083333 -0.221221 0.014764 22 30 118
-0.118505 0.102056 -0.007210 23 27 87
0.215559 -0.301171 0.042720 250 251 252
0.302779 -0.268518 0.028165 254 255 254
0.352591 -0.243115 0.021134 253 253 253
0.215434 -0.307622 0.002597 210 210 209
-0.117232 -0.172544 -0.093313 46 47 46
-0.105285 -0.016887 0.063805 36 37 37
0.215465 -0.298458 -0.033453 192 193 192
-0.013746 -0.307399 -0.007012 32 45 136
0.215408 -0.294899 0.043573 225 224 223
0.139651 -0.334423 -0.014150 252 252 254
-0.018522 0.282043 0.085921 175 175 174
-0.110300 0.128820 0.083115 33 41 117
0.247350 0.276243 -0.024194 179 180 179
0.170233 -0.325811 0.048847 250 250 250
-0.031301 0.269922 0.087677 172 172 172
-0.089447 -0.210135 -0.083671 31 36 112
0.319062 0.252061 -0.010239 28 23 28
-0.038651 0.268205 0.079448 28 30 31
0.121409 -0.323162 -0.024756 253 254 254
0.311462 -0.256368 -0.049062 253 254 254
0.412169 -0.209392 -0.049122 26 23 27
0.141130 0.315155 0.026011 251 252 251
-0.109927 -0.164945 -0.096614 28 28 29
0.377357 0.234997 -0.028630 26 24 30
-0.097846 -0.182395 0.037118 19 26 117
-0.079728 0.192187 0.095512 29 29 32
0.083924 -0.338336 0.033884 228 227 228
-0.021640 -0.322872 -0.063505 28 30 30
-0.127842 -0.107114 -0.078797 29 28 28
0.473193 0.194079 -0.031530 26 24 32
-0.098211 0.139642 0.094476 192 193 192
0.207228 0.294337 0.008875 253 252 253
-0.096506 -0.209644 -0.096444 27 27 124
0.001220 -0.304505 0.075168 36 62 144
0.153616 -0.318228 0.015613 210 212 212
-0.108122 -0.161111 0.099822 245 245 246
-0.125204 0.129494 -0.101378 31 32 29
0.151756 -0.318779 0.001202 250 251 252
-0.128112 0.024486 0.082598 249 250 251
-0.132813 -0.024076 0.012355 242 242 242
-0.096711 -0.194917 0.053936 20 27 112
0.322062 -0.257663 -0.044516 253 254 253
-0.049795 0.251520 0.089701 25 27 28
0.056995 -0.346436 0.019987 251 253 252
0.316462 -0.259017 -0.014749 251 253 252
0.169409 -0.312260 -0.012491 251 254 252
0.328217 0.245537 -0.024494 253 254 253
0.241492 0.294272 0.000736 173 174 175
-0.098236 -0.200871 -0.010896 26 32 124
0.099036 0.322092 -0.012619 248 250 249
-0.117761 0.070886 0.018106 20 29 89
0.162937 0.323896 0.036682 250 252 251
0.131080 0.335642 -0.006668 229 230 230
-0.106706 -0.066275 0.065306 233 233 233
-0.111215 0.145431 0.075138 24 29 110
0.038581 0.344958 0.011348 25 29 25
0.071933 -0.337145 0.059284 28 25 28
-0.104168 0.136841 0.087930 202 202 202
-0.132863 0.031406 0.020117 30 29 29
-0.048242 -0.254872 0.076151 35 32 37
0.190587 0.314297 0.030967 203 203 202
-0.064931 -0.256522 0.083407 40 56 146
0.478045 0.190766 -0.018598 253 254 253
0.187102 -0.306537 -0.007239 184 185 186
-0.110512 0.146051 -0.015526 20 23 96
-0.047963 -0.292843 -0.095549 50 50 54
0.390410 -0.224968 0.013899 253 254 252
-0.084107 -0.204445 -0.095041 34 33 33
-0.118138 -0.146317 -0.072920 33 34 38
0.139798 0.315775 0.007254 227 227 228
-0.129642 0.059758 0.069486 31 34 33
0.289149 -0.260391 -0.040208 182 183 182
-0.114437 0.190403 -0.093603 161 161 163
0.426519 -0.204883 -0.020896 21 23 47
0.262571 0.283696 0.010297 250 252 250
0.082215 0.333429 0.038263 24 26 25
0.345919 -0.249623 -0.036650 250 252 251
0.018328 -0.340717 -0.028501 201 202 199
-0.113664 0.151028 -0.078210 30 25 82
0.061911 0.344122 -0.009080 247 248 248
-0.111543 0.006797 0.017282 32 31 33
-0.053832 0.286570 -0.084637 188 189 188
-0.030479 -0.310628 0.063080 214 213 213
-0.112022 -0.040019 0.011611 250 250 251
0.051224 0.331245 -0.001001 235 235 236
-0.116505 -0.135771 -0.003515 27 31 129
0.049803 -0.344814 0.058800 245 246 246
0.061491 0.347973 -0.008837 247 248 248
0.258271 0.287866 0.034334 197 194 195
0.062909 -0.341426 -0.006641 28 25 27
0.263736 -0.277557 0.021159 252 254 252
0.183335 -0.312405 0.010611 249 250 249
-0.111764 -0.065701 -0.008796 244 245 245
-0.112835 -0.056531 0.040641 237 237 240
0.429848 0.216260 0.010993 253 253 252
0.065369 0.347343 0.002661 251 253 252
-0.062431 -0.262356 0.043462 23 33 121
0.123088 -0.342979 0.027097 254 255 255
-0.009731 0.290076 0.064730 162 163 163
-0.124061 0.065646 -0.046648 23 23 89
0.009769 0.318809 0.064076 200 200 199
-0.031279 -0.317841 -0.073062 40 34 37
0.373619 -0.229282 0.005970 254 254 253
0.232172 -0.303515 0.026542 220 223 222
-0.110740 -0.147691 0.078411 33 32 36
0.071622 0.342452 -0.009049 251 252 250
0.251396 0.279688 -0.028323 251 253 251
-0.064193 -0.242002 -0.100408 224 224 222
-0.064425 0.217695 0.092110 30 26 27
0.096606 -0.334309 -0.002300 175 175 174
0.052302 0.348246 0.009523 232 233 233
-0.077909 -0.234983 0.066770 30 42 118
0.109970 -0.341504 0.021830 249 251 250
0.276317 0.278169 -0.016223 251 252 252
0.478097 -0.191165 -0.010958 252 255 254
-0.061150 -0.230117 0.094834 48 52 54
0.030196 0.323931 -0.033040 32 29 27
-0.108838 -0.119222 -0.077789 34 35 34
0.266670 -0.275069 -0.039690 251 252 252
0.295724 -0.268357 -0.048299 253 255 254
-0.027675 -0.304685 0.013892 28 42 125
0.439267 -0.205009 -0.044997 249 249 249
0.546634 0.160584 -0.024736 254 255 253
-0.105882 -0.155133 0.097164 32 30 34
-0.005588 -0.336332 0.027638 33 32 35
0.210026 0.301757 -0.024103 185 186 185
0.029010 -0.324188 0.071998 37 68 147
-0.001252 -0.317502 -0.005103 44 63 141
0.005762 -0.332424 0.000593 83 100 157
-0.105184 0.155565 0.065142 22 28 109
-0.113109 0.140546 -0.064269 35 38 81
0.235595 -0.287204 0.025874 201 200 200
-0.110858 -0.039560 0.012236 31 30 31
-0.102265 0.170488 -0.019524 19 23 97
-0.105137 0.149416 -0.103441 30 29 29
0.314585 -0.252877 -0.020143 249 251 251
-0.112450 0.151897 -0.064346 25 27 90
0.222584 0.301922 0.040987 180 179 180
0.026538 -0.331974 0.011719 38 62 147
0.221199 0.300965 0.037743 185 186 185
-0.131531 0.055388 -0.033826 28 26 26
-0.043383 -0.308923 -0.076210 31 30 32
-0.030093 -0.290533 0.019051 28 38 121
-0.084719 0.173806 0.086262 30 32 32
-0.066161 0.232186 0.073327 22 28 104
-0.111193 0.031959 0.027960 217 217 215
0.010376 -0.336128 0.069609 28 31 31
-0.074060 -0.244092 0.008785 22 29 124
0.141878 0.329272 0.035776 252 254 253
0.531213 0.167584 0.010335 252 254 252
0.056833 0.341227 0.060352 213 217 218
0.008935 0.294701 0.058735 33 27 25
0.118796 0.322025 -0.010242 250 251 251
-0.127351 0.111873 -0.088931 33 32 30
-0.089479 -0.210274 0.065748 20 28 122
-0.066798 0.264884 0.082127 26 28 29
-0.116678 0.085300 0.038811 19 25 108
0.341111 0.250211 -0.011448 26 24 54
-0.123323 -0.106927 0.036658 28 36 127
-0.112152 -0.086354 -0.034237 30 32 32
0.027644 -0.342297 0.063401 251 252 252
0.330828 -0.244450 -0.002985 253 254 254
-0.111499 -0.055129 0.020842 249 251 251
0.372243 -0.225781 -0.043304 248 249 248
-0.074223 -0.238882 -0.018256 35 45 142
0.498298 0.180398 -0.031416 253 255 252
0.212112 0.304543 -0.004724 194 195 195
0.250833 0.289694 0.005850 252 254 253
0.025767 0.307428 -0.042315 187 187 187
0.214024 -0.293683 -0.029626 172 173 171
0.038635 -0.343461 0.031474 46 71 149
0.064891 -0.340654 -0.017375 251 250 250
0.488594 0.185786 0.020471 252 253 253
-0.031517 0.275955 -0.086410 32 31 32
0.257472 -0.279122 -0.011590 180 181 181
-0.079880 0.257159 -0.102367 39 28 29
0.031838 -0.345567 0.030062 93 110 155
0.478201 0.190288 -0.004858 253 255 255
0.248643 0.288352 -0.028666 250 251 250
0.215729 0.296046 -0.026657 250 251 252
-0.114918 0.022329 -0.007101 42 43 43
-0.096790 0.187777 0.063752 21 26 100
-0.120143 0.127111 -0.078877 25 27 67
-0.114691 -0.017140 0.082422 249 250 250
-0.128500 -0.032623 0.064053 248 250 251
0.507482 -0.176623 -0.064103 25 23 27
0.141187 -0.338455 0.041495 248 249 250
-0.085947 0.217509 -0.002068 28 33 94
-0.024490 -0.291431 -0.015667 30 39 123
-0.127996 -0.090927 -0.061993 248 248 249
-0.110088 0.168725 0.021967 28 32 105
