ply
format ascii 1.0
element vertex 1180
property float x
property float y
property float z
property uchar red
property uchar green
property uchar blue
end_header
-0.102000 -0.233638 -0.005347 102 132 185
-0.087037 -0.058562 -0.038198 127 132 135
0.283257 -0.138832 0.020684 255 255 254
0.053946 -0.227355 0.065388 254 255 254
0.069760 -0.217963 0.043079 253 254 253
0.261658 -0.137781 0.056914 254 254 255
0.185861 0.155434 0.035165 254 255 254
0.164252 -0.172062 -0.004520 255 253 253
0.023479 -0.227470 0.002214 255 254 253
-0.083942 -0.184934 -0.064614 103 148 231
-0.100417 -0.257863 -0.044377 102 146 224
-0.073384 -0.277713 -0.010981 254 255 255
-0.097173 0.114921 -0.062672 104 146 226
0.281902 -0.134915 0.072729 255 254 254
-0.086375 -0.097612 -0.080995 101 138 207
-0.090661 -0.163340 -0.039553 102 147 233
-0.086958 0.257662 -0.016570 133 140 147
0.330600 -0.110023 0.014721 255 254 255
0.269095 0.118447 0.063169 254 255 255
0.325403 -0.112347 0.045809 254 255 254
-0.069767 -0.270210 0.060322 254 255 254
-0.078960 -0.114198 0.011708 126 128 131
-0.001677 -0.246751 0.038832 254 254 254
0.085056 -0.211108 -0.014922 254 255 253
0.238094 0.135504 0.053138 255 253 253
-0.088889 -0.157786 -0.089849 101 138 206
-0.007540 -0.249193 0.010011 254 254 255
-0.104454 -0.123226 0.008288 106 136 191
-0.083655 0.257904 -0.042925 131 133 136
-0.054221 -0.260515 0.062876 253 254 254
-0.096496 0.160736 0.018778 102 146 227
-0.089613 0.209273 0.052574 104 145 224
-0.081844 -0.215633 0.045283 104 146 222
-0.086545 -0.079058 -0.019747 136 140 142
0.024833 -0.235979 0.003259 254 253 254
-0.094307 0.088701 -0.006304 102 140 210
0.033980 -0.226522 -0.018772 252 254 253
0.338901 -0.114069 0.069201 254 253 255
0.240695 -0.155256 0.061196 255 253 254
-0.081321 0.069001 -0.041339 126 129 131
-0.098970 -0.127060 -0.048509 122 135 160
-0.095315 -0.181205 0.052722 136 140 140
-0.006900 -0.247681 0.030141 253 254 253
0.006671 -0.233319 -0.002335 252 253 253
-0.073289 0.281341 0.042445 255 255 255
-0.087348 -0.262187 -0.041359 104 137 201
0.246419 -0.150872 0.040495 254 254 255
-0.097060 0.220414 0.016327 104 148 228
-0.088562 0.105663 -0.088507 103 147 228
-0.087205 0.132195 -0.082879 104 149 232
-0.101939 -0.151595 -0.015659 103 138 202
0.092521 -0.209896 0.008714 255 255 254
0.046502 -0.214539 0.040902 255 255 254
-0.099197 0.233834 0.046112 115 132 154
-0.082806 -0.104064 -0.003136 104 144 223
-0.026565 0.261756 0.004635 255 254 253
-0.095278 -0.194802 -0.082317 103 148 230
0.002097 0.242262 0.064485 255 255 253
0.345472 -0.109828 0.024003 252 253 255
0.162835 0.171774 -0.002260 254 254 253
0.079448 -0.205150 0.042305 252 254 255
-0.083080 0.215433 -0.019084 104 146 222
0.349146 0.085420 0.054474 255 255 255
-0.083419 0.154748 -0.046464 131 131 133
-0.103947 -0.095807 -0.050823 104 140 204
0.365914 -0.109925 0.052655 255 255 254
-0.086609 0.282195 -0.004176 253 253 253
0.322607 0.103514 0.041938 254 254 254
0.170483 -0.171317 0.061122 254 253 254
-0.102116 -0.244224 -0.070670 103 150 232
0.034970 -0.220588 0.058527 253 253 254
-0.081978 -0.242883 -0.054706 129 131 132
0.019051 0.231982 0.023284 254 254 253
0.196023 -0.159197 0.000788 254 253 254
-0.075890 -0.058199 -0.029028 105 144 217
-0.052723 -0.258371 0.020123 254 255 255
0.148935 -0.175494 -0.005709 251 253 252
-0.092812 -0.050388 -0.078017 135 141 147
0.075938 -0.218348 0.045355 254 255 255
0.352961 -0.103538 0.058175 255 255 255
0.310424 -0.117167 0.056442 253 254 255
-0.080705 0.242885 0.027381 103 148 230
-0.047239 0.258731 -0.017562 254 254 253
0.110169 -0.193987 0.040921 253 253 253
0.082810 -0.211785 0.007183 253 254 254
0.153522 -0.178490 -0.004044 254 254 255
0.091990 -0.205371 -0.012338 253 253 254
-0.100898 -0.106900 -0.080002 103 148 229
-0.093385 0.234343 0.042634 104 142 213
0.365142 -0.099060 0.015695 254 254 254
0.034352 0.225441 0.005483 255 255 253
0.236905 -0.154805 0.039223 254 254 254
0.019513 0.239926 0.020278 253 255 255
0.262872 0.118795 0.023864 255 255 254
0.211798 0.151818 0.015938 254 255 254
-0.081487 0.196100 -0.017062 129 133 135
-0.097905 0.175348 -0.070866 102 148 231
-0.059794 -0.258851 0.003604 254 254 254
0.263369 -0.146243 0.007599 253 253 254
-0.106621 0.063292 -0.070230 123 129 133
-0.043789 -0.263572 0.001227 255 254 255
-0.070882 0.274422 -0.024772 253 255 255
-0.099048 -0.240694 -0.066778 102 140 206
0.229568 0.138645 0.063970 255 254 255
-0.084603 -0.106510 -0.007737 102 140 208
-0.077329 0.229401 0.003726 105 149 229
-0.100153 0.179125 -0.007735 116 134 167
-0.070142 -0.271668 0.046005 255 255 253
0.121317 -0.191570 0.037948 254 255 255
-0.044846 0.271668 0.057757 255 255 254
-0.077379 -0.119018 -0.067062 129 130 131
0.208615 -0.158264 0.049999 255 253 255
0.004365 0.244634 -0.022303 253 254 253
-0.085931 -0.060207 -0.047376 103 146 229
0.044053 0.229711 0.045913 255 253 254
0.120124 0.200646 -0.002907 253 253 255
-0.104006 0.160507 0.017114 113 128 154
-0.076674 0.129370 0.012564 102 142 219
-0.083748 -0.197552 -0.077447 104 147 226
-0.085121 0.188543 0.049162 103 129 176
-0.098510 0.171265 0.032145 103 139 209
0.181331 0.167926 0.044037 253 254 254
-0.092288 -0.146894 -0.092224 106 128 167
-0.100037 -0.036519 -0.035196 127 134 141
-0.068310 -0.273369 0.057499 255 254 253
-0.105718 -0.147690 -0.030863 106 148 223
0.240671 -0.154449 0.019903 255 255 254
-0.085963 0.216582 -0.069110 104 143 213
0.027206 0.226747 0.057223 254 253 253
-0.086465 0.277830 -0.026221 254 254 253
0.147664 -0.182198 0.036330 253 254 254
-0.082581 -0.101090 -0.001023 104 148 230
-0.084893 0.206740 -0.040345 101 138 207
-0.094850 -0.131217 -0.058344 103 147 227
-0.081589 0.184280 0.004119 103 142 218
0.016868 0.233209 -0.004819 255 254 254
0.100021 0.207760 -0.013538 254 254 254
0.284564 -0.138958 0.057533 254 255 253
0.207015 0.152727 0.004242 255 253 254
-0.020356 -0.244481 0.024045 254 255 254
-0.084638 0.254923 0.029870 101 128 179
-0.098664 0.117253 0.028484 129 133 140
-0.030195 0.253459 -0.008957 255 255 254
-0.080942 0.136855 -0.039138 102 135 197
-0.053297 -0.258549 0.067165 254 253 253
-0.083028 -0.117589 -0.027993 102 145 223
-0.099245 0.087092 -0.083989 103 138 202
-0.091936 -0.152474 -0.091927 131 134 136
0.351542 -0.103850 0.021173 255 254 254
0.064318 -0.208396 -0.012202 253 253 255
0.191101 0.152214 0.034828 255 254 255
-0.081856 -0.202357 0.033260 130 135 134
0.337201 -0.108127 0.037456 254 253 254
-0.093042 0.074576 -0.009173 105 150 233
-0.097325 -0.150937 -0.023649 122 126 130
-0.095525 -0.119443 -0.060211 103 145 221
0.112156 0.198830 0.063546 254 254 255
-0.095171 -0.113492 -0.098745 102 146 229
0.225023 -0.151731 0.032169 254 254 255
0.084075 -0.201583 0.012759 253 253 253
-0.098421 0.226321 0.006668 104 148 232
-0.083386 0.183795 -0.069815 129 128 131
-0.078458 0.246042 0.024874 109 140 195
0.176018 -0.167381 0.002364 255 255 255
-0.084093 -0.128602 -0.035868 125 132 143
-0.089852 -0.226503 0.053868 130 136 139
0.149420 -0.191294 0.035077 255 254 254
-0.078311 0.111311 0.036426 125 130 131
0.068098 0.221922 -0.002907 255 255 255
0.339390 0.087377 0.024912 254 255 255
-0.085704 -0.151124 0.032328 102 143 215
0.188108 0.166512 0.057113 254 254 254
-0.080167 0.041071 -0.063800 105 136 190
-0.092236 0.275961 -0.006817 105 143 212
-0.058242 0.275228 0.025669 254 255 254
0.136665 0.178466 0.039736 253 253 254
-0.108330 -0.160921 0.015883 126 129 133
0.148685 -0.180889 0.006011 253 254 255
0.008830 -0.231257 -0.005422 255 255 254
0.314183 0.102529 0.002124 255 254 254
0.323098 -0.110327 0.048218 255 255 255
-0.003426 0.251260 0.017435 253 253 254
0.047891 -0.226871 0.042458 254 255 253
0.369858 -0.106561 0.028857 253 255 255
0.326289 0.106982 0.045468 253 253 254
-0.058702 -0.268807 0.027660 255 254 254
-0.009903 0.245882 -0.011592 253 253 254
0.004275 -0.244030 -0.023554 253 253 253
0.015205 0.233523 0.004031 253 254 253
0.110190 -0.201544 0.065815 253 253 255
0.269823 0.127686 0.019510 253 254 254
-0.016370 0.247200 0.011310 254 255 254
0.283497 0.111270 0.059864 255 255 253
-0.100102 -0.274189 -0.015496 105 148 230
0.199232 0.148653 0.055879 254 255 255
-0.015736 -0.242106 -0.021742 254 255 255
-0.081691 -0.256548 -0.060947 106 150 231
0.036006 -0.226359 0.063270 253 255 255
-0.100464 0.073016 -0.076832 104 136 195
0.111407 -0.201828 0.061059 253 255 253
-0.086593 0.280209 -0.028842 103 141 213
-0.087165 0.137906 0.039288 101 143 220
-0.083711 0.252279 0.024995 132 133 133
-0.105833 -0.068605 0.028854 123 131 140
0.208188 -0.155586 0.007211 254 254 252
-0.102509 -0.116378 -0.038443 132 137 137
-0.013476 -0.240012 0.026572 255 255 255
-0.084882 0.267535 -0.027634 121 129 134
0.317444 -0.115117 0.011802 254 253 253
-0.103179 0.231843 -0.015339 105 146 228
0.189010 -0.177484 0.065040 254 255 254
-0.089573 0.081030 0.010463 102 141 212
0.243872 0.126714 0.045458 254 254 255
-0.092794 0.102275 -0.008763 104 147 230
0.077182 0.208038 0.019817 254 255 253
-0.096424 0.084427 -0.077964 102 145 227
0.018314 -0.228841 0.020308 252 253 253
0.058978 -0.214299 0.017597 254 255 253
-0.028497 0.259135 -0.019532 254 254 254
0.034640 0.233553 0.063826 255 255 253
0.102178 -0.208024 0.056202 255 254 254
-0.080141 -0.118197 0.009869 126 128 132
-0.043527 0.259533 0.021786 254 254 255
-0.083107 -0.039589 -0.045638 123 130 137
-0.097079 0.078360 0.008330 104 148 232
0.149681 0.181777 0.000824 252 254 255
0.224927 -0.151038 0.037798 253 254 253
0.314265 -0.126571 0.011660 255 253 254
0.368499 0.085524 0.028005 255 254 255
-0.084504 -0.266084 -0.032705 102 139 203
-0.090715 -0.182251 -0.082719 102 136 193
-0.104694 -0.179320 0.043998 103 132 186
-0.104576 0.099069 -0.085407 102 138 206
0.145851 -0.191366 0.068596 255 255 254
0.239684 0.142924 0.022765 254 255 254
-0.095030 -0.233917 0.034516 104 141 206
-0.076948 0.110856 0.026596 129 130 131
0.033010 -0.223547 0.034945 255 255 255
-0.096742 -0.114290 0.022863 102 140 209
-0.083644 -0.039707 -0.021885 102 143 220
-0.094954 -0.115452 -0.063442 102 147 232
0.155387 0.181579 0.036269 253 254 254
-0.076760 -0.265619 0.000375 253 255 254
-0.106088 0.229009 0.002957 104 136 197
-0.104999 -0.145644 0.005367 104 146 223
0.296681 -0.121511 0.008731 253 254 254
-0.085860 0.208757 -0.075835 103 147 228
-0.098025 -0.192835 -0.023054 102 147 231
-0.088408 0.275944 -0.001039 252 254 254
0.003427 0.244476 0.064343 254 254 254
-0.078275 -0.040147 -0.037536 105 129 170
0.186891 0.153523 0.044726 254 254 254
-0.081167 -0.191093 0.009538 103 147 227
0.265378 -0.136126 0.022121 253 254 253
-0.033797 0.254934 0.006350 253 253 254
0.325099 -0.110808 0.008008 254 254 253
-0.085483 0.065789 -0.015935 105 129 172
-0.010481 0.242438 0.063722 254 254 255
-0.104557 -0.175003 0.028981 131 135 139
0.102227 -0.206681 0.002831 254 254 254
-0.105167 -0.189804 -0.063079 134 137 138
-0.047268 -0.254434 0.039775 253 253 253
0.096601 -0.195486 -0.012493 254 253 254
0.260987 0.118880 0.033132 253 255 253
-0.088688 -0.097865 -0.042826 103 138 203
-0.096679 -0.061074 -0.076935 102 148 230
0.339659 0.097929 0.052525 254 254 253
0.256682 0.126289 0.065124 255 254 255
-0.092869 0.203811 0.049367 101 139 211
0.083810 0.213302 0.012353 254 253 253
-0.100075 -0.149622 -0.016050 102 148 232
0.023856 -0.224989 -0.009044 254 255 254
0.326164 -0.110878 0.019934 253 254 255
-0.011044 0.254268 -0.015728 254 254 253
0.030768 0.224924 0.019915 253 253 255
-0.095909 0.213000 0.042577 129 138 151
-0.081732 0.126982 -0.069464 124 129 131
-0.030509 0.263666 0.023045 254 255 254
-0.051130 -0.265702 -0.022417 253 253 253
0.336034 0.098861 0.063912 255 255 255
0.239882 0.143032 0.020863 253 253 253
-0.099022 -0.200976 -0.024201 104 148 227
-0.025395 -0.253503 -0.024264 254 255 255
-0.005243 -0.245952 0.010720 208 207 206
0.203110 -0.169815 0.020847 255 255 255
-0.080824 0.043593 0.022369 104 131 175
0.276834 0.112860 0.055162 253 253 253
0.320461 -0.124172 0.044575 253 255 255
-0.084650 -0.027976 0.013556 122 127 130
0.167806 0.164258 0.039991 254 254 253
0.300869 0.102377 0.047165 254 255 253
0.096724 0.210161 -0.007618 253 253 253
0.069214 0.215654 -0.005801 254 255 254
-0.093426 -0.179206 -0.084176 104 148 231
-0.079455 -0.183608 -0.064019 103 144 222
0.190165 -0.164622 0.023242 253 254 253
-0.085260 0.277883 0.049035 252 254 252
-0.079497 0.160489 -0.065620 103 137 201
-0.096664 0.105300 -0.069068 103 147 225
0.239175 0.142146 0.057543 254 254 254
-0.104506 -0.141333 -0.003889 102 140 208
-0.083345 -0.145125 -0.021701 130 131 133
0.192427 0.152633 0.031562 254 254 254
0.150054 0.180703 0.064855 255 255 254
-0.077133 -0.055902 0.025347 134 138 139
0.039956 0.234132 0.034599 254 255 254
-0.084869 0.143242 -0.095820 105 144 217
0.047729 -0.214944 0.014009 254 255 254
-0.082218 -0.268132 0.044293 253 254 252
-0.085462 0.150645 0.005129 103 136 196
0.044544 0.231665 0.004813 254 255 253
-0.085970 -0.267090 -0.014967 254 254 254
0.241332 -0.153921 0.030366 253 253 255
0.083005 -0.202327 0.027934 255 255 255
0.144366 0.172985 0.059514 253 254 254
-0.017804 0.258029 0.016334 255 255 255
0.098011 0.211987 0.000210 254 255 253
-0.055137 -0.255089 0.051272 254 254 255
0.053842 0.216566 -0.004411 253 254 255
-0.098401 0.061982 -0.036620 103 135 187
-0.081641 -0.036399 -0.031841 128 130 132
-0.098567 -0.255484 -0.003775 103 141 205
-0.081724 0.250785 -0.056312 127 131 131
0.026971 -0.235507 0.040968 253 255 253
-0.025858 -0.247027 0.030085 255 255 255
-0.104099 0.105330 -0.014144 103 147 228
0.173615 0.172673 0.054583 254 253 253
0.059948 -0.210984 0.031744 254 254 254
0.252249 -0.137439 0.019244 254 254 254
-0.061069 -0.269473 -0.007963 254 255 254
-0.076831 -0.077095 0.003688 122 131 146
-0.102075 -0.167677 0.042515 131 133 134
0.200199 0.159077 0.057008 253 253 255
-0.100664 0.103813 -0.099335 101 141 213
-0.097995 -0.151081 0.028503 128 130 133
-0.081264 0.232816 -0.061234 104 144 225
-0.015079 -0.250935 0.040163 253 253 253
-0.047331 -0.263502 0.039597 254 255 255
-0.079864 -0.153256 0.010851 125 129 131
-0.098194 0.253936 0.021536 102 138 205
0.067126 0.212442 0.011528 255 255 254
-0.083031 0.188461 0.024330 126 130 134
-0.084239 -0.277059 -0.016268 127 133 134
-0.093067 -0.228759 -0.077405 105 149 229
-0.080393 0.039722 0.024804 132 134 137
0.295429 0.102288 0.054213 254 253 255
-0.086067 -0.157801 -0.062183 127 131 135
0.232998 -0.149457 0.066445 254 253 254
-0.085506 0.082550 -0.011730 101 135 195
0.054655 0.216471 -0.017523 255 255 254
0.042722 -0.219685 -0.019019 254 254 255
-0.086600 0.236468 0.052073 106 129 174
-0.096479 0.189485 0.030091 126 132 137
-0.084989 -0.219680 -0.037455 107 135 186
0.311946 0.098161 0.063374 255 254 255
0.226127 0.147392 0.044698 255 254 255
0.355713 -0.112820 0.026611 255 253 255
0.019597 0.228975 0.030530 253 254 255
-0.080447 -0.249838 0.007048 107 127 162
-0.074087 -0.114606 -0.061070 102 138 201
-0.091109 0.159523 -0.066500 103 145 226
-0.035745 0.266121 0.007173 255 255 255
0.277853 0.125527 0.013086 254 255 255
0.011072 0.230724 0.053462 254 255 254
-0.099059 -0.237237 -0.020661 128 126 128
0.225184 -0.157805 0.068034 254 253 254
-0.035185 -0.263830 0.061604 255 254 254
-0.086625 0.114437 0.041024 133 138 140
0.111724 0.203628 0.040064 255 253 252
-0.092043 0.047109 -0.020143 104 141 208
-0.085925 -0.186379 0.016329 128 135 142
0.014688 -0.240267 0.031173 253 255 254
-0.095243 0.068873 -0.081523 128 136 142
-0.100675 -0.181074 0.029314 104 142 215
-0.089572 -0.276716 -0.030064 103 137 198
0.225192 0.138783 0.065669 255 254 255
0.119655 0.200239 -0.003859 255 255 255
-0.097683 -0.033696 -0.035939 103 141 209
-0.076568 -0.218889 -0.017011 104 148 227
-0.099629 -0.113159 0.009946 102 144 217
-0.096976 -0.206407 -0.061350 103 140 209
0.284918 -0.126506 0.051920 254 255 255
0.194555 -0.174799 0.030431 254 255 254
-0.085030 -0.148817 -0.066916 131 136 138
0.357659 -0.100826 0.033824 254 255 255
0.328688 0.088442 0.019890 253 254 253
0.296593 0.115839 0.056718 254 254 253
0.326768 -0.110082 0.065268 253 253 253
0.318532 0.103804 0.006835 254 255 254
-0.103178 0.193489 -0.051896 102 143 217
0.307055 0.108497 0.062224 255 254 255
0.219924 -0.162006 0.048332 255 255 254
0.008177 -0.243991 0.024481 255 254 255
-0.096165 0.030572 -0.024203 125 130 131
-0.096116 0.049227 -0.068942 103 145 222
-0.081393 0.252967 -0.053808 101 132 186
0.142058 0.184341 0.051810 255 255 254
-0.097559 0.134352 0.030470 101 142 215
0.082362 0.214840 0.023837 255 253 254
0.042128 0.231654 0.049224 254 255 254
0.057699 -0.222322 0.023109 253 254 254
-0.099875 0.091434 0.017086 104 132 182
-0.096026 0.164302 0.045011 110 130 168
-0.084381 0.213584 -0.080164 102 141 211
-0.072483 0.135775 -0.009327 101 142 214
0.107845 0.192379 0.047093 253 254 254
-0.086450 -0.200082 -0.020876 101 134 194
-0.103218 0.078048 0.021743 106 133 181
-0.106267 0.267009 -0.034414 106 139 197
-0.005544 -0.245226 0.038903 255 254 253
-0.057549 0.275458 0.020747 255 255 253
-0.074142 -0.274129 0.048564 253 255 254
-0.101173 0.242007 -0.061134 120 128 133
0.110791 0.200565 0.047040 254 254 253
-0.095587 -0.211354 0.020310 105 148 226
0.263539 0.131246 0.018240 253 255 253
-0.023903 -0.255713 0.041751 254 253 253
-0.082051 0.064677 0.028434 101 137 204
-0.034398 0.250801 0.060280 255 254 255
-0.004780 -0.247931 0.006485 254 254 253
-0.101732 -0.169974 -0.000524 138 142 143
-0.085914 0.122522 0.022591 129 135 137
0.238804 0.130449 0.011404 255 255 255
-0.100518 0.081415 -0.083770 123 132 136
0.335688 -0.111451 0.069871 254 253 255
-0.098338 0.202414 -0.070299 103 145 223
0.151540 0.184358 0.029277 254 255 255
-0.009286 0.242044 0.025444 253 255 254
-0.090042 -0.248474 0.042876 129 132 135
0.310535 0.108887 0.031422 254 254 254
0.146615 -0.179967 0.059612 253 254 254
-0.092481 -0.056146 -0.006193 104 145 220
0.022967 -0.237017 0.045165 254 255 253
0.235096 0.142801 0.026478 255 255 255
-0.074090 -0.273971 0.035560 253 254 253
-0.100411 -0.039035 -0.040163 105 146 229
-0.087112 -0.148420 -0.053958 128 130 131
0.310247 0.100201 0.063437 253 254 254
-0.024062 0.249903 -0.009245 252 253 254
0.139228 -0.183908 0.030740 254 255 253
-0.022264 0.249007 -0.006977 253 255 255
0.127653 0.193210 0.031401 254 253 255
0.322866 0.093210 0.047245 254 253 253
-0.099110 -0.181186 -0.088691 126 135 146
0.149238 -0.177400 0.017859 254 255 255
-0.098188 -0.253983 -0.026479 103 148 230
-0.094807 -0.037028 0.018970 103 141 207
-0.040065 0.268350 0.054307 254 255 254
0.139739 0.175775 0.024186 255 255 255
-0.078561 -0.133486 -0.028134 101 144 221
-0.037649 -0.251778 0.026627 253 254 253
0.352007 -0.113703 0.039260 254 255 254
-0.076687 0.270571 0.031743 255 255 254
-0.002880 -0.253536 0.024336 254 253 254
-0.017458 0.245336 0.056025 254 255 255
0.341975 0.087147 0.024076 253 253 253
-0.067413 -0.258217 0.000807 253 255 255
0.014989 0.244734 0.028082 254 254 255
0.176972 0.169995 0.046474 253 253 253
0.241811 -0.152154 0.024241 254 254 254
-0.080824 -0.138100 0.038869 125 130 131
0.038156 -0.217885 0.043291 253 254 253
-0.095230 0.217530 -0.078379 130 128 134
-0.098123 -0.051943 -0.076832 105 133 183
0.011326 0.240820 0.063743 255 255 254
-0.102773 0.171092 -0.014500 104 142 213
0.005028 -0.233474 -0.015866 252 253 254
0.293992 0.113387 0.064699 255 255 255
-0.027313 -0.261803 0.027170 254 254 253
-0.004901 0.240332 0.027027 254 254 255
-0.074578 -0.094380 -0.071111 102 137 199
-0.081049 -0.239278 -0.062984 120 130 146
-0.083843 0.139823 -0.090133 103 148 233
0.056960 -0.221742 0.025997 254 253 254
-0.092934 -0.094451 0.032245 102 146 227
-0.097477 -0.185547 -0.017378 104 144 219
-0.081178 -0.221164 -0.058905 102 141 211
-0.090787 -0.196679 0.050246 102 141 212
-0.057104 0.274973 -0.007830 254 254 255
0.266363 0.129532 0.016967 255 255 253
-0.098657 -0.266294 -0.015486 103 145 220
-0.084695 -0.095079 -0.035722 102 144 221
-0.001569 -0.245346 -0.023224 254 254 255
0.311296 0.096784 0.013895 255 254 255
-0.081674 -0.074337 -0.001327 130 132 135
0.074484 -0.215358 0.025810 254 253 254
-0.096734 -0.198735 -0.035900 104 148 229
-0.081372 0.280971 -0.020531 124 133 144
-0.098626 0.262860 -0.011655 107 134 185
0.164092 -0.173665 0.066173 255 255 255
0.018392 -0.227496 0.025182 253 254 253
0.121776 -0.186963 0.057839 254 254 253
-0.079307 -0.148055 0.023815 101 134 190
0.305681 0.100665 0.064831 252 253 254
0.011976 0.244959 0.011500 253 254 254
-0.094750 -0.047360 -0.069834 102 149 232
-0.089814 -0.030171 -0.011590 101 132 189
0.298846 -0.132997 0.056615 254 254 254
-0.080927 -0.138641 -0.006529 103 147 227
-0.092543 0.097829 -0.006158 102 147 231
-0.097731 -0.090205 0.008444 128 129 130
0.302767 0.107207 0.063469 255 255 255
0.262918 -0.137377 0.043168 255 254 253
0.159707 0.171230 0.008323 253 254 253
-0.076770 -0.059970 -0.030032 102 142 214
0.330149 -0.109637 0.034675 254 253 253
-0.096277 -0.248236 0.042959 132 134 137
-0.053310 0.266973 -0.017316 254 255 255
-0.073263 -0.261648 0.010119 255 255 254
-0.097161 0.174964 -0.016823 103 141 209
0.034271 -0.216439 0.065322 252 252 254
0.098982 -0.204775 0.049330 255 255 255
-0.104233 0.254216 -0.061513 105 145 219
-0.096984 0.125974 -0.090241 102 140 208
-0.086713 -0.231684 -0.058515 103 138 199
0.088098 0.201305 0.047127 254 255 255
-0.099735 0.228556 -0.071461 131 128 131
-0.083609 0.142651 -0.095197 121 129 145
-0.095059 -0.059695 -0.070835 104 148 231
0.213317 -0.155971 0.036393 254 254 255
0.036921 0.230922 -0.020509 253 253 253
0.287336 0.120995 0.015280 254 255 253
-0.082944 0.051269 -0.056466 112 131 162
-0.088516 0.105442 -0.054992 102 148 234
0.261337 0.122079 0.021009 253 254 253
0.167221 -0.173673 -0.001972 253 254 254
0.290169 -0.129142 0.003967 254 254 253
-0.084073 -0.211178 -0.056222 133 133 133
-0.086644 -0.249800 -0.008722 135 142 146
0.151233 -0.186715 0.041991 254 253 253
-0.088809 -0.184255 -0.086583 105 132 180
-0.097969 -0.079428 0.003409 104 147 228
-0.079934 0.247983 0.013326 130 131 133
-0.093847 0.224453 -0.004898 101 141 213
-0.041193 -0.250309 0.038863 254 254 255
-0.018310 -0.243367 -0.001783 254 254 253
-0.008373 0.244694 0.043774 255 255 255
-0.102779 0.139656 -0.099029 106 146 219
0.047079 -0.218076 0.056636 255 254 255
0.081674 0.215691 0.034456 254 254 254
-0.100907 -0.200317 0.029574 104 141 209
0.177935 -0.178356 0.014020 253 254 254
0.014265 0.232999 -0.016193 254 254 255
-0.093238 -0.203100 0.031951 103 138 201
0.067851 -0.217868 0.011621 255 255 254
0.007594 0.237634 -0.006083 255 255 254
0.244806 0.126600 0.009999 254 255 254
-0.093790 0.148936 0.013666 105 149 230
0.325468 0.091229 0.036837 255 254 253
0.121047 -0.189669 0.004147 253 255 254
0.181547 0.161708 0.064829 254 254 254
0.350033 0.083630 0.014164 253 253 253
-0.078600 0.066151 0.020946 102 144 223
0.107555 0.203305 0.002370 255 254 254
-0.078233 -0.237025 0.019698 104 140 207
-0.098585 -0.042384 0.011658 131 133 135
-0.097209 0.270027 -0.059257 105 144 219
0.199415 -0.169666 0.003492 253 254 254
-0.073810 -0.056663 -0.040195 104 146 227
-0.073419 -0.275288 0.023904 254 254 254
0.210555 0.145975 0.044228 253 254 255
0.107006 -0.194988 0.003557 254 254 253
-0.091120 -0.123938 -0.094946 103 149 234
-0.099236 -0.253507 -0.021978 105 146 225
-0.023159 -0.256008 -0.001065 253 254 253
-0.101851 0.166733 -0.046649 104 148 227
0.180769 -0.177913 0.005919 255 255 255
-0.104953 0.218405 0.019563 107 129 172
-0.082961 0.237730 -0.057067 103 136 192
-0.087977 -0.168375 -0.008436 104 149 233
0.056981 0.214700 0.038323 253 253 255
-0.080619 0.273635 0.042735 255 253 253
-0.074346 0.110951 -0.000523 130 132 132
0.048779 -0.216211 0.058109 255 255 255
-0.082532 -0.270022 -0.017972 253 254 255
0.141095 0.189065 0.022513 254 253 253
0.012400 -0.231008 0.043527 253 253 253
0.086875 -0.211760 0.065045 254 253 253
0.136121 0.180727 -0.009172 253 253 254
-0.090393 -0.077348 0.031994 105 140 204
0.011210 -0.241799 -0.000723 254 254 253
0.014438 -0.230558 0.035598 253 255 255
-0.084014 -0.114470 -0.071950 128 134 138
-0.083476 0.116362 0.027397 102 147 229
-0.099709 -0.266269 0.029083 126 130 135
-0.026963 -0.256306 0.034627 253 254 254
-0.088729 -0.276149 -0.025887 103 141 213
0.277273 0.113001 0.002271 254 255 254
0.187541 -0.162000 0.034455 254 254 254
-0.095684 -0.241288 -0.060439 130 132 133
0.060219 -0.220649 0.005918 254 255 253
-0.006968 -0.239611 0.031638 254 254 254
-0.090608 0.039299 -0.053870 103 142 214
-0.090438 -0.045247 -0.063525 108 137 192
-0.087184 -0.155776 -0.050181 124 128 131
0.167152 -0.169466 0.028523 253 255 255
0.242246 0.141893 0.017512 254 254 254
-0.073803 0.281116 -0.021195 255 253 255
-0.098311 0.214577 -0.022035 101 142 216
-0.092273 -0.278671 -0.021625 104 144 216
-0.056781 -0.260332 0.060611 253 253 254
-0.096865 0.175604 0.047227 102 140 209
-0.077710 0.177387 0.039147 123 128 130
-0.093248 -0.039374 0.021755 103 149 233
-0.086597 0.059831 -0.025336 103 140 209
-0.088963 0.089612 0.003863 103 145 225
-0.100809 -0.184838 -0.016824 105 138 196
-0.099649 -0.224820 -0.076656 131 134 138
0.152489 -0.186595 0.033091 255 254 254
-0.082043 -0.226847 -0.056965 121 127 131
0.350467 -0.102958 0.052361 252 252 253
0.329029 -0.109627 0.023968 255 255 254
-0.086566 -0.133968 -0.092762 121 129 131
-0.051252 0.262265 0.029944 254 255 254
-0.088705 -0.147454 -0.039233 103 146 227
-0.027594 -0.255308 0.045260 254 255 254
-0.097076 -0.146199 0.033861 129 134 133
-0.100144 0.066998 -0.086289 102 135 195
-0.098558 -0.127078 -0.001857 102 142 218
-0.087921 -0.105236 -0.094824 102 136 198
0.209110 -0.156845 0.016479 254 253 255
-0.095143 0.135202 0.011264 126 132 138
-0.101162 -0.216102 0.021811 102 144 220
-0.091878 0.047810 -0.067252 103 143 216
-0.081461 0.159521 0.048480 153 158 156
-0.099152 0.187591 -0.087782 130 131 134
-0.086132 0.119661 -0.022912 100 137 205
-0.084029 -0.127849 -0.002266 130 131 131
-0.081394 0.242070 0.015135 126 133 148
-0.076000 -0.091837 -0.050436 130 133 133
-0.089973 -0.154736 0.046544 128 135 140
0.247479 0.127080 0.062846 254 255 254
0.051558 -0.224945 0.050001 253 255 254
-0.082041 -0.075084 -0.087216 103 147 227
-0.074457 0.283333 0.048376 253 254 254
0.088868 0.199204 0.062149 254 255 254
-0.085977 0.222936 -0.065422 102 142 215
-0.101337 0.210876 -0.069370 103 148 231
-0.044042 -0.266360 0.062749 255 255 255
-0.096754 0.215401 0.038584 103 149 232
-0.096172 0.089440 -0.069887 104 145 222
-0.085332 -0.218465 -0.028161 100 136 200
-0.093507 -0.167152 0.028352 105 135 192
0.185972 0.156421 0.066635 253 253 255
-0.103537 -0.244661 -0.034562 102 145 224
-0.104327 -0.227395 0.029190 104 148 229
-0.089103 0.284899 -0.023899 125 130 137
-0.036980 0.254499 0.004197 254 253 254
-0.095418 0.093247 -0.013593 104 138 199
0.042336 0.222079 0.008209 255 255 253
0.298898 -0.131810 0.032508 254 255 254
0.151020 -0.176661 -0.003129 253 255 254
0.166031 -0.171526 0.069184 255 254 255
0.093327 0.200357 0.025850 254 255 253
-0.090842 -0.205508 -0.079465 106 142 215
0.264385 0.115945 0.029042 253 253 253
0.255361 0.122724 0.012168 254 255 254
0.185406 0.156001 0.064298 254 255 253
0.033780 -0.226480 -0.020020 254 255 253
-0.095828 -0.125966 0.043909 102 138 199
-0.055960 -0.269298 -0.022053 255 254 253
0.214223 0.139791 0.007397 253 255 255
0.277659 -0.133660 0.056373 255 255 255
-0.082046 -0.282680 -0.009742 254 254 253
-0.043275 0.269525 0.011427 255 255 255
0.214403 0.141701 0.049597 254 254 254
-0.077496 0.077518 -0.072152 130 131 133
-0.086022 0.258154 -0.066455 103 142 212
0.027872 -0.233429 0.032982 253 254 254
-0.076276 -0.088585 -0.023938 131 137 139
-0.082597 -0.043937 0.001586 102 148 231
-0.081489 -0.129973 0.042889 104 140 208
-0.084371 -0.252083 0.030105 104 140 207
0.273909 -0.130611 0.026358 254 253 253
-0.094195 -0.149193 -0.017750 105 149 230
0.152512 -0.177603 0.013599 254 254 255
0.023708 0.227830 0.001064 255 255 254
-0.000755 0.251215 -0.010703 253 253 254
-0.086818 -0.133219 -0.065761 102 141 214
-0.016500 0.256399 0.019334 254 254 254
0.071872 0.208000 -0.009242 253 254 254
-0.014687 0.246254 -0.006937 253 255 254
-0.008220 0.245453 0.007697 255 255 255
-0.094617 0.173949 -0.013424 104 146 222
-0.077844 -0.087481 -0.079509 104 144 223
0.131869 0.178943 0.016051 255 254 255
-0.058991 0.264163 0.007177 254 255 254
-0.083943 -0.227106 0.023457 105 147 226
-0.064927 0.268002 0.044833 255 254 253
-0.098790 -0.116395 -0.032412 126 130 132
-0.096126 -0.257668 -0.037108 103 145 221
-0.095003 0.205710 0.026493 127 131 133
-0.079145 0.155764 -0.077632 101 132 190
-0.058431 0.264026 -0.005631 254 255 255
-0.015239 0.245131 0.001083 255 255 255
-0.039666 -0.262013 0.011049 253 255 255
0.075506 -0.205665 0.001061 252 253 253
0.046113 0.226101 0.063875 253 255 254
-0.093119 0.093001 -0.097722 104 143 215
-0.078770 0.273334 0.034324 254 255 255
0.089897 -0.202589 0.068179 254 255 255
-0.089556 -0.277673 0.032416 253 255 253
-0.095911 0.046703 -0.059948 104 148 232
0.101373 0.197732 0.062527 254 255 253
-0.100465 -0.265469 0.009642 105 149 231
0.312223 0.109062 0.047351 255 253 253
0.241182 0.142559 0.017135 253 254 253
0.166701 0.175614 0.034576 254 255 254
0.055620 -0.227129 0.035137 254 254 255
-0.081506 -0.031863 -0.038874 103 148 231
-0.087442 0.149651 -0.098467 105 143 211
-0.101799 0.045428 -0.028532 104 143 212
-0.098053 -0.181541 -0.056335 109 135 179
0.000200 0.240842 0.016109 255 253 254
-0.077544 0.052162 -0.044951 104 142 218
0.272107 0.112403 0.012002 254 254 254
-0.028976 0.249749 0.039193 254 254 254
-0.085007 0.224940 0.032999 102 146 226
0.339495 0.096820 0.017165 255 253 253
-0.085472 0.077009 -0.035979 101 147 230
0.185154 0.166739 0.033964 254 255 254
-0.080647 -0.157884 -0.030003 102 141 216
-0.083106 -0.208777 -0.070803 127 130 133
-0.095622 -0.124745 0.023418 133 133 134
-0.101377 0.175757 -0.031956 132 135 138
0.236807 -0.157008 0.062616 255 255 253
0.135590 -0.193777 0.020533 254 254 254
-0.058573 0.276709 0.060809 253 253 253
-0.096081 -0.053326 0.028319 105 131 181
0.357077 -0.111975 0.018537 253 254 253
-0.081631 -0.264894 -0.019527 129 136 148
0.215722 -0.154691 0.045004 253 254 253
-0.082214 0.134406 0.010905 131 131 133
0.124970 -0.198778 0.061415 255 255 255
0.179485 -0.183883 0.034730 253 254 254
-0.100762 0.131844 -0.034692 103 148 231
-0.096994 0.135076 -0.095452 101 138 205
-0.085599 0.137052 0.011122 101 143 218
-0.081648 0.232776 0.042303 102 147 231
-0.088380 -0.159783 0.041672 102 145 227
-0.098949 0.202224 -0.035956 104 141 209
0.153615 -0.187768 0.014309 255 255 254
0.260229 0.122164 0.063964 254 254 254
0.198765 0.162759 0.011894 255 253 255
-0.096274 0.039144 -0.042122 103 148 231
0.248845 0.136827 0.062804 255 255 255
-0.067245 -0.271698 -0.013381 253 254 255
0.142801 0.184831 0.034720 254 255 254
-0.081469 -0.118906 0.034201 103 129 176
-0.095449 0.171973 0.031751 102 134 192
0.228318 -0.157392 0.068809 254 254 255
-0.008505 0.253646 -0.004485 253 254 254
-0.042438 0.268828 0.032802 253 254 254
-0.075454 0.148770 0.040822 130 136 139
-0.094631 -0.103716 -0.086554 106 142 205
0.081177 -0.203139 0.000084 252 253 252
0.091757 0.199610 0.055946 253 253 255
-0.095460 0.065508 -0.052967 107 137 190
-0.079461 0.073962 -0.021667 103 148 232
0.185479 0.155090 0.044887 254 255 254
0.038979 -0.230668 0.012003 254 255 255
-0.028253 -0.248985 -0.024939 252 253 254
0.077525 0.207128 0.010620 253 254 253
-0.085827 -0.232995 0.020499 102 130 178
-0.010203 0.243359 0.031451 254 255 255
0.150850 0.168125 0.014682 255 255 254
-0.100952 -0.080511 0.000794 104 145 220
-0.097771 0.192263 -0.060703 127 130 132
0.010724 0.244444 0.043160 254 255 253
-0.100035 0.050074 0.024078 125 132 134
-0.010180 -0.241197 0.033989 253 254 253
-0.085011 -0.140785 -0.060911 102 150 232
0.060458 0.213337 0.009220 253 255 253
0.259313 -0.146840 0.055492 253 254 254
-0.068486 0.269036 0.061963 253 255 254
0.046496 -0.226466 0.062409 254 255 254
-0.085866 -0.046103 -0.066228 105 146 225
-0.045882 0.271500 -0.005797 254 254 254
-0.082776 -0.118873 -0.022137 101 147 229
0.117772 -0.191815 0.065809 253 253 254
-0.007978 0.254832 0.007264 254 254 254
-0.081431 -0.118124 0.020861 122 132 142
-0.097104 -0.222361 -0.070584 103 139 204
0.188276 -0.173392 0.048715 254 255 254
-0.080816 -0.184651 0.050130 167 168 172
-0.094954 0.105791 -0.064953 101 135 193
-0.059298 0.275610 0.024748 252 254 253
-0.014447 0.256427 0.012255 254 254 254
0.271214 0.118883 0.035380 254 254 254
-0.024298 -0.246915 -0.000419 255 255 254
-0.096132 -0.275369 -0.003008 102 136 193
-0.106709 0.159686 0.021938 105 146 223
-0.024853 -0.246498 0.009946 253 255 255
-0.072574 0.282118 0.047692 255 254 254
0.047213 -0.223986 -0.022456 254 253 254
-0.080557 -0.279500 -0.016515 255 255 255
-0.080381 -0.239282 -0.073174 106 136 185
-0.096672 -0.119084 -0.089339 103 143 214
-0.008759 -0.250320 0.061048 254 254 255
-0.098352 0.171858 0.007342 102 148 231
-0.105993 -0.166363 -0.052705 123 129 136
0.038069 0.226588 0.062858 254 255 254
0.030204 -0.233044 0.044074 253 254 254
0.286659 0.110237 0.059404 253 255 255
0.134841 -0.182836 0.046347 254 254 254
0.086379 0.206755 0.052192 255 254 255
-0.099286 -0.255461 -0.033011 104 149 230
-0.102097 0.115268 0.034098 104 145 222
0.194888 -0.173241 0.006694 253 253 253
-0.018766 -0.242332 -0.014327 252 252 254
-0.084563 -0.239112 -0.069697 125 129 131
0.082085 -0.202055 0.012953 253 253 253
-0.057197 0.259744 0.001282 253 253 255
-0.102937 -0.184760 0.050049 104 143 213
-0.033971 0.254722 0.039483 253 254 253
-0.094359 0.099415 0.017669 104 143 219
-0.091464 -0.149077 -0.089596 104 149 234
-0.103925 -0.205626 -0.084593 127 134 144
0.166972 0.164281 0.019102 253 255 253
0.027089 -0.234009 0.042789 254 255 255
-0.081135 0.093278 -0.066913 129 132 135
-0.081885 -0.045699 -0.066924 102 137 197
0.303803 -0.131352 0.065217 255 255 254
0.074263 0.209400 0.001345 255 255 254
0.170579 0.159956 0.002675 255 255 253
0.021742 -0.232780 0.062791 255 255 254
-0.061763 -0.260371 0.001142 253 254 254
-0.083794 -0.157329 -0.014896 102 134 191
-0.084646 -0.056798 -0.065785 104 146 229
0.145593 -0.189466 0.059157 254 255 253
0.025784 -0.226518 0.061559 253 255 255
-0.083423 0.274025 -0.018098 253 253 254
-0.079953 -0.060470 -0.084337 105 149 229
-0.098241 0.116748 -0.036923 105 140 207
-0.028567 -0.249730 -0.027623 255 255 255
-0.078931 0.137464 -0.041408 102 146 229
-0.108281 -0.174011 0.014683 104 147 224
-0.079771 -0.138447 -0.047421 102 133 187
0.203717 0.148880 0.042871 255 253 254
-0.092569 -0.044532 -0.018870 103 148 231
0.337600 -0.109074 0.034520 254 254 254
-0.070059 -0.273412 -0.018701 255 255 253
0.218176 0.141387 0.030831 253 255 254
-0.094679 0.154118 -0.053984 102 145 222
0.221568 -0.150425 0.005035 254 255 254
-0.088172 -0.270903 0.008791 253 253 253
0.119102 -0.189248 0.057298 254 254 254
-0.003837 0.241952 0.049180 255 254 255
0.356508 0.076733 0.015651 255 254 254
0.090950 0.198809 0.037079 254 253 255
0.150608 -0.178496 0.017810 254 254 255
0.239086 -0.155111 0.007586 255 253 254
0.155293 -0.174632 -0.003244 252 254 254
-0.097069 -0.157606 -0.017349 102 140 210
-0.020359 -0.243766 0.051877 255 255 254
0.041258 -0.219326 0.003137 253 254 253
0.162920 0.177009 0.031924 252 253 253
-0.087887 0.081184 -0.083376 122 128 139
0.301087 0.103903 0.051448 253 255 254
-0.085355 0.279757 -0.042600 126 129 133
0.031361 0.237735 0.017722 253 253 253
-0.094706 0.181306 0.047663 103 135 193
-0.087188 -0.148637 -0.052408 102 149 233
-0.073883 0.279200 0.004834 255 254 253
0.011351 0.248340 -0.013921 255 255 253
0.291489 0.108041 0.043830 253 254 255
-0.096387 0.188618 0.017083 104 141 206
-0.082003 -0.195143 0.031374 103 142 219
-0.099078 -0.053754 -0.069618 125 131 134
-0.040842 0.269786 -0.012327 254 254 254
-0.107317 0.126642 -0.056259 102 141 212
0.300327 0.112273 0.065177 253 253 255
0.147521 -0.180908 0.050815 254 255 253
-0.080926 -0.249750 0.021337 134 138 138
0.200959 0.154657 0.037863 209 210 209
-0.083614 -0.082397 -0.089663 129 135 137
-0.096593 -0.210953 -0.003973 101 136 197
-0.096682 -0.264653 0.030106 106 145 216
-0.093742 0.192868 0.048819 105 146 228
-0.082632 -0.110927 -0.015429 105 145 221
0.013732 0.231126 0.030916 254 255 254
-0.101061 -0.138681 0.039373 127 131 136
-0.089128 0.253221 -0.068922 132 135 134
-0.104210 -0.109416 0.004635 104 140 206
-0.016507 -0.242132 0.058590 254 255 255
-0.083615 0.072562 -0.069532 102 144 219
-0.013343 0.261783 -0.001397 253 255 255
-0.084940 -0.073998 -0.015555 102 147 231
0.015497 -0.225818 0.050831 254 254 254
-0.080860 -0.043899 0.019228 130 129 132
-0.099122 -0.035130 0.001369 103 148 230
0.286791 0.113726 -0.001152 255 255 254
0.076132 -0.220532 0.063787 255 255 255
0.016002 -0.238876 0.016913 255 254 255
-0.017403 -0.250830 0.052299 253 255 253
-0.078858 0.063237 -0.017527 104 144 221
-0.083403 -0.056133 -0.050725 103 146 230
0.018702 0.243153 -0.004408 254 253 254
-0.081712 -0.202912 0.051402 122 131 132
-0.104273 -0.260557 -0.033502 133 137 138
-0.098706 0.205955 0.045802 101 142 219
-0.083158 0.230108 -0.011222 105 133 184
-0.098137 0.202921 0.035380 104 149 232
-0.011525 -0.241694 0.035566 254 253 255
0.148409 0.184153 0.024295 253 254 255
-0.075694 0.142987 -0.091047 129 131 135
0.219541 -0.166557 0.052389 255 254 254
0.002909 0.242313 0.065345 254 253 255
-0.019047 0.246436 0.018109 255 255 254
0.358742 0.077750 0.023849 254 253 255
-0.078546 0.165666 0.049316 102 146 225
0.267089 -0.129451 0.068816 253 254 255
-0.101745 -0.180273 -0.086398 103 129 176
-0.085110 0.181951 0.050819 132 129 131
-0.081655 -0.151534 0.025371 103 135 193
-0.100007 -0.215347 -0.003196 103 146 227
-0.081383 -0.043813 -0.007429 105 149 229
-0.046301 0.271203 0.048496 254 254 255
-0.099107 -0.051995 -0.044179 102 141 207
-0.102735 -0.125405 0.032358 110 129 159
0.283870 -0.125601 0.034989 254 255 255
0.039845 -0.231531 0.041069 255 254 253
-0.083913 -0.196363 -0.082383 129 130 131
0.025064 0.229764 -0.010512 254 254 254
0.291622 -0.134438 0.015937 254 255 255
-0.059769 -0.269166 0.023218 254 255 255
-0.077710 0.078847 0.032703 133 136 136
0.196941 -0.170749 0.042555 255 255 253
0.158962 -0.183672 0.066732 254 255 254
-0.061237 -0.270245 -0.007411 253 255 255
-0.098854 -0.067978 -0.083790 133 135 137
0.137562 0.190173 0.003635 254 253 254
0.090201 0.203903 0.063260 254 255 254
0.049149 -0.227202 0.063870 253 254 254
0.019114 -0.238894 0.055864 253 253 254
-0.099254 -0.067685 -0.078986 137 135 137
-0.013661 0.243715 0.048617 254 254 253
-0.039263 0.258031 -0.003419 255 255 254
0.339523 -0.118082 0.061845 254 253 253
0.037296 -0.220917 0.044805 254 255 253
-0.056430 -0.258922 -0.011759 255 255 254
-0.083990 -0.100162 -0.052812 129 130 131
0.218177 0.143233 0.063943 255 254 254
-0.025052 0.249781 0.029464 254 255 254
0.208507 -0.158100 0.016711 255 255 255
-0.094332 0.058917 -0.018455 104 149 232
-0.081469 -0.084171 -0.033259 131 133 134
-0.103090 -0.277261 -0.020494 103 141 210
0.074981 -0.216567 0.044683 254 254 254
0.263307 -0.148268 0.048243 254 253 255
0.279852 0.112400 0.000301 253 254 254
-0.099316 -0.156266 -0.070803 103 150 232
-0.087037 0.262385 -0.030513 104 134 192
-0.078110 0.090501 0.024883 128 129 132
-0.089692 0.163887 0.045477 128 132 135
-0.085978 0.043295 -0.019411 102 134 192
0.021315 -0.227440 -0.012529 253 253 253
-0.095865 -0.166441 -0.057554 106 133 178
-0.081747 0.184535 -0.010334 104 145 222
-0.088823 0.085373 -0.066724 106 130 169
0.184217 -0.175469 0.042160 255 255 253
-0.103358 0.124704 -0.029094 104 149 232
-0.009078 0.255099 0.024361 254 255 254
-0.077450 0.154494 0.026155 101 146 228
-0.088433 -0.034411 0.016939 104 144 216
0.147319 0.185227 0.048502 254 254 254
-0.079152 0.041082 0.015283 105 138 195
-0.102048 -0.265304 -0.052022 130 132 133
-0.098179 0.138501 -0.016005 104 143 213
-0.098603 -0.169605 -0.062700 128 134 136
0.323651 -0.122441 0.032217 254 255 254
-0.083050 -0.090939 -0.068421 102 148 231
-0.081456 -0.275188 -0.020208 255 255 255
-0.010186 0.244999 -0.000592 255 255 255
-0.083174 0.056739 -0.035839 124 126 128
-0.042137 0.268747 0.045666 254 254 255
-0.093040 0.095957 -0.100478 120 127 133
-0.010757 0.243065 0.060915 253 254 255
-0.005512 -0.246793 0.056977 254 254 255
0.248938 -0.139953 0.055738 255 255 253
0.320373 0.100255 0.013535 253 255 253
-0.086308 -0.021105 -0.001012 121 130 133
0.002557 -0.245864 -0.001962 253 253 253
0.144348 -0.192580 0.008960 255 255 254
-0.100501 0.184961 -0.077614 131 129 133
-0.094359 0.244985 0.005705 103 147 231
-0.093654 0.119282 -0.098976 126 138 151
0.024952 -0.233965 0.063508 254 255 254
0.028042 -0.229752 0.063671 254 255 255
0.050952 0.218843 0.008341 254 255 253
0.206511 0.144771 0.019866 253 255 255
-0.100524 -0.249574 -0.050057 102 131 182
-0.103188 -0.090096 -0.093660 107 145 213
-0.074764 -0.038390 -0.013988 103 130 177
-0.085707 0.144396 -0.083551 130 131 135
-0.016294 -0.254146 -0.023258 252 253 253
0.308014 0.096727 0.050955 254 253 254
0.215560 -0.165591 0.057594 254 254 255
-0.102502 0.139851 -0.087054 104 149 230
0.327595 0.101428 0.043449 254 255 255
-0.101322 -0.151920 0.042230 101 135 196
0.242577 -0.156906 0.028559 254 254 255
-0.079765 0.219195 0.032539 127 129 133
-0.099203 0.138750 0.007286 101 136 202
-0.087803 0.282070 -0.030642 125 132 138
-0.063700 0.279003 0.008493 253 254 253
-0.098076 0.213559 -0.007073 102 144 223
-0.085129 0.285038 0.059821 252 253 253
0.239392 0.130768 0.056023 254 253 255
0.251106 -0.153816 0.019771 255 255 255
0.164428 -0.170069 -0.002086 255 255 254
-0.099029 0.095115 -0.077889 102 144 222
0.191015 0.164685 0.043026 255 254 255
0.352459 -0.112508 0.016875 255 255 255
0.207309 -0.166049 0.038231 255 255 255
-0.040561 -0.252987 0.031804 254 255 254
0.039937 -0.228895 0.033444 255 255 255
-0.078083 0.181499 -0.008129 102 145 223
0.045611 0.219464 0.058359 255 255 255
-0.100883 -0.059567 -0.032141 103 139 202
0.151605 -0.187891 0.005425 254 255 254
0.277295 -0.126477 0.063763 253 253 255
-0.103610 0.110727 -0.034910 102 141 209
0.210407 0.155765 0.023709 252 253 253
-0.082349 -0.243628 -0.070404 127 130 132
-0.088836 0.177703 -0.014501 103 129 174
0.194568 -0.170081 0.018415 253 253 253
0.325054 -0.111888 0.030109 253 255 255
-0.096868 -0.231055 0.020566 102 143 219
-0.084725 -0.267514 0.053582 254 255 253
0.004815 -0.229959 0.043524 254 255 255
-0.109441 0.137856 -0.065223 107 131 175
0.222994 0.135508 0.064155 253 254 254
-0.078969 0.135185 0.001147 125 131 134
-0.083463 0.255348 0.020651 103 139 206
-0.090902 -0.119153 0.035614 127 131 134
0.016310 -0.240592 0.057739 253 253 254
-0.107447 -0.167044 -0.014395 104 135 189
0.000413 0.250630 -0.007419 254 254 254
-0.001835 -0.236232 0.031159 254 255 254
-0.088538 -0.270293 0.031895 254 254 253
0.295770 0.117232 0.057555 255 255 254
-0.096241 0.229823 0.040813 131 129 133
-0.109561 0.128875 0.031849 103 143 215
-0.097316 -0.104011 -0.037811 123 126 130
0.185619 -0.176471 0.059244 253 253 255
0.223533 0.140017 0.028319 255 253 254
-0.092350 0.055638 -0.075386 103 149 232
-0.084430 0.177741 -0.062132 103 135 194
0.162306 0.167946 0.015770 253 253 255
0.099618 -0.208588 -0.008902 254 253 255
-0.106717 -0.186525 -0.004568 103 135 191
-0.064769 -0.268559 0.044728 253 255 254
-0.095013 0.235683 -0.035497 104 140 202
0.066639 -0.209097 -0.009615 254 255 254
-0.064658 0.280578 0.000969 252 253 254
-0.089170 0.186570 -0.089797 102 135 190
-0.084418 0.107475 0.016538 122 129 131
-0.102963 -0.042456 0.022775 126 130 137
0.067459 0.208761 -0.011605 255 255 255
-0.102335 0.211588 -0.010048 105 132 183
-0.093084 -0.216900 0.030992 104 133 187
0.039458 -0.231087 -0.023815 255 254 254
0.272601 0.120852 -0.000398 253 253 254
0.205115 -0.160161 0.051951 252 254 253
0.026835 -0.236964 0.062237 254 254 253
-0.080064 -0.086003 -0.048925 102 144 221
-0.084086 -0.281993 -0.000550 253 253 255
0.268778 -0.134236 0.061877 254 255 255
-0.080394 -0.146033 0.038710 104 139 204
-0.092736 0.079794 0.006000 104 146 222
0.267435 0.117268 0.022188 254 253 254
-0.075055 -0.059749 -0.048421 130 135 139
-0.083155 0.249230 -0.000787 126 137 154
-0.077848 0.137663 -0.022947 104 143 218
-0.081058 -0.045834 -0.003675 131 132 132
0.170747 -0.174218 0.067344 255 255 254
-0.093233 -0.133961 0.021444 101 144 222
0.240648 -0.145232 0.043290 254 254 254
-0.079874 0.114665 0.017538 102 144 221
-0.033973 -0.248884 -0.013077 254 255 255
0.205526 -0.169775 0.051965 254 254 254
0.326957 0.103722 0.046245 254 254 254
0.319046 -0.115863 0.067979 252 254 253
0.186273 -0.166366 0.037727 255 254 253
-0.038057 0.256170 0.053302 255 254 255
-0.078755 0.244345 0.047429 108 136 183
0.021540 -0.238846 -0.008658 253 255 253
-0.099554 -0.152860 -0.086187 102 148 230
-0.086914 -0.108272 -0.069709 103 148 232
0.078584 0.206655 0.054137 254 255 254
-0.026234 -0.247946 0.000946 255 255 253
-0.081090 -0.245096 0.037230 105 143 218
-0.087984 -0.135880 -0.061447 124 137 158
-0.079342 0.208953 0.050819 133 138 139
0.045719 -0.217151 -0.009939 254 255 255
-0.064667 0.280307 0.018058 254 253 255
0.181036 0.167755 0.036173 254 253 254
-0.081692 0.270696 -0.020715 102 136 194
-0.100149 0.064086 -0.046156 132 133 133
-0.099694 0.063855 0.020696 102 143 217
-0.023276 0.261384 0.064193 254 253 253
-0.083127 -0.234614 -0.045754 103 148 231
-0.096735 0.148418 -0.002806 105 150 234
-0.083252 0.238904 -0.001776 130 132 138
-0.040515 0.268731 0.006688 255 255 254
-0.060397 -0.260348 0.036457 254 255 253
0.116847 -0.192156 0.019028 253 254 254
0.250222 -0.146332 0.008166 254 255 253
-0.083634 -0.045595 -0.064588 103 139 207
0.205867 0.148184 0.019489 253 254 254
-0.069061 -0.273941 0.054692 254 255 254
-0.085830 -0.171644 -0.086522 104 150 234
0.051856 -0.224701 0.010105 253 254 253
-0.048030 0.262631 0.063653 254 254 255
0.293092 0.117588 0.046035 253 254 253
-0.100471 0.093268 0.028453 104 147 228
0.217366 -0.154197 0.007353 255 254 255
-0.102738 -0.092369 -0.049719 104 144 222
-0.086196 -0.098748 -0.081928 105 134 184
-0.083191 0.195270 0.054733 107 133 183
0.084092 0.214249 0.011339 254 254 253
-0.006516 0.243558 0.043705 253 255 255
-0.077399 0.199467 0.013530 101 134 197
-0.107626 -0.187222 -0.074355 127 129 136
-0.004543 -0.248334 0.028943 254 253 253
-0.080459 0.217969 0.046049 127 132 134
0.227420 -0.160069 0.026781 255 255 252
-0.082339 0.137734 -0.014400 123 131 132
0.129984 0.180769 0.048383 254 255 255
-0.098031 -0.212228 -0.031216 103 138 199
0.048177 0.232977 0.052776 254 254 254
0.047868 -0.229927 0.007380 254 253 253
-0.074302 0.127400 -0.012098 101 148 230
0.298061 0.106851 0.044970 255 255 254
-0.084850 -0.191787 -0.020520 102 144 222
0.039116 -0.231335 -0.005532 252 253 252
-0.097482 0.264227 -0.022255 125 131 134
0.163088 -0.172504 0.061857 254 254 254
-0.085685 0.134984 0.021019 101 146 230
0.152837 0.174412 0.002115 252 254 254
-0.081578 0.280616 -0.036948 119 128 135
-0.095302 -0.039815 -0.009902 105 150 233
-0.090280 0.118486 -0.095578 101 136 197
0.066254 0.212659 0.008893 253 254 255
-0.096774 -0.156824 -0.058801 125 133 137
-0.080408 0.149657 0.017303 101 140 212
-0.085332 -0.176588 -0.086089 131 135 137
0.161375 0.178327 0.056952 253 253 254
-0.080387 0.107681 0.026110 102 144 224
0.158689 0.179866 0.011694 254 254 254
0.336278 0.104106 0.061772 253 255 254
-0.098725 -0.151577 0.033533 103 147 230
-0.104156 0.040677 0.009777 105 143 210
-0.073018 0.105083 0.021793 129 133 137
-0.085734 0.204736 0.018162 104 148 228
0.051757 0.227437 0.003135 252 254 253
-0.095359 -0.125989 -0.094663 102 147 232
-0.076074 -0.034524 0.010272 127 130 133
0.065890 0.213358 -0.016166 255 255 254
-0.080135 -0.060324 0.014454 102 134 188
0.073954 -0.207702 0.049832 254 254 254
-0.045141 -0.254820 0.014448 253 255 254
-0.098137 -0.139713 0.036606 106 136 190
-0.083869 -0.097845 0.014558 105 137 194
-0.083764 0.094973 -0.017725 104 140 208
0.269821 -0.143356 0.044780 254 255 254
0.368232 -0.106433 0.034131 253 255 255
0.031857 -0.234223 0.041906 255 255 254
-0.085490 -0.268560 -0.038015 102 144 219
-0.085719 0.096684 -0.081651 132 134 134
-0.014768 0.248281 0.000335 254 254 254
-0.099995 -0.060849 0.020312 102 147 228
-0.082985 -0.220044 -0.070898 101 138 203
-0.029789 0.264326 -0.016723 254 254 255
-0.087465 -0.275530 0.031286 254 255 254
-0.066935 0.279207 0.019118 254 253 255
0.000394 -0.233725 0.055322 255 254 253
-0.090877 0.024335 0.001519 101 133 192
-0.098149 -0.153033 0.000680 132 139 146
