ply
format ascii 1.0
element vertex 1207
property float x
property float y
property float z
property uchar red
property uchar green
property uchar blue
end_header
-0.090776 0.193418 -0.041072 62 77 136
0.271318 0.222603 0.000021 251 252 254
0.089112 -0.281345 0.046729 220 221 218
0.217205 0.243543 -0.010708 251 252 251
-0.107693 -0.067410 0.011037 62 77 152
-0.083888 -0.132127 -0.071757 69 70 66
-0.028485 -0.294114 0.042205 249 251 250
-0.079465 -0.223436 -0.087696 82 69 78
0.032661 -0.290066 -0.007606 162 169 181
-0.066775 0.225040 0.065235 72 69 74
0.078939 -0.282334 -0.024394 247 249 249
0.008113 -0.294172 0.026357 248 250 248
0.010716 0.296660 0.027673 249 251 250
-0.102120 0.124364 -0.079404 94 118 170
-0.102575 -0.095939 -0.032964 81 100 150
0.367831 -0.198080 -0.017315 251 253 251
-0.094908 -0.147517 0.056847 63 79 126
0.061613 0.292338 0.050391 246 248 247
0.019209 -0.300696 0.008982 253 253 253
-0.043184 -0.288875 0.037341 68 95 170
0.199565 -0.253559 0.020631 249 250 249
0.142360 0.259494 0.025220 250 250 250
0.347481 -0.206632 0.026990 252 254 252
-0.090143 0.022007 0.026176 63 66 67
-0.045239 0.260589 0.033183 56 55 58
-0.090190 0.186840 0.033141 70 85 149
0.311118 -0.221014 0.041483 254 255 255
-0.078027 0.127872 -0.078738 93 121 178
-0.093558 0.190442 -0.086300 65 61 59
0.014077 0.303567 0.045394 251 252 251
0.273243 0.221055 -0.007382 253 252 252
0.008391 0.304802 -0.017472 248 250 249
-0.109184 0.019640 0.034203 90 94 91
0.271137 0.218053 0.014747 253 253 253
0.200975 0.247233 -0.013042 252 253 250
-0.058962 -0.281413 -0.036823 233 234 232
0.379030 -0.194769 -0.009445 248 250 250
0.067339 -0.284305 -0.000959 125 130 126
-0.076718 0.135976 -0.077360 116 130 151
0.323718 -0.207498 0.001668 251 252 252
-0.053310 0.242402 -0.070227 100 110 123
0.321350 -0.211427 0.008786 249 251 251
-0.059272 0.281041 0.053673 249 250 251
0.168791 0.261145 0.041519 199 197 197
-0.079618 -0.090078 -0.050932 118 128 142
0.063612 -0.293015 0.001592 249 249 248
0.113330 0.273187 -0.024370 251 253 251
-0.075493 0.281537 -0.007909 64 67 70
0.080109 -0.283693 0.019983 249 250 251
0.084602 0.288828 -0.015841 235 237 237
-0.093693 0.196354 -0.039911 65 76 137
-0.067372 -0.161044 0.066300 77 99 156
-0.041320 0.286199 -0.008241 61 60 62
0.116991 -0.277067 0.047205 252 254 252
-0.085706 -0.066360 0.042822 62 64 67
0.219485 0.242855 0.051764 251 253 253
-0.075759 -0.106412 0.055253 93 107 132
0.273608 0.212128 0.044241 252 252 252
0.365829 0.183023 -0.016902 252 252 253
-0.082722 -0.122493 0.009319 49 59 132
0.004861 -0.299900 0.017026 251 252 253
0.400574 0.175093 0.041139 249 249 249
0.434629 0.153060 0.006089 254 255 254
-0.087666 -0.135566 0.062467 248 248 248
-0.097555 -0.166276 -0.084970 84 92 99
-0.037066 0.269499 -0.019797 65 69 67
-0.031900 0.303665 0.032008 244 245 245
0.003004 -0.289316 0.004577 240 242 241
-0.036895 -0.286496 -0.023363 251 251 250
0.044073 0.298028 0.046376 252 252 250
-0.109196 0.078854 -0.053414 74 96 161
-0.040806 0.297810 0.054843 247 248 249
0.114207 -0.276057 0.002084 214 216 214
-0.089576 -0.046123 0.021031 93 106 125
0.079016 0.288821 -0.021556 248 250 250
-0.069352 0.171463 0.066142 65 72 73
-0.056509 0.255794 -0.009324 66 84 145
-0.072932 -0.261555 0.021742 60 77 140
-0.064669 0.297632 0.032127 63 63 70
-0.105187 0.092147 -0.073087 100 108 114
0.409920 -0.185565 -0.020529 249 250 250
-0.054520 0.294939 0.010312 250 251 250
0.094418 0.277822 0.001750 198 196 197
0.114167 0.277365 -0.023947 250 251 251
0.418965 0.156920 0.018710 249 250 249
0.162415 -0.262703 0.014880 247 250 248
-0.108305 -0.057118 -0.016702 249 250 250
0.416140 -0.183502 0.008523 251 253 253
-0.066271 -0.286612 0.003679 252 252 253
0.030431 -0.284630 -0.024098 126 142 170
0.353744 0.182319 0.021625 254 254 252
-0.084712 -0.063910 0.059893 249 248 249
-0.107412 0.013500 -0.000002 248 248 248
-0.079275 -0.262844 -0.069410 92 96 96
0.433155 -0.173623 -0.026746 250 252 251
-0.083719 0.125705 -0.077426 103 124 162
0.226298 -0.248595 0.049499 251 252 251
-0.083536 -0.085752 0.035069 67 71 82
0.098571 0.284354 0.021331 251 251 252
-0.074655 0.076668 0.065081 63 64 65
0.448762 -0.167675 -0.021346 252 254 253
0.104868 0.270599 -0.004463 169 169 170
0.376783 0.183321 0.016938 250 251 250
-0.061698 -0.207830 0.027413 54 71 151
-0.102938 -0.089845 0.004314 55 67 129
-0.073793 -0.184346 -0.092286 88 98 116
-0.049058 0.293385 -0.021029 251 253 252
-0.057255 -0.261828 -0.071387 67 70 66
-0.104280 -0.076254 0.018450 63 75 140
0.059137 -0.294641 0.014780 250 252 251
0.263039 -0.236444 0.048291 253 254 252
-0.078869 0.151236 -0.073288 64 77 128
-0.069584 -0.131356 0.049964 81 93 99
0.205556 0.244137 0.048877 251 252 252
-0.033687 -0.281654 0.037775 70 103 176
-0.087259 0.225662 -0.067658 66 82 128
-0.071470 0.281539 -0.034496 79 68 75
-0.035940 -0.292976 0.036857 247 249 248
0.164236 -0.262812 -0.005844 249 250 250
0.076650 0.277223 0.016711 252 253 252
-0.022260 0.272373 0.058280 118 128 140
0.148810 -0.271389 -0.002271 177 176 172
-0.110574 0.051458 0.062065 60 63 68
-0.092648 0.231071 -0.074625 77 77 78
0.097115 0.272643 0.033980 250 253 252
-0.027040 -0.285490 0.065760 125 149 190
0.212841 -0.247865 0.015494 250 253 253
0.324511 0.205169 0.006943 253 253 253
-0.073619 -0.256189 -0.060435 230 231 229
0.086740 0.274628 0.020131 250 251 251
-0.100039 -0.112055 0.020178 62 79 150
-0.080233 -0.232592 0.037784 66 70 80
-0.096037 0.176843 -0.021681 73 91 157
-0.079400 -0.136124 0.002027 78 98 165
-0.097118 0.174612 -0.005495 68 85 149
-0.081907 -0.114953 -0.007686 56 66 128
0.103031 -0.289642 0.016391 251 251 250
-0.096665 0.189290 -0.086295 178 178 178
-0.063901 -0.179704 0.060592 85 96 116
-0.058235 0.226908 -0.059684 89 110 148
0.403473 -0.186931 0.021438 253 253 253
-0.091489 0.244401 -0.071824 66 70 64
-0.093552 -0.059740 0.050447 250 252 252
-0.064106 -0.144213 0.061765 89 111 151
0.366000 -0.201596 0.023709 250 252 251
-0.074351 -0.243949 0.029038 61 77 143
-0.061352 0.244891 -0.078253 197 197 196
0.156180 0.255815 0.048491 252 253 252
0.017896 0.297235 -0.024046 247 248 249
-0.019851 -0.296729 0.027846 208 210 207
0.180485 -0.267695 0.006650 250 253 252
-0.079548 0.129987 -0.087490 76 77 77
-0.067282 -0.183498 0.060267 61 61 67
-0.073166 -0.267430 0.060631 246 247 247
-0.094445 -0.174753 -0.071622 66 70 81
-0.068190 -0.284883 0.019472 246 248 248
0.038344 0.302421 0.058469 249 250 250
0.081666 0.274525 -0.021153 252 254 253
-0.082289 -0.084254 0.043228 82 107 173
-0.040932 0.265707 -0.014944 70 67 62
-0.098326 0.167900 0.066251 187 188 185
-0.054558 -0.293198 0.009999 75 105 181
0.397526 -0.188770 -0.024792 252 254 251
0.023924 0.286918 0.002157 247 247 248
-0.009075 0.293138 -0.002182 110 129 179
-0.080313 0.135366 0.032694 77 98 158
-0.087707 -0.167904 -0.090185 102 109 107
0.297818 0.206648 0.049417 251 251 252
-0.085624 0.237078 -0.080028 82 86 80
0.110910 0.279544 -0.016424 248 249 248
0.013971 0.286679 -0.023460 250 252 251
-0.039661 -0.298907 -0.014848 251 253 252
0.378186 0.179703 0.002348 251 251 250
0.193899 0.253142 0.037592 250 251 252
-0.099135 -0.144859 0.066147 206 207 206
0.224413 -0.249382 -0.003427 250 251 252
-0.087851 -0.226060 0.029307 62 76 136
-0.066372 0.284634 0.013383 61 63 70
-0.032678 -0.294407 0.023841 64 64 76
-0.039948 -0.243813 0.002175 79 111 175
0.349035 0.191393 0.027281 252 253 252
-0.070903 -0.216535 0.079513 250 251 251
-0.093521 0.182235 -0.081663 64 67 62
0.013428 -0.287922 -0.022553 252 251 252
0.091522 0.285072 0.028613 247 249 249
-0.094990 0.179917 -0.038911 81 103 162
0.328928 -0.207581 -0.009117 252 252 252
-0.104363 -0.085723 0.002263 73 91 140
-0.095491 0.183575 -0.088602 71 76 82
-0.087625 0.231021 0.061823 98 116 149
0.172663 0.257297 0.040390 195 197 193
0.009024 0.288974 0.045303 220 220 218
-0.107577 -0.079033 0.022221 66 83 152
-0.035778 -0.268208 0.025800 98 114 144
0.315946 -0.220975 0.039945 251 252 253
0.127630 0.265164 -0.004924 252 252 252
0.327754 -0.207874 -0.017756 250 252 250
-0.084831 -0.053027 0.026769 245 245 246
0.088748 0.284951 0.010189 183 182 183
-0.058674 -0.279560 0.050086 69 94 167
0.296055 -0.229011 0.020830 255 255 255
-0.110367 0.076239 -0.060065 110 117 118
-0.041798 -0.279073 -0.031331 144 149 151
-0.084870 0.235656 0.057114 105 113 125
-0.103169 -0.105657 -0.031829 81 92 108
-0.088630 -0.010950 0.024924 247 248 248
-0.072493 -0.266902 -0.023998 59 74 147
-0.107550 -0.054498 0.007418 251 252 250
0.429216 -0.178263 0.002643 254 254 253
0.237222 0.229885 -0.015215 251 253 252
-0.058325 0.252335 -0.061718 68 80 128
-0.076887 0.140540 0.065337 70 80 105
0.451278 -0.165680 -0.029614 254 254 253
-0.107369 -0.048188 -0.001405 247 247 247
0.183620 -0.261948 0.046024 252 254 253
-0.063073 -0.208452 -0.075173 85 112 185
0.257929 -0.233938 0.009554 250 252 251
0.329484 0.200450 -0.004040 250 250 251
-0.070390 0.263867 0.052113 65 78 127
0.150155 0.257360 0.039561 251 251 251
0.301608 0.205567 0.047475 249 250 251
0.340436 0.194287 -0.013376 252 252 252
-0.051413 0.299841 0.005305 71 73 71
-0.071077 0.239706 -0.080816 91 103 120
-0.081621 0.249740 0.056048 65 71 75
0.126636 0.274920 0.045135 186 186 186
-0.102035 0.000420 0.056176 249 250 251
-0.070328 -0.158239 0.030581 75 78 93
-0.109038 0.070274 0.024651 82 98 137
-0.081426 -0.239461 -0.029221 61 76 142
0.323214 -0.219568 0.040942 254 254 254
0.342476 0.182441 0.042358 251 252 253
-0.051865 -0.297621 0.043706 248 249 249
-0.101528 -0.058580 -0.020178 251 252 254
0.019336 0.299077 0.059538 252 253 252
0.109415 0.270643 0.017190 251 252 252
0.346162 -0.207592 0.014238 252 252 251
-0.103510 0.024500 -0.018002 246 247 246
0.419999 0.159650 -0.007774 251 252 253
-0.012527 0.295779 0.001185 154 160 170
-0.075380 0.198689 0.068581 174 175 174
-0.032806 -0.291956 -0.027407 252 252 251
-0.049350 -0.228470 0.067822 90 108 137
0.037805 -0.299536 0.008077 248 250 250
0.015301 0.295433 -0.017509 217 217 216
-0.087188 -0.103022 -0.069601 75 69 70
0.144852 0.267764 0.014284 188 188 186
0.031375 0.303248 0.040159 252 251 251
-0.105185 -0.076787 -0.029166 66 76 123
-0.109214 0.070202 0.066881 88 98 105
-0.072668 -0.247133 0.066178 86 95 102
-0.068315 -0.173810 -0.089169 79 86 84
-0.063551 -0.283235 -0.021409 54 66 139
0.074954 -0.280967 -0.015914 251 253 252
0.406787 0.168126 0.036505 251 252 251
0.427318 -0.177657 0.022026 251 251 250
-0.083571 0.185880 -0.079228 84 87 83
-0.067538 0.232377 -0.082635 115 135 172
-0.109703 0.053733 -0.036557 98 122 172
0.096879 0.272580 0.033749 251 253 252
-0.069138 0.205322 -0.048032 48 56 143
-0.051935 -0.253323 -0.005842 66 86 154
-0.041604 -0.290064 0.002004 66 68 74
0.225543 -0.243483 -0.007783 252 253 252
-0.030011 -0.298531 0.064182 249 250 249
-0.018019 0.308483 0.019526 251 251 250
-0.092080 0.133390 -0.089441 71 74 88
-0.096067 -0.178033 -0.088495 82 83 82
-0.028782 -0.294009 0.039471 91 121 184
-0.097397 -0.130655 -0.086126 96 76 77
-0.077638 -0.234389 0.057579 74 88 123
-0.074720 0.094355 0.065275 61 56 61
0.198369 0.240168 -0.012792 252 254 253
0.155447 0.261690 0.053027 252 252 252
-0.046574 0.291183 0.014582 246 247 247
0.144108 -0.279319 0.038569 253 255 253
0.470176 -0.162895 0.014103 254 254 252
-0.099385 0.174670 -0.082780 105 123 156
0.220192 0.233435 -0.010672 250 252 251
0.178277 -0.268753 0.013986 252 254 254
0.410060 0.156224 0.002156 251 253 251
-0.069681 0.172149 -0.031152 51 63 124
-0.066473 0.194135 0.056327 92 118 181
-0.030594 -0.283966 0.033932 66 68 79
-0.094667 -0.162920 0.072976 92 97 101
0.232289 -0.237841 0.008806 247 248 247
0.011627 -0.300769 0.048890 249 250 250
0.367325 0.177081 0.015239 252 252 253
-0.087418 0.044682 0.038193 91 111 150
-0.073219 -0.179280 -0.081259 53 61 135
-0.078716 0.266668 0.014405 65 78 126
-0.071851 -0.253638 0.058604 62 74 130
-0.077679 -0.154807 -0.026141 65 78 131
-0.097989 0.083157 0.066012 91 105 129
0.092949 -0.287739 -0.008351 193 194 193
-0.108285 0.076194 -0.058166 98 101 104
-0.086792 0.075131 -0.065991 67 67 66
0.191191 -0.255813 0.047251 251 253 253
-0.063632 0.284889 -0.001252 64 69 80
0.421903 0.160401 -0.003274 253 253 254
-0.091067 0.110927 -0.084782 106 125 162
-0.086389 0.203728 0.067357 50 59 121
-0.083911 -0.161061 -0.064888 62 78 148
-0.087416 0.173682 -0.087965 114 127 146
0.377051 0.180794 0.038305 252 252 251
-0.098290 0.146604 0.061922 113 121 128
-0.099620 0.173923 -0.084513 68 71 72
-0.081020 -0.121535 -0.061080 78 104 170
-0.007471 -0.299414 -0.014080 249 250 249
0.057103 -0.295474 -0.000924 246 248 247
-0.097974 0.035301 -0.019977 239 240 240
-0.040594 -0.269986 0.025786 75 94 146
0.235251 -0.245927 0.040907 252 254 254
-0.080490 -0.085496 -0.047692 65 71 66
0.088313 0.280473 -0.023596 251 251 250
-0.084641 0.115004 -0.081279 110 125 140
-0.098464 0.161273 -0.078621 81 103 160
0.059074 -0.290798 0.055121 248 250 249
0.320377 0.205289 0.040034 251 251 251
-0.037734 -0.292682 0.031082 250 250 250
0.025161 0.301094 0.000294 252 252 253
0.011857 0.295692 0.006685 250 251 250
-0.099955 0.192087 -0.079196 82 87 97
0.191702 -0.253662 0.012329 251 251 249
-0.101908 -0.160468 -0.085492 91 91 93
-0.069863 -0.171887 0.068685 220 221 219
0.009336 0.292350 0.044024 252 253 253
-0.104206 0.090085 -0.070482 182 184 180
0.412664 -0.182285 -0.023036 249 250 250
-0.096978 -0.134520 -0.047541 57 70 137
-0.102317 0.021812 0.057495 250 252 250
0.116565 0.276995 -0.016058 234 237 237
-0.070919 -0.274049 -0.041390 78 108 175
0.431006 -0.175995 -0.025077 249 250 251
-0.095373 0.186042 0.047487 67 79 137
0.163478 -0.265190 -0.007077 199 200 201
-0.023814 -0.290910 0.045500 76 83 92
0.009896 0.300673 -0.019895 251 252 252
-0.051953 -0.270939 0.063939 108 127 167
-0.068315 -0.154585 -0.060654 85 99 131
0.368506 0.176139 -0.008498 253 253 253
0.303111 0.201651 0.043722 252 253 253
0.229734 -0.236707 -0.021022 247 248 248
-0.004950 -0.293224 0.026986 75 112 179
0.107658 -0.280953 -0.020857 206 207 208
0.464083 -0.160663 -0.002286 253 253 253
0.094451 -0.279539 0.045948 245 246 246
0.039590 0.301361 -0.011780 252 253 253
0.312095 -0.213416 0.036378 249 251 251
-0.035882 -0.274972 0.072146 238 240 239
0.313817 0.205350 -0.005065 249 250 249
-0.103363 0.033699 0.048350 249 250 250
0.122896 -0.284598 0.037620 179 179 177
-0.062981 0.205302 -0.085572 65 61 62
-0.052451 -0.256544 0.073614 67 72 86
-0.055995 -0.270249 0.066334 75 99 165
0.119968 0.265928 -0.004791 250 251 251
-0.087731 -0.080457 0.048954 79 101 159
0.293115 0.213428 0.050253 252 251 252
0.055847 -0.285636 0.009698 140 143 144
-0.041141 0.275517 0.051008 89 114 174
0.344781 -0.202081 -0.020759 253 255 253
-0.085488 -0.188383 0.076821 238 239 237
0.029774 -0.293796 0.053452 218 218 218
-0.098703 -0.066299 0.046119 242 245 246
-0.041248 0.281236 0.037665 56 57 58
-0.039992 -0.258087 0.073376 232 233 231
-0.071752 -0.146731 0.041683 69 92 162
0.158062 0.254712 0.042946 249 250 249
-0.057936 -0.278874 0.065263 63 69 77
0.310336 -0.214244 -0.013268 252 254 253
-0.070142 -0.173767 -0.091060 76 80 78
0.323692 -0.208457 -0.026044 254 255 253
-0.034986 0.281649 0.023140 121 136 163
0.086526 -0.289163 -0.015747 209 210 208
-0.103614 -0.056772 0.014320 245 246 246
0.427544 -0.174473 0.020233 252 252 251
-0.098990 -0.189712 -0.076166 90 96 105
-0.062193 -0.182725 0.065725 67 73 80
0.451021 -0.166516 0.019720 253 254 254
0.377095 0.174120 0.003864 254 255 255
0.111118 -0.276666 0.035887 135 137 135
-0.072206 -0.276627 -0.038608 103 113 121
-0.070023 -0.230020 -0.085417 62 68 65
0.147254 -0.268830 0.016595 250 253 251
0.172004 0.261605 -0.016792 250 252 250
-0.039577 -0.299459 0.027252 243 245 246
-0.087798 -0.050817 0.055609 249 250 252
-0.040233 0.270853 0.026372 68 65 70
-0.092156 0.228372 -0.065671 92 113 158
-0.040459 0.290065 -0.030795 84 93 108
0.036493 0.296361 0.042775 185 185 185
0.129717 0.263412 0.036997 252 252 251
-0.076010 0.114651 0.066066 195 196 195
-0.109698 0.066364 0.004620 51 61 126
0.284532 0.219152 0.009629 250 252 252
-0.101568 0.109165 -0.072788 72 73 69
0.144840 0.259997 0.000568 248 249 248
-0.107852 0.044471 0.051957 65 79 131
-0.107310 0.090220 0.048446 73 70 75
0.171050 -0.270928 0.013172 247 248 248
0.384749 -0.192207 -0.002006 252 253 253
-0.040870 -0.296503 0.028780 251 252 251
-0.089015 -0.197073 -0.062581 75 85 96
0.396578 -0.188020 -0.002622 251 254 253
-0.012971 -0.303595 -0.021395 236 238 238
0.437888 -0.173061 -0.000341 249 250 251
0.412734 0.157216 -0.009287 247 247 247
0.003578 -0.292110 0.047337 250 251 249
-0.101802 -0.113305 -0.077830 120 128 134
-0.054032 0.249362 0.056587 96 120 169
-0.086807 0.052849 0.054404 71 99 162
-0.049734 -0.265853 -0.045460 78 99 157
-0.030377 0.304742 -0.001524 247 248 248
0.282820 0.207088 0.017119 250 250 250
-0.064775 -0.267251 0.041895 90 118 180
0.287973 0.206084 0.048437 251 252 251
0.381746 0.177964 -0.001721 252 252 251
-0.077065 -0.092514 0.009308 82 85 90
-0.108566 -0.022500 0.040613 249 251 250
-0.101371 0.062753 -0.024599 95 105 113
-0.081574 0.228738 -0.083101 116 122 124
-0.076850 -0.130431 -0.079155 117 134 169
0.139474 0.270361 0.039107 252 254 252
-0.031059 0.304266 0.060179 253 254 253
0.047394 0.282127 0.042578 249 250 249
-0.090860 0.028444 0.008131 68 61 64
0.136582 -0.278041 0.020297 191 191 189
0.278760 -0.228004 0.019758 252 254 254
-0.051905 -0.281526 0.053261 86 101 128
0.208172 -0.248419 -0.024308 251 252 252
-0.058805 0.294587 -0.013903 249 249 249
-0.105027 -0.067942 0.009852 68 72 80
-0.071262 -0.155316 0.069801 69 90 150
0.044585 -0.288989 0.013585 157 162 161
0.209748 0.247739 0.012332 252 252 253
-0.085747 0.062300 -0.033032 65 84 165
0.328539 0.200537 0.030381 253 254 252
-0.097590 0.191779 -0.054806 91 112 163
0.346148 -0.202404 -0.021244 252 252 253
-0.109030 0.093534 -0.061332 89 104 134
-0.033246 -0.273758 0.054548 128 144 174
0.380396 0.172134 0.031630 251 252 254
-0.081050 -0.189805 -0.077929 81 88 92
0.143642 -0.274724 0.053212 253 254 254
-0.017308 -0.297421 0.061715 251 252 254
0.081080 -0.293781 0.010347 244 245 245
-0.106454 0.100857 0.025364 84 103 146
0.170344 0.261419 0.028372 246 248 247
-0.064097 -0.202209 0.059523 74 95 150
0.092949 0.284199 0.017095 185 185 186
-0.027030 -0.290533 0.041559 244 245 246
-0.054309 -0.289412 0.070739 252 253 252
-0.057827 -0.252469 -0.021897 81 103 157
-0.095953 -0.153204 0.063313 67 84 148
-0.070184 0.167442 0.054982 66 69 89
-0.044578 -0.282374 -0.028665 249 249 250
0.349897 -0.205933 0.029117 253 253 252
-0.089581 0.025456 0.012527 65 70 80
0.434222 -0.175682 0.019724 254 254 253
-0.103648 -0.048757 -0.010635 248 248 248
-0.062890 0.240986 -0.045857 78 104 172
0.139156 -0.267466 -0.027460 250 251 250
0.033270 0.295175 -0.020446 249 250 249
-0.076386 0.082189 -0.063304 79 83 84
-0.009330 -0.292612 0.056393 250 252 250
-0.099561 0.148206 -0.086351 75 80 87
-0.029404 -0.290744 0.050635 126 148 187
-0.046920 0.274634 -0.042594 66 65 68
0.402927 -0.186221 0.009446 253 253 253
-0.086164 0.232823 -0.001027 69 89 154
0.392717 -0.185520 -0.029711 251 252 251
0.145835 -0.266553 -0.009365 251 252 250
0.018194 0.287028 -0.017505 246 247 246
-0.054205 0.255889 0.040250 86 102 132
0.202608 -0.255622 0.024883 252 254 253
0.025293 -0.291386 0.013936 130 145 172
-0.058717 0.291208 0.001150 250 251 251
-0.108259 0.061429 0.002257 84 100 131
-0.000297 0.292294 0.038060 248 249 249
-0.054377 -0.212846 0.074927 74 95 154
-0.098603 0.070230 -0.060619 94 102 99
0.138755 -0.271767 0.012020 245 247 247
0.029061 -0.298344 0.003489 247 248 248
-0.100818 -0.114389 0.050620 64 71 74
-0.086985 -0.039668 0.013949 246 247 246
0.296449 0.212515 0.014407 254 255 253
-0.108956 -0.049742 0.011310 250 250 251
0.316738 -0.211734 0.006842 249 250 250
0.120540 0.279101 0.053342 197 197 195
0.175276 0.250687 0.025293 250 251 250
-0.076351 0.145679 0.056489 73 97 167
0.369848 0.183216 -0.007699 250 251 250
0.330601 -0.208544 -0.021808 250 252 252
-0.100480 0.127049 0.069925 68 72 81
-0.108748 0.048554 -0.025021 93 98 100
-0.091954 0.071331 -0.048640 53 65 149
0.333069 0.204189 0.031492 251 252 252
-0.100005 -0.058256 -0.011904 251 252 250
-0.044118 0.257896 0.045661 79 80 84
-0.095778 0.027632 0.047828 249 251 250
-0.081670 -0.250969 0.015081 74 85 105
0.091316 0.285483 0.016336 250 252 250
0.140734 -0.266577 -0.022963 250 252 250
-0.090584 0.206372 0.021594 61 75 136
0.004585 -0.290543 -0.014343 250 252 251
0.208445 -0.254582 0.029489 213 213 212
0.095275 0.273788 -0.020617 250 251 250
0.368204 0.184833 0.013822 253 253 254
-0.105665 0.104345 0.066853 68 73 77
-0.091547 -0.193346 0.049552 72 95 161
-0.062775 -0.272860 -0.063530 70 75 78
-0.091773 -0.044296 0.012970 247 248 246
-0.098106 0.118209 0.068543 79 97 137
-0.095919 0.163095 0.056793 69 84 142
0.096012 -0.287044 -0.011409 206 208 206
-0.086218 -0.227476 -0.016340 57 71 142
-0.098859 -0.140273 -0.041921 72 92 155
-0.095384 0.163380 0.044652 59 69 123
0.108342 -0.284340 0.028644 191 193 193
-0.081786 -0.112627 -0.010410 58 73 137
-0.080282 -0.125360 -0.028928 69 84 144
0.064433 -0.285452 0.018903 249 250 250
-0.101658 -0.121313 -0.074995 88 88 87
-0.093975 -0.152216 0.076532 241 243 243
0.031007 -0.289375 0.048607 252 253 251
-0.088808 -0.052274 0.032225 61 62 68
0.079455 0.287169 -0.023205 251 252 251
-0.050409 0.246549 0.049194 64 66 72
-0.074949 -0.276083 -0.031957 74 95 163
-0.094510 -0.183988 -0.025822 68 75 86
-0.069625 0.202681 0.066721 70 74 72
0.013537 -0.292600 0.041223 101 129 175
-0.041117 0.254331 0.046089 78 82 84
-0.107995 -0.065297 0.012953 231 232 233
-0.053653 -0.244008 0.057394 66 69 69
-0.096477 -0.153891 -0.014860 68 83 158
-0.106236 -0.056291 -0.000973 84 106 164
-0.088383 -0.141785 -0.087539 101 109 106
0.086903 -0.288994 -0.017024 252 254 253
-0.051712 -0.292574 -0.013448 223 224 221
-0.079465 -0.151235 0.053748 96 107 117
0.037964 -0.291917 0.006184 252 254 253
0.243657 0.233211 0.010583 253 253 252
-0.014781 -0.289558 -0.020829 112 130 163
0.130423 0.274872 0.010719 252 253 251
-0.071966 0.171643 0.036970 77 94 137
-0.058666 -0.247089 0.074612 93 115 155
0.041540 0.284863 -0.011215 252 253 253
0.083633 0.276268 0.051192 183 185 184
0.016480 0.286617 0.056388 251 253 252
-0.030249 0.304939 -0.003488 251 252 252
0.353981 -0.197506 0.018295 252 253 253
0.088407 -0.281764 0.018893 251 252 253
-0.100885 -0.072715 0.054674 250 251 249
-0.096826 0.159232 -0.062966 67 82 140
0.086292 0.275679 0.005969 250 252 251
0.155691 0.255934 0.010886 250 252 251
-0.092485 0.191363 -0.086745 76 64 67
-0.028551 -0.298742 0.029635 128 148 183
-0.088238 -0.071483 -0.007369 78 76 78
0.045312 -0.299241 0.038314 178 178 177
0.311489 -0.215373 0.032924 250 250 250
0.308499 -0.221277 0.016151 253 253 253
-0.107236 -0.063669 0.004662 97 114 149
-0.055504 0.224729 0.064265 130 135 139
-0.083791 -0.068066 -0.005570 243 244 243
-0.097725 0.138577 0.053406 67 89 164
-0.094727 -0.162094 -0.071685 71 77 73
-0.030052 -0.276787 0.011737 83 91 102
-0.029677 0.296369 -0.019800 237 238 238
0.033080 -0.290751 0.041983 239 241 240
0.271805 0.219412 0.030993 251 252 254
0.202122 -0.251538 0.018061 249 249 249
-0.087126 0.180107 0.072366 175 177 177
0.262059 -0.230438 -0.020492 251 252 252
0.015705 -0.300459 0.014458 246 248 248
-0.044012 -0.265836 -0.050756 69 74 80
-0.094526 0.179053 -0.069885 75 90 130
-0.027688 -0.284833 0.036617 98 122 171
-0.076621 -0.151413 0.019674 56 73 142
-0.107489 0.050482 0.018139 71 87 139
-0.086991 -0.189456 0.067614 64 81 140
-0.061376 0.242860 0.065049 57 58 64
-0.078534 -0.219410 0.059420 60 73 117
0.091152 0.274511 0.056387 251 253 253
-0.093389 0.024308 0.043139 247 248 247
0.020848 -0.302512 0.006819 250 253 251
-0.084493 -0.065812 0.033673 76 77 79
-0.009344 0.303684 0.034424 249 251 250
-0.088845 0.211933 -0.003154 73 89 142
0.139830 -0.276564 -0.012991 206 207 206
0.420530 0.156436 0.010305 250 251 250
-0.098517 -0.153799 -0.048229 62 74 141
-0.108412 0.079332 -0.063572 106 114 112
0.128267 -0.273675 0.002177 250 251 250
-0.090788 0.053422 0.061460 68 70 73
0.390180 -0.191717 -0.023817 252 253 253
0.210410 0.237320 -0.004823 251 251 251
-0.104209 0.091101 -0.058490 67 84 145
0.127051 -0.278110 0.046222 184 184 182
0.162261 -0.264343 0.033292 214 216 214
-0.072889 0.137711 0.066137 64 69 71
-0.053478 0.236840 0.029779 59 66 73
-0.068685 0.139340 0.069476 66 72 75
0.022295 -0.289795 -0.004572 247 248 248
0.135476 -0.276161 -0.017306 206 206 205
0.192949 -0.255134 -0.024114 246 248 248
0.104376 -0.287277 0.006937 249 250 250
-0.094571 -0.157297 0.056513 77 86 99
-0.031480 -0.300734 0.021835 251 252 252
-0.038888 -0.297166 0.002017 67 70 80
-0.104878 -0.084586 0.026931 66 79 152
-0.085112 0.174434 -0.079556 72 75 76
0.328155 0.201832 0.008241 253 254 254
-0.094808 -0.125537 0.054864 64 66 71
-0.091053 -0.060720 -0.039787 252 252 252
-0.060450 -0.224513 0.004412 66 77 98
-0.050211 -0.277046 0.052129 57 70 117
-0.015327 -0.304976 0.004348 250 252 251
0.094199 -0.281102 0.040569 249 252 251
-0.057049 0.279365 0.021451 101 123 176
-0.070339 0.174240 -0.045460 73 96 167
-0.022910 0.274010 -0.052283 68 76 92
-0.076713 0.157720 -0.073346 53 61 123
-0.102739 0.028562 0.031452 88 113 179
-0.106109 0.069675 -0.046868 67 62 62
-0.091761 -0.147732 -0.084735 53 61 141
0.123939 -0.282748 -0.004896 253 254 253
-0.085576 0.097096 0.029061 86 106 157
-0.099201 0.139488 0.023754 62 75 126
-0.087292 0.031319 0.050008 251 253 253
-0.104961 0.106715 -0.077971 76 82 80
0.136670 0.261816 -0.000420 181 181 180
-0.064018 0.198231 0.068227 191 190 187
-0.003629 -0.289640 0.038834 104 123 162
-0.050443 0.305403 0.022660 59 53 55
0.391778 -0.185398 0.014418 254 255 254
0.157532 0.264301 0.044096 192 194 191
-0.057465 -0.285390 0.043731 75 94 135
-0.096886 0.188215 -0.034562 77 97 163
-0.039507 0.284553 0.054528 252 252 252
0.386783 -0.186835 0.009074 252 254 251
0.102183 0.282465 0.051736 253 254 253
0.402671 0.170693 0.016439 251 252 251
-0.040410 -0.279681 -0.014399 119 138 183
-0.082977 -0.208637 0.035464 59 74 139
-0.048644 -0.246018 0.061495 63 82 142
-0.072712 0.269554 0.048219 102 124 169
0.053022 -0.290352 -0.016140 253 254 252
0.133208 -0.279038 0.032471 182 183 181
-0.071420 0.159647 -0.086934 66 69 75
0.083170 0.288719 -0.009393 197 197 198
0.154108 -0.273123 -0.009062 250 252 250
-0.041208 -0.273627 -0.062564 63 63 66
0.030616 0.301122 0.043162 252 253 253
-0.103958 0.022650 0.004464 242 243 242
-0.106884 0.092349 -0.058305 72 89 143
0.272093 -0.226324 -0.012374 248 250 250
0.305239 -0.218198 -0.023521 251 253 253
-0.108610 -0.052470 -0.001969 70 73 75
-0.106690 -0.052200 -0.017148 250 250 250
0.061493 0.286985 0.015707 172 173 173
0.090513 -0.289364 -0.025672 249 250 250
-0.052436 0.249293 0.063896 181 183 180
-0.048069 0.253344 0.051260 87 106 160
-0.100501 -0.128232 -0.071337 56 67 137
-0.064032 0.200515 0.042836 85 104 149
-0.083522 -0.113156 0.023485 49 60 136
-0.090842 -0.137119 -0.080706 93 114 161
0.141324 -0.270065 -0.004519 249 250 249
-0.071747 0.265163 -0.031238 82 88 95
-0.095905 -0.165012 0.055860 59 73 154
-0.031940 -0.278921 0.050018 60 66 74
-0.106347 -0.071238 -0.041040 72 74 74
-0.039365 -0.289535 -0.020794 56 70 140
0.077784 0.273827 0.013645 251 252 252
-0.086936 0.121030 0.070367 196 197 194
-0.091779 0.223747 -0.079884 111 135 182
0.049058 0.297293 0.048529 186 187 186
0.172660 0.252237 0.042406 196 196 192
-0.029374 -0.296146 0.038412 103 127 173
-0.109029 -0.053161 0.020847 251 251 252
0.081914 0.273905 0.025562 251 252 251
-0.056312 -0.298130 0.026274 245 246 247
-0.077884 -0.254743 -0.076482 70 77 82
-0.079880 0.100554 -0.061423 84 96 118
-0.057557 0.197042 0.057984 63 65 71
0.118189 0.268956 -0.020300 250 253 250
0.438425 0.148682 0.004261 253 252 253
0.121890 0.264951 -0.009508 248 249 248
-0.051382 -0.298938 -0.007799 251 252 253
0.023347 -0.295728 -0.005676 203 204 201
0.262590 0.226373 0.041792 252 252 251
-0.097621 -0.042680 0.065283 249 250 248
0.193988 0.243522 0.018243 252 253 252
-0.090907 0.208145 -0.035559 62 73 127
0.348852 0.184881 0.013075 251 252 252
0.168484 -0.270897 0.028942 199 198 198
-0.084903 -0.040960 0.005190 247 248 246
-0.083507 0.128592 -0.067903 52 64 143
-0.108952 0.047840 -0.029302 73 78 83
0.387010 -0.186964 0.015407 251 253 251
-0.039073 -0.296442 -0.016540 251 253 252
0.190345 0.251167 -0.017611 252 253 252
-0.016635 -0.300586 0.009037 240 241 240
-0.103380 0.112263 -0.075836 67 68 68
-0.041400 -0.290529 -0.006996 109 129 168
0.162769 -0.261010 -0.025468 249 251 250
0.208995 -0.257754 0.013729 247 250 249
-0.088174 0.059386 0.024584 62 77 138
-0.029753 -0.277083 0.044862 106 118 131
0.121703 0.272415 -0.021207 251 253 251
0.089935 -0.282950 -0.024488 250 252 253
0.040504 -0.301643 0.047967 225 226 225
0.313640 -0.216439 -0.020128 247 248 249
-0.086611 0.095651 0.039236 79 99 158
-0.074119 0.241235 -0.078334 69 75 73
-0.076846 0.254238 -0.025355 59 65 79
0.388498 0.175526 -0.005204 251 251 252
0.109548 0.267987 0.036828 248 248 248
-0.035697 -0.286190 -0.005293 67 91 169
0.075150 0.276435 -0.021315 246 247 247
-0.062265 -0.282291 0.038950 89 107 137
0.004353 0.289397 -0.022437 240 242 242
0.002243 -0.293208 0.037356 236 238 239
-0.101204 -0.120493 -0.018368 61 76 138
0.307505 0.205269 0.046938 253 254 252
0.385940 -0.186642 0.000902 250 251 251
-0.065422 0.217699 0.068860 195 195 196
-0.001344 -0.284917 -0.014387 102 128 187
-0.026832 -0.286494 -0.033810 219 220 219
-0.079292 0.145439 -0.084076 120 125 125
0.031570 0.287168 -0.015760 248 248 248
0.301494 -0.218454 0.029925 247 248 250
-0.078192 -0.239352 0.016348 74 92 150
0.069937 -0.293560 -0.022766 241 242 243
-0.019354 0.289534 -0.001475 248 249 248
-0.037034 -0.272180 0.026239 71 100 172
-0.043100 -0.299640 -0.008661 127 131 132
-0.031962 0.298314 0.008121 249 250 250
-0.016073 -0.287636 0.038458 99 111 130
-0.068259 -0.163017 -0.090351 68 66 68
-0.105440 -0.083937 -0.021621 64 82 155
-0.078888 -0.113035 -0.056007 92 113 160
-0.067737 -0.162439 -0.080656 103 110 114
0.145554 -0.269131 0.050198 193 196 192
-0.088477 -0.234638 -0.016727 73 91 139
-0.069737 -0.178507 -0.037602 80 105 168
-0.028928 0.286958 0.035185 251 253 251
-0.089194 0.080944 -0.041449 74 94 148
-0.083746 0.110281 0.069065 97 106 123
-0.050965 -0.272164 -0.041380 245 246 246
0.146612 -0.274764 0.006895 195 193 190
-0.081415 -0.099549 -0.067136 129 135 136
-0.064092 -0.284527 0.043253 250 252 251
0.090138 -0.289872 0.028329 252 254 253
0.205648 -0.258032 0.005103 250 251 250
0.228742 0.239656 -0.002696 251 253 251
-0.067925 -0.186500 -0.078591 57 69 134
-0.082444 0.115159 -0.078457 92 118 167
-0.109558 0.097929 -0.017120 85 102 137
-0.025170 0.279324 0.039590 56 62 56
-0.073623 -0.171692 0.067463 53 64 133
-0.035074 -0.286381 -0.017743 93 119 185
-0.099225 0.178383 0.056599 61 65 69
-0.038042 -0.253492 0.062321 62 64 74
-0.084911 -0.225196 0.069013 73 92 140
0.000668 0.292836 0.035362 250 252 252
0.362321 -0.201341 0.015858 253 254 254
-0.107236 -0.046595 0.028564 250 252 251
-0.082951 -0.233913 0.054937 76 91 115
0.327015 0.201063 0.020512 254 254 254
-0.100957 0.130813 0.062310 84 86 92
-0.079792 0.261651 0.030954 84 97 112
0.134285 0.271687 0.047163 192 194 191
0.317636 0.197070 0.013251 252 252 252
0.078161 -0.296545 0.032928 180 179 177
0.021830 0.290699 0.059157 250 250 252
-0.111157 0.040931 -0.010734 52 61 125
-0.081307 -0.149449 -0.069833 75 80 89
0.406441 0.167888 0.044985 251 252 251
-0.044961 0.259628 -0.055850 66 71 72
-0.075238 0.273857 -0.049109 62 70 63
0.130773 0.261726 0.044921 251 253 251
-0.053690 -0.189920 0.065571 84 89 101
0.169481 0.261952 -0.016423 249 250 250
-0.000993 -0.299774 0.052938 238 239 239
-0.038641 0.291382 0.025916 248 249 248
-0.060627 -0.264782 -0.061485 227 227 226
-0.084883 0.099891 0.011359 63 77 134
0.447978 -0.168903 -0.029206 250 252 252
-0.105687 0.111727 -0.036120 63 78 146
-0.091784 0.199462 -0.092430 69 74 84
0.072643 -0.283251 -0.003478 250 252 252
0.107103 0.283442 -0.021707 252 252 251
0.036996 0.286721 0.002898 250 251 250
-0.094186 0.159942 -0.085278 92 100 100
0.370354 -0.200782 -0.022568 249 251 252
-0.089226 0.083856 -0.068456 75 95 152
0.032148 0.287504 0.050361 251 252 253
-0.073930 -0.269146 -0.042223 58 70 142
-0.076452 -0.141429 -0.064345 72 90 133
-0.102316 0.102290 -0.074658 197 196 197
0.135700 0.260889 0.051198 251 252 251
0.247047 0.221802 0.049214 253 252 253
-0.100064 0.132339 0.035871 62 76 134
-0.103311 -0.082956 0.033116 57 65 135
-0.102467 0.114475 -0.070917 79 90 107
-0.096451 -0.171479 -0.084731 86 100 120
-0.088792 -0.069290 -0.033291 114 135 180
0.154917 0.269459 0.047649 249 251 249
0.025588 -0.299580 -0.016026 246 247 247
0.106111 -0.277264 0.027848 163 165 163
-0.083243 0.153527 -0.085281 77 96 144
-0.083290 0.237124 0.060969 79 97 144
-0.068070 0.202747 -0.066323 64 76 134
-0.065531 -0.275881 -0.043052 249 249 249
-0.048696 0.293485 -0.006078 128 141 166
0.049536 0.283051 0.004613 249 251 250
-0.085032 -0.096612 -0.044988 82 101 144
0.418811 0.163797 -0.003227 251 251 252
-0.100316 -0.115618 -0.045036 56 68 136
-0.086803 0.211975 0.060000 67 73 78
0.098048 -0.279466 0.042153 251 253 252
0.117910 0.274574 -0.004577 251 253 252
-0.044049 -0.288874 -0.014111 98 117 155
-0.063870 -0.205385 -0.038640 63 82 152
0.214873 -0.251821 0.039493 207 209 207
-0.059225 -0.285344 0.043874 101 127 178
-0.103255 -0.120442 -0.072258 71 81 93
-0.098013 -0.175193 0.061612 81 93 98
-0.058556 -0.294504 -0.001623 250 253 253
-0.050239 0.294138 -0.028422 61 67 74
-0.034437 -0.297376 -0.037511 252 253 251
-0.092692 -0.179370 -0.061995 89 102 119
-0.091241 0.012750 0.047622 252 253 252
0.300632 -0.219265 0.019036 251 252 251
0.323154 -0.210943 0.015400 247 248 249
0.324800 0.193445 -0.009613 252 252 251
0.166129 0.262851 0.028170 194 194 193
-0.071675 0.260967 0.033623 59 72 119
-0.065021 0.181198 0.063899 55 71 154
-0.001931 -0.301160 0.059332 253 253 253
-0.098536 -0.151425 -0.081302 80 84 89
-0.094648 0.165801 0.056616 54 62 124
0.138728 0.265999 -0.013949 193 193 192
-0.057102 -0.280363 0.042485 99 118 148
-0.096542 -0.101740 0.068647 243 245 245
-0.079500 -0.135456 -0.085893 67 67 69
-0.086951 -0.237438 -0.084512 69 73 70
0.179319 0.247260 0.002237 251 251 251
-0.107331 0.042062 -0.027732 91 99 105
0.079952 0.285720 -0.021127 252 253 253
-0.011317 0.309692 0.034243 249 250 249
-0.057448 0.214073 0.052611 69 69 76
-0.099853 -0.054588 -0.023052 243 244 244
-0.108513 0.013543 0.051186 245 246 246
-0.071095 0.201584 -0.070962 78 100 168
-0.062560 -0.285998 0.047191 238 239 240
-0.018635 -0.302914 0.030406 246 248 248
0.306798 0.203023 0.042210 252 253 252
-0.054010 0.226026 -0.076521 195 193 190
0.392397 0.165911 -0.006603 251 253 253
-0.073277 -0.120095 -0.070890 78 62 66
0.434572 -0.174869 0.022064 252 253 254
0.066228 0.293165 -0.015148 248 248 249
-0.054056 0.240846 0.039529 71 80 85
-0.039139 -0.297139 0.030155 216 216 214
-0.001827 -0.293498 -0.034489 250 252 250
0.242199 -0.245325 0.047025 250 252 251
-0.101465 0.132584 0.064264 68 74 90
-0.071270 0.176178 -0.086755 180 181 183
0.427369 -0.176381 0.017625 253 255 253
-0.052740 0.294758 -0.020492 51 59 55
-0.075920 -0.132676 0.043929 64 78 135
-0.085788 0.088097 0.057880 64 81 148
0.127593 -0.279102 0.040630 190 192 190
-0.097729 0.156039 -0.028689 57 65 139
-0.091209 0.193300 -0.034160 57 70 139
0.059747 0.282859 0.017845 248 249 249
-0.095476 -0.048630 -0.009635 251 252 253
-0.073065 -0.193881 0.074777 94 125 183
0.337992 0.188796 0.013475 253 252 253
-0.086169 0.239099 -0.064222 66 73 72
-0.075916 0.263946 -0.035493 57 58 66
-0.095754 0.171645 -0.052442 69 88 159
0.435272 -0.169601 -0.023070 252 254 254
0.269431 -0.234948 -0.006719 249 250 249
-0.062516 0.293787 0.020164 251 252 253
0.059597 0.292014 -0.018359 252 252 252
0.059264 -0.283583 0.044382 133 143 158
0.410705 -0.182469 -0.000752 252 253 251
0.079499 -0.282934 0.008548 250 251 250
-0.099229 0.147182 -0.025830 66 77 120
0.256549 0.228723 0.001608 252 252 252
0.147747 -0.275640 0.048675 195 197 194
0.065153 0.287056 -0.012006 252 252 251
0.289876 0.215430 0.022619 251 251 252
-0.070167 0.252079 0.049839 62 77 145
-0.047619 0.291827 -0.015423 68 73 75
-0.103015 -0.036389 0.059791 248 249 249
0.016083 0.298075 -0.016040 184 183 184
0.041964 -0.288692 0.009842 247 248 248
0.045606 0.286724 0.001181 248 249 250
0.184348 -0.262049 0.012729 252 252 252
-0.085292 0.086751 -0.066948 77 81 81
-0.009031 -0.289376 0.017193 102 112 120
-0.103344 -0.093244 -0.064303 92 92 93
-0.084843 0.059352 -0.046754 37 44 86
-0.073643 0.232864 0.067852 69 76 76
-0.058423 0.239148 -0.079156 69 68 71
0.461507 -0.169273 0.008437 252 253 253
0.011302 0.299614 0.039442 169 172 181
0.073099 0.294670 -0.000734 245 245 246
-0.108902 0.089016 -0.066165 122 143 185
-0.063176 0.208745 -0.015854 76 89 115
-0.036635 -0.269280 0.030581 64 64 70
-0.006277 0.305258 0.004083 236 237 237
-0.045549 -0.279580 0.006172 192 194 194
-0.083187 -0.107647 0.054135 58 74 134
-0.080174 0.177937 0.070327 62 67 68
0.075574 -0.292905 0.014520 248 249 249
-0.055528 -0.288591 -0.013241 80 89 107
-0.104251 0.071927 0.042794 52 60 120
0.158575 0.260934 0.035446 183 183 181
-0.032633 -0.294953 0.005742 94 110 137
-0.044868 0.286295 0.051583 61 67 67
0.154910 -0.267188 0.015488 251 253 253
0.011257 0.291142 0.019873 251 253 252
-0.086353 0.029823 -0.011652 73 78 81
-0.078892 0.058532 -0.041876 63 66 65
-0.044762 -0.270995 -0.017044 76 85 84
0.222209 -0.248939 -0.020732 251 253 253
-0.099313 0.135826 0.058349 82 102 147
0.132432 -0.285115 0.042345 253 253 252
0.080711 0.275389 -0.012403 251 252 251
-0.050834 -0.265169 0.007776 65 81 134
-0.070449 -0.239611 -0.080901 72 78 86
-0.079053 -0.071589 0.020807 66 74 69
-0.052717 -0.290305 0.040481 240 241 241
0.266502 -0.235852 0.008824 252 253 252
0.161981 0.258441 0.042802 252 253 253
-0.094143 -0.172408 -0.062562 72 75 82
-0.081965 -0.125036 -0.036752 72 94 165
-0.034395 0.303765 0.006413 246 247 247
-0.090664 -0.185015 -0.060871 53 65 142
-0.108026 0.069968 -0.003339 65 80 137
-0.090502 0.030502 0.019540 114 136 178
-0.054186 -0.210308 -0.076523 71 77 77
0.017617 -0.283076 -0.037318 70 70 79
-0.089060 0.227962 0.057695 61 65 65
-0.085228 0.083808 -0.006700 76 91 128
0.136228 0.262168 0.048629 215 216 213
-0.084713 0.045675 -0.039378 86 90 91
0.381613 0.170960 -0.007918 253 253 253
-0.061704 0.251154 -0.043101 63 74 126
0.183073 -0.260445 0.044391 248 250 250
0.413493 -0.182019 -0.026849 253 252 253
0.266488 0.211907 0.012480 251 252 251
-0.102123 -0.097882 0.053583 79 68 78
0.224258 -0.246719 0.043606 249 250 250
-0.066269 -0.274199 0.024042 60 65 64
-0.085135 -0.090485 -0.063904 68 67 69
-0.068178 0.183983 0.013131 47 55 117
-0.095970 -0.154432 0.065910 88 109 159
-0.039323 0.298295 0.026511 57 57 59
-0.095966 0.155972 0.004221 68 83 138
-0.076415 0.166966 -0.091557 89 68 69
-0.057273 -0.238747 0.030775 69 90 157
-0.109149 0.074892 -0.021658 75 94 162
0.168997 0.252471 -0.016170 252 251 251
-0.075504 0.094125 -0.072212 70 75 75
0.088607 -0.278635 -0.018754 252 253 250
-0.100147 -0.124573 -0.057817 76 78 80
-0.074293 0.196196 -0.090177 92 80 83
0.440898 -0.175070 0.019844 254 255 253
-0.039924 -0.295326 0.033541 250 252 253
-0.099986 -0.126843 -0.080433 74 68 67
0.334136 -0.213198 0.014083 251 252 252
0.052906 -0.286499 0.028672 142 144 144
-0.109632 0.065047 -0.050349 71 84 117
0.320306 -0.210935 0.013507 252 252 251
-0.101524 0.124841 0.062674 76 94 140
-0.066626 -0.290217 -0.010785 242 244 243
-0.070063 0.185211 0.064933 64 76 133
0.094529 0.283225 0.005535 203 205 207
0.171839 0.260580 0.005435 195 197 195
-0.110595 -0.040524 0.036499 250 251 250
-0.061601 -0.208713 0.010282 50 63 135
-0.104098 -0.000713 0.036820 65 67 64
-0.049301 0.254799 -0.056146 93 99 102
0.275610 -0.227805 -0.026764 254 255 254
0.174716 -0.258529 -0.023618 251 252 253
0.209375 -0.254430 -0.010446 249 250 249
0.096614 0.272373 0.005425 250 250 251
-0.101270 0.036960 0.042462 88 115 181
-0.043338 0.274020 0.038270 74 73 79
-0.093600 0.053921 0.040903 65 68 74
-0.069895 -0.246807 0.079717 250 251 250
0.353789 -0.204515 0.032404 252 253 251
-0.086657 0.041531 -0.029222 119 141 184
-0.051479 0.289446 -0.011342 250 251 250
-0.029601 0.294754 0.058093 253 253 253
-0.003535 -0.303883 0.027606 253 255 254
-0.077460 0.112333 0.006034 63 75 102
0.103290 0.269566 0.036176 250 251 250
0.173838 -0.269118 0.024589 235 236 234
0.215948 -0.256469 0.052233 254 255 255
-0.101963 -0.169788 -0.079250 108 115 116
-0.085844 -0.060531 0.008125 67 65 68
-0.098013 -0.146958 -0.071773 71 91 169
0.464294 -0.161492 -0.008260 252 253 253
0.182131 0.254904 0.027079 201 200 199
-0.084352 -0.083359 0.064767 247 247 247
0.287498 0.206731 0.045042 250 251 250
-0.038408 0.277103 0.052060 60 59 65
0.091172 0.274377 -0.012666 252 253 253
-0.055430 -0.248978 0.017636 79 100 157
-0.094330 0.194804 0.029862 69 85 146
-0.088488 -0.070908 -0.036131 115 137 184
0.096083 -0.281931 0.016289 199 200 198
0.341051 0.196743 0.032545 251 250 250
0.362705 -0.194876 -0.015983 230 232 231
0.322609 0.203738 0.008322 251 252 251
-0.079534 -0.223250 0.076848 73 76 80
-0.102958 0.024517 -0.023116 253 253 253
-0.096969 -0.060776 -0.029839 252 252 252
0.437624 -0.169140 -0.025453 250 252 253
0.170637 -0.262387 -0.010892 198 198 198
0.375010 -0.190013 -0.023311 251 252 250
-0.079963 0.234174 0.056670 61 66 66
-0.043274 -0.260928 -0.049582 71 68 72
0.063090 -0.286122 -0.021382 156 160 158
0.056529 -0.285378 0.048665 128 134 136
0.146633 0.268441 -0.018506 184 184 183
-0.065399 -0.279489 0.026794 76 101 176
-0.101776 0.139795 0.067705 52 63 128
-0.093377 -0.176762 -0.072729 70 85 143
0.352222 -0.199627 0.002433 252 253 253
0.324590 -0.214461 0.030726 251 251 252
-0.006850 -0.292244 0.031337 105 132 188
0.128118 0.258355 0.046444 251 252 252
0.047313 -0.288824 0.030354 126 143 174
0.060792 0.293219 0.039909 247 248 248
-0.099697 -0.116801 -0.074594 121 129 131
0.424516 -0.177450 -0.028030 247 248 248
-0.107470 0.065744 -0.051063 77 92 128
-0.088552 0.088960 -0.074040 68 65 68
-0.088397 0.028378 0.049931 70 71 69
-0.017046 -0.294863 -0.017972 251 252 253
0.359089 0.183961 0.042657 251 252 253
-0.060097 -0.258622 -0.078334 75 78 85
0.135403 0.261916 0.047081 250 250 250
-0.089338 0.062070 -0.054576 84 108 159
0.442761 -0.167637 -0.009336 251 252 252
-0.089782 0.209051 0.061309 60 63 74
0.343188 -0.207380 -0.010850 252 253 251
-0.111313 0.104001 -0.075885 184 184 184
0.275919 0.211291 0.040211 252 253 253
0.299266 -0.218809 -0.003337 248 250 249
-0.045127 0.267763 0.057768 105 112 119
0.184324 0.257022 0.003743 196 198 197
-0.104993 -0.068745 -0.030642 85 95 108
-0.030848 -0.284515 0.061622 251 252 252
0.067698 0.279525 0.010874 252 253 253
0.116881 0.267629 0.004655 249 251 250
0.167702 -0.267145 -0.003976 194 194 193
0.147245 -0.269771 0.037037 253 253 252
-0.067463 0.178200 0.066760 89 100 124
-0.085361 -0.086111 0.043993 74 96 163
-0.094563 0.206881 -0.085256 109 123 142
-0.103066 -0.102527 -0.050175 85 93 94
-0.109094 -0.046723 0.010327 242 242 242
0.190783 -0.250948 -0.004974 245 247 246
-0.082108 0.152835 -0.087618 76 93 135
-0.085448 -0.068381 -0.033470 69 71 73
-0.087637 -0.116787 -0.075269 75 92 144
0.191646 0.253922 0.026020 205 205 203
-0.028535 -0.295028 0.043336 76 115 183
0.152920 -0.274054 -0.013568 204 203 203
-0.056286 0.245471 -0.074015 91 108 142
-0.013591 -0.293524 0.056947 247 247 246
-0.073814 0.269758 -0.054441 67 74 73
-0.066467 -0.165739 -0.084309 72 72 71
-0.023638 -0.297878 0.004217 97 123 181
0.287425 0.207524 0.013717 250 251 252
0.207160 0.245089 -0.017463 249 250 249
-0.068636 -0.167494 -0.043210 80 97 152
0.069470 -0.293561 0.017075 251 252 250
-0.066351 -0.281123 -0.021636 67 88 154
-0.031579 0.281248 -0.021575 214 214 212
-0.049518 -0.284862 0.023703 251 253 251
0.428712 0.162071 0.038178 253 253 254
-0.083095 0.132369 -0.063762 94 115 157
-0.093360 0.200058 0.054583 75 85 101
0.177823 -0.265888 0.049801 253 254 254
0.235263 0.227023 0.027706 251 251 253
0.039906 0.302393 0.033539 251 252 252
-0.096994 0.162447 0.065528 104 114 124
-0.047147 -0.277119 0.062168 81 92 112
0.176225 0.259387 0.009677 250 252 252
-0.088932 0.214114 0.062271 58 62 79
0.395070 0.167226 0.004077 251 252 253
-0.087508 0.231199 0.051607 89 113 167
-0.058338 -0.193260 -0.080863 76 83 91
-0.015290 -0.273239 0.063376 151 154 150
-0.055447 0.219648 0.059736 63 69 70
-0.079601 0.255455 -0.054607 75 92 153
-0.081012 -0.231733 0.007252 55 66 136
-0.080096 -0.148961 0.062948 229 231 231
0.251653 0.220197 0.020012 250 251 251
-0.088597 -0.201310 -0.089645 67 71 69
0.071646 -0.295163 0.024843 251 252 252
-0.091379 0.226216 0.016971 63 78 133
0.063517 -0.291544 -0.016053 249 251 251
-0.088718 -0.236901 -0.080087 71 74 81
0.084049 0.276425 -0.022019 250 252 250
0.098135 0.283928 -0.002479 183 183 181
0.077924 -0.276522 -0.011823 223 226 227
-0.082148 -0.242550 -0.066222 69 68 70
0.048210 -0.301520 0.025367 251 253 253
-0.026302 0.301422 -0.026355 250 251 250
0.199330 -0.252035 0.002300 250 251 249
-0.050880 -0.213704 -0.071273 114 128 145
-0.108101 0.037359 0.001506 85 98 116
-0.098125 -0.185860 -0.088731 119 125 122
0.135429 0.272346 -0.015891 249 250 249
-0.052442 0.279838 0.060683 195 199 205
0.380383 -0.194364 0.027862 251 252 252
-0.025591 -0.293894 0.003436 64 91 169
-0.082598 0.207297 0.047376 73 85 91
0.168615 -0.266232 0.039844 251 252 252
-0.062722 -0.271708 0.054166 66 73 93
0.263964 0.225964 -0.006113 248 249 250
0.148097 0.267550 -0.008872 199 200 198
-0.077446 0.163083 -0.084914 66 80 142
-0.084079 -0.091593 0.058011 245 246 245
0.030824 0.291472 -0.022334 249 249 249
-0.044061 0.286860 0.047305 248 249 249
-0.080348 -0.256072 -0.062686 82 111 176
-0.084816 0.081173 -0.029311 95 115 148
-0.057793 -0.199755 0.064863 68 72 75
-0.104235 -0.097109 -0.042114 86 98 105
-0.073477 0.244200 0.065195 59 61 66
-0.099924 0.026616 0.015200 150 161 180
0.396035 0.162289 -0.000148 251 252 251
-0.037485 -0.282571 -0.021609 244 244 244
0.127208 -0.283414 0.044985 191 192 190
-0.055478 0.300112 0.025703 70 60 61
0.075385 0.289107 0.023405 202 202 202
-0.053908 -0.238149 0.033705 63 68 82
0.300777 0.200448 -0.003545 253 254 253
-0.092278 0.223892 -0.062489 85 102 153
0.190490 0.255019 -0.005139 251 251 252
0.007082 0.290413 0.005430 252 253 252
-0.056556 -0.292785 -0.014657 250 251 250
0.052303 0.283855 0.031747 251 253 252
-0.098234 -0.139435 -0.079572 75 73 71
-0.024567 0.292328 0.052787 251 252 251
-0.095364 -0.202803 -0.086981 84 99 129
-0.010093 0.304551 -0.013075 247 247 247
0.147939 0.257612 0.052307 249 250 250
0.003307 -0.289818 0.050738 93 120 180
-0.036006 -0.296834 0.023778 164 168 166
-0.082272 -0.236722 0.011189 62 79 152
-0.092976 0.182707 0.050167 61 73 133
0.142639 -0.278170 0.043180 190 189 188
-0.084566 -0.212738 0.042057 82 92 103
0.130934 -0.272204 0.014495 251 253 253
0.022028 0.286605 0.024855 252 253 252
-0.048982 0.295458 -0.002497 77 88 121
0.146896 0.270147 0.041398 250 251 250
0.109044 0.280804 0.026266 218 220 218
-0.091504 0.199284 0.056992 101 109 125
0.423919 -0.178613 0.022296 253 254 253
0.202425 -0.261207 0.028193 251 252 252
0.169098 0.261656 0.051121 249 249 249
0.264334 -0.232162 -0.025116 249 251 252
-0.012773 -0.294786 0.018199 249 250 250
-0.111362 0.061184 -0.042914 77 83 81
-0.109516 0.098103 0.005371 71 87 139
0.392005 -0.184807 0.010296 254 255 254
-0.049839 0.281771 0.052217 64 64 68
-0.074899 0.175716 -0.019078 62 76 149
-0.004123 -0.303334 0.050230 250 251 252
-0.035082 0.308260 0.012319 247 248 248
0.015946 -0.298493 0.015214 194 193 190
0.361482 0.187306 -0.003567 253 254 254
0.137609 0.260933 0.012516 252 252 251
-0.057728 -0.190670 0.078857 125 152 200
0.422931 0.162268 0.004741 249 250 251
-0.105457 0.103970 0.034181 64 80 148
-0.014605 -0.293567 0.016552 244 246 246
0.424594 -0.173506 -0.021354 251 252 254
-0.052667 -0.292335 0.002838 251 253 251
-0.044374 -0.245685 0.064248 98 123 179
0.254615 0.218866 0.041937 253 254 253
0.373552 0.175107 0.034757 250 251 251
-0.088214 0.089293 -0.057001 49 58 128
-0.093905 0.188571 0.029484 52 62 130
0.166433 0.263927 -0.021207 253 254 253
0.276591 0.221796 -0.011155 249 250 249
0.022733 -0.300568 0.028914 251 252 253
-0.086384 0.084055 0.019427 71 85 151
-0.100193 -0.061231 -0.028658 251 250 250
0.238832 -0.241493 0.047890 249 251 253
