ply
format ascii 1.0
element vertex 1234
property float x
property float y
property float z
property uchar red
property uchar green
property uchar blue
end_header
0.156961 0.362932 0.025217 253 253 253
-0.056017 -0.276494 0.069180 7 20 128
0.143544 -0.400946 -0.013013 221 222 221
0.023233 0.315641 0.101613 164 166 164
-0.008836 -0.321926 0.081456 13 32 126
0.173218 -0.378740 -0.029562 255 254 255
0.568181 -0.173120 -0.039025 253 254 253
0.073179 -0.390316 0.072704 186 188 188
0.085394 0.361952 0.076662 181 180 180
0.200657 0.348290 0.001917 202 202 203
0.149315 0.403122 0.032360 13 11 11
0.511940 0.192784 -0.043405 252 252 253
-0.147329 0.091839 -0.040061 14 14 12
-0.149138 -0.036233 0.087793 13 14 15
0.214756 -0.336117 -0.021436 9 9 58
-0.049787 0.299480 -0.102096 12 12 13
0.437328 -0.227550 -0.071865 13 13 19
0.129888 0.380522 0.048671 14 13 14
-0.096967 -0.268174 -0.107009 221 215 219
-0.127276 0.095392 -0.053291 15 14 14
-0.154388 -0.047213 0.047807 230 229 230
0.070693 -0.392883 0.052006 13 15 15
-0.123235 0.193626 -0.122769 14 13 15
0.196622 0.376266 0.012349 212 212 211
-0.052256 -0.299968 0.112754 212 212 212
-0.143012 0.021686 0.015997 5 8 90
-0.146115 -0.086243 0.098220 236 237 239
-0.121177 -0.181714 -0.055157 7 8 119
0.214653 -0.363247 0.004363 200 200 201
0.375860 -0.279749 -0.074042 8 7 48
0.564663 0.175418 -0.055757 254 252 254
-0.110241 0.251145 -0.120350 14 14 15
0.212697 -0.367288 0.022931 248 248 248
0.059217 0.368166 0.036085 183 183 183
-0.070829 0.278260 0.112697 150 151 152
-0.143694 -0.114350 -0.021027 9 8 121
-0.142463 0.104282 0.001009 6 9 90
0.256265 0.326012 0.041628 253 254 252
-0.120680 -0.112960 0.103694 251 251 251
-0.129852 0.134459 0.043471 9 11 91
0.014944 -0.351811 -0.094824 15 13 15
0.150926 -0.392295 -0.014107 145 148 144
-0.048219 0.276915 0.034388 7 12 45
0.181226 -0.383593 0.007226 223 223 223
-0.140850 -0.136677 0.102824 240 241 240
-0.135929 0.132171 -0.026259 8 13 71
0.253048 0.328337 -0.023999 172 173 173
0.115889 -0.388208 -0.019293 188 188 188
-0.025398 0.308602 -0.089191 8 10 13
0.042748 -0.384186 -0.037626 187 187 188
-0.006885 0.336491 0.088762 167 168 167
-0.005295 0.338143 0.076160 169 169 168
0.071739 -0.369800 0.064080 10 41 130
0.007991 0.348400 -0.083816 178 177 177
0.125163 -0.379762 0.034539 13 14 14
0.245851 0.347009 -0.030235 255 255 254
-0.045965 -0.286215 0.043632 11 21 122
-0.075694 -0.278118 -0.127822 14 13 14
0.232383 -0.360526 0.009865 252 251 252
0.632081 -0.128919 -0.058208 6 8 49
0.317570 0.314461 -0.020778 251 252 251
-0.142516 0.071781 0.048513 5 5 103
-0.020216 -0.310411 -0.105438 210 209 209
0.048021 0.365866 -0.042122 13 12 13
0.107073 -0.378172 0.062181 193 192 192
0.112533 -0.380960 -0.010834 190 191 190
0.551916 0.182961 -0.051263 13 12 13
0.180757 0.389736 0.046158 15 15 14
0.065187 0.360991 -0.022988 12 14 14
-0.145935 -0.062048 0.035693 9 9 118
0.257179 0.344305 0.027165 180 180 180
0.030829 -0.372548 -0.059217 189 192 191
0.115203 -0.406740 0.004873 15 15 15
-0.157276 -0.028516 0.022114 225 226 224
-0.144265 0.081567 0.012464 4 6 97
0.616612 -0.140173 -0.088780 5 5 54
-0.030300 0.294293 -0.088278 11 11 14
-0.009513 0.316047 -0.080608 18 7 14
0.013295 -0.363701 0.070980 12 13 14
0.149000 0.382331 -0.021258 255 254 253
0.165262 0.370513 0.059532 253 252 253
-0.125649 -0.074724 0.089208 237 238 238
0.665563 0.095854 -0.033579 253 253 252
-0.125456 0.039036 0.062552 12 12 13
0.131517 0.374848 0.000192 255 255 255
-0.080455 -0.252507 -0.126860 14 14 15
0.010041 -0.341934 -0.091127 204 204 205
-0.126565 0.015616 0.092115 207 210 208
0.156080 -0.397334 0.036432 189 190 190
0.320488 0.291882 -0.002159 254 254 252
-0.105181 -0.198100 -0.104049 15 15 17
0.602436 0.141430 -0.024202 253 253 254
0.036578 0.362606 0.044656 12 13 12
0.203424 0.362436 0.024493 151 152 153
0.040348 0.365467 0.069171 12 13 13
0.144721 -0.395360 0.021783 229 228 229
0.009342 0.323771 0.011398 7 12 26
0.164059 -0.394271 0.056010 13 12 14
0.033640 -0.361919 -0.046256 7 17 128
0.357710 -0.269798 -0.065821 13 11 14
-0.139752 0.105403 0.020768 9 11 90
0.097083 -0.386531 0.007230 13 15 15
-0.057331 -0.313563 -0.112725 206 206 206
0.337939 0.300910 -0.013809 8 8 48
-0.111582 0.155658 0.111705 14 14 16
0.149477 -0.391826 0.002985 12 13 14
-0.121304 0.152954 0.095703 14 14 13
-0.124808 0.216084 -0.117756 13 13 13
-0.126271 -0.030396 0.036670 15 13 15
0.050738 0.362750 0.047433 13 13 15
0.270394 -0.337444 -0.044688 251 251 251
0.155648 0.392186 0.017364 232 232 234
-0.129864 0.137179 0.053088 8 8 91
0.618795 0.145862 -0.037529 254 253 254
0.323212 0.312061 0.021152 6 5 48
0.070979 0.364685 -0.031131 11 11 12
0.080176 -0.386009 0.084487 13 13 13
0.011444 0.331645 -0.071878 11 5 14
0.262460 -0.328270 0.029908 254 254 254
0.105760 0.369480 0.084698 14 13 12
0.153956 -0.392209 0.061061 240 239 240
0.127824 0.390385 0.028780 253 254 252
-0.155417 0.070592 -0.020456 12 12 14
-0.116245 0.167166 -0.115907 174 174 174
0.132453 -0.408317 0.032132 12 12 13
0.069425 -0.378466 -0.026448 190 190 189
0.481968 0.214040 -0.016947 254 253 253
-0.127462 -0.209921 -0.113412 226 226 225
0.552581 0.186888 -0.040233 252 252 253
0.439109 0.233601 -0.046067 12 10 15
0.329846 -0.303449 -0.041521 253 255 255
-0.132828 0.184339 0.099631 15 16 16
0.163531 0.371583 0.041320 218 218 218
0.209094 -0.366381 -0.029076 195 196 195
-0.053175 0.308484 -0.109614 13 12 13
0.510890 0.196309 -0.000098 255 255 254
0.004496 0.320830 0.014050 8 14 27
-0.129567 0.132285 0.086979 8 9 100
0.314435 -0.295817 -0.020129 166 167 165
0.154950 -0.379982 0.051322 254 254 255
0.510741 -0.188391 -0.068668 8 6 50
0.260997 -0.326031 -0.032561 253 254 253
-0.129506 -0.094839 0.107501 233 233 234
0.120565 0.373323 -0.006050 181 181 182
0.603619 0.140248 -0.013688 7 6 51
0.534772 -0.188114 -0.077092 7 6 50
0.240015 0.332856 -0.006897 162 162 165
0.049258 0.359784 -0.032585 177 178 179
0.283281 -0.329443 -0.029188 254 255 254
0.279758 -0.315117 0.014970 165 168 166
0.096890 -0.384831 -0.007416 14 15 13
-0.123765 -0.164026 -0.110015 232 233 234
-0.131875 0.085868 0.081896 15 16 16
-0.088615 0.195451 0.109745 136 138 134
0.192770 -0.381122 0.020860 227 227 227
0.296512 0.306429 -0.023020 156 157 157
-0.033297 -0.333397 -0.100334 200 200 199
0.046758 0.372175 0.013472 178 178 178
0.357195 -0.276294 -0.008659 253 253 254
0.464366 -0.214279 -0.046185 255 255 254
-0.151728 -0.083955 -0.047631 12 15 74
0.016287 0.346356 -0.049697 12 14 14
-0.142776 -0.080441 0.066267 11 8 123
0.100599 -0.399418 0.060651 94 99 97
0.054442 0.338388 0.085926 11 12 14
-0.045246 0.284853 0.093568 161 162 160
-0.140046 -0.061052 0.054282 13 13 15
0.027572 -0.352607 -0.000498 8 23 125
0.603730 -0.139402 -0.055032 7 8 47
0.373885 -0.282743 -0.033338 253 253 251
-0.155039 0.064783 -0.022088 202 200 202
-0.085177 -0.237672 0.052997 10 16 122
-0.064356 -0.284638 0.097625 215 215 216
0.025756 -0.336826 0.101113 12 14 15
0.433590 0.256984 -0.025043 253 255 255
0.151490 0.368469 0.010903 252 253 252
-0.122146 0.194688 -0.121487 13 12 13
0.179540 -0.370312 0.022530 255 255 255
0.004757 0.322261 0.017085 7 13 27
-0.110008 -0.202997 -0.056185 10 11 124
-0.153435 -0.059049 0.043194 232 231 231
-0.152623 0.094016 -0.051905 193 194 193
-0.069145 0.293282 -0.110467 160 160 161
0.035093 -0.378506 0.029125 14 14 14
-0.118449 0.175578 0.049024 8 12 77
-0.117618 0.156018 0.109019 134 137 135
0.031811 -0.361882 0.064757 200 199 201
-0.149238 0.024161 -0.018104 221 220 219
0.296773 0.308275 0.038587 253 253 255
-0.001228 0.337697 0.097065 167 168 168
0.279990 0.316698 -0.039715 253 253 251
0.654692 -0.119379 -0.078807 5 5 53
0.201442 -0.374436 -0.033620 204 204 204
0.052653 0.358754 0.041998 12 13 16
-0.144334 -0.136120 0.108156 236 237 237
-0.095913 0.246249 0.111248 159 159 156
0.000372 -0.327642 0.048522 7 27 129
-0.103178 -0.205664 0.093495 9 13 121
0.173650 0.363641 -0.023817 212 212 212
0.134274 -0.405621 -0.005295 253 254 252
0.161822 0.396048 0.023780 182 180 181
0.139144 -0.386090 -0.015687 255 254 255
0.472585 -0.215718 -0.083690 12 14 15
-0.116024 -0.130296 0.113842 15 14 16
-0.029688 0.299731 -0.107015 158 159 159
-0.031900 0.292417 -0.010491 5 14 32
-0.071782 -0.293049 0.106302 15 14 16
-0.108659 -0.197157 0.030719 9 12 120
-0.144757 0.102492 0.010034 5 7 93
-0.144440 -0.088129 0.048149 10 9 121
-0.118268 0.171333 0.005575 11 17 68
-0.126123 -0.175380 -0.097635 236 236 237
0.105030 -0.391404 -0.017745 13 13 15
0.123044 0.384542 0.007230 15 14 13
-0.103136 -0.219914 -0.125298 13 13 13
0.278881 0.315309 -0.014125 252 253 253
-0.062028 0.257757 -0.116324 15 13 13
0.220933 0.343244 0.030808 206 205 204
0.174085 0.381038 0.048298 255 255 255
0.049761 -0.389425 -0.032214 13 14 15
-0.029548 0.292412 0.031031 8 16 39
-0.125617 0.129468 -0.106075 13 12 13
-0.117832 0.172643 -0.006692 9 16 62
0.351140 0.289720 0.035676 255 255 255
-0.097280 0.233844 0.102299 153 151 149
0.174234 0.385696 -0.002207 255 253 255
0.426675 0.240371 -0.033114 253 252 254
0.299973 -0.305793 -0.025617 255 254 253
0.166506 0.389221 0.019110 222 222 222
-0.156224 -0.036492 0.053375 226 226 227
-0.063271 0.291910 -0.113525 14 12 14
0.592799 0.148963 -0.011253 255 255 254
-0.108567 0.181482 -0.110165 12 11 13
-0.144650 0.149105 -0.102902 14 14 14
0.571375 0.174359 -0.037866 14 12 20
-0.126953 0.029999 0.050537 15 16 17
0.211787 0.367034 0.038572 253 255 253
0.299441 -0.322809 -0.054880 160 158 157
-0.008774 -0.309372 0.108466 206 204 205
0.647490 -0.124406 -0.082050 254 255 253
-0.056543 -0.285365 -0.108985 10 10 126
0.634420 -0.128439 -0.085156 9 8 45
0.231744 -0.339851 -0.003501 255 255 254
-0.156744 -0.014810 0.016591 230 231 232
-0.009402 0.322974 -0.107583 166 166 166
0.323176 0.296255 0.036567 255 254 253
-0.135046 -0.117837 0.039453 7 8 118
0.202717 -0.356020 0.005906 254 254 255
-0.122825 0.079160 -0.035936 194 195 193
-0.046762 -0.317824 -0.098863 13 13 14
-0.141497 0.049648 0.036777 8 6 100
0.377494 0.260892 0.020005 255 255 255
0.098764 -0.383192 0.017441 12 12 13
0.109485 -0.377312 -0.010409 197 198 198
-0.133456 0.139527 -0.107130 177 177 178
0.128787 0.375229 0.015274 8 8 11
-0.079928 0.256975 0.108217 13 14 13
0.191050 -0.382676 -0.017879 252 254 254
0.088731 0.372553 0.003445 10 11 13
0.162138 0.367202 0.041135 227 227 227
0.194105 0.351692 0.027691 253 254 253
-0.007810 -0.323302 0.091107 204 204 205
-0.154181 -0.001905 0.053402 14 15 14
-0.128600 -0.091037 -0.030143 12 12 12
-0.021689 -0.291633 0.098309 13 12 12
0.282340 -0.311906 0.030935 255 253 254
-0.125121 0.144825 0.094483 14 14 15
-0.074099 0.249713 0.024156 7 15 52
-0.145324 -0.072131 0.022488 11 8 115
0.120994 0.384766 -0.015473 232 232 233
0.254889 0.331782 0.043817 181 181 182
0.136718 -0.382841 0.041258 255 255 255
0.268185 -0.325682 -0.052759 253 254 253
-0.095646 -0.244126 0.101479 218 218 218
-0.127242 0.059172 0.044947 200 198 200
-0.124742 0.005775 0.045329 13 11 13
0.147489 0.396898 0.015741 11 12 13
0.287668 0.331538 0.035090 254 254 252
-0.121150 0.164135 0.039350 8 10 78
0.064100 -0.389711 -0.020659 187 187 188
-0.100035 -0.215231 0.084943 10 16 121
0.253054 -0.347469 0.036292 254 255 252
0.014965 -0.342259 0.017129 9 23 129
0.394121 0.259025 0.003069 252 252 253
0.170706 0.361866 0.057324 255 255 255
-0.144010 -0.122426 0.106196 13 14 15
0.018742 0.335307 -0.082154 12 12 13
0.578609 -0.161174 -0.091380 255 255 255
-0.011584 0.333702 0.096930 15 16 15
-0.019983 -0.314631 0.052515 8 26 125
0.109717 0.397102 -0.017476 191 191 192
0.487997 -0.200567 -0.022903 8 8 48
0.529048 0.198048 -0.006851 255 255 255
-0.140457 -0.095242 0.012263 10 8 113
0.615422 -0.136973 -0.094027 5 7 49
-0.133877 0.143255 -0.063829 8 13 60
-0.008990 0.309477 0.091372 8 14 50
0.184192 -0.365755 0.011074 253 255 254
-0.065097 -0.278681 0.098054 214 214 215
0.076680 -0.379884 -0.005299 11 26 128
-0.085134 -0.246832 -0.124028 14 13 15
0.366085 -0.267446 -0.074943 11 10 13
-0.134154 0.135727 0.003106 11 15 83
0.022478 -0.343500 0.078355 14 35 128
0.130034 -0.402480 0.014081 253 254 254
0.292118 -0.304587 -0.049307 254 253 252
0.080932 -0.369366 0.075027 12 11 13
-0.128653 0.039664 -0.022752 14 13 13
0.530376 0.198440 0.012237 254 254 255
0.199357 0.352011 0.004565 252 252 252
0.069572 -0.390228 -0.019412 188 187 187
-0.004109 -0.334027 -0.062156 9 12 128
0.160468 0.364889 0.012795 255 255 255
0.045041 0.365589 0.049665 12 13 12
0.326970 -0.302878 0.007585 255 255 254
0.009074 -0.323314 0.095959 203 204 203
-0.134783 -0.111176 0.091175 9 12 118
0.669093 0.108547 -0.031699 254 254 254
0.044449 0.374081 -0.047583 182 181 182
0.165872 -0.387037 0.056037 223 223 224
-0.116233 0.174540 0.034758 7 12 74
0.000123 0.346353 -0.079304 10 11 13
0.247428 -0.356739 0.033854 216 217 215
-0.065961 0.256033 0.058605 9 14 56
0.274285 0.317361 -0.025321 251 252 252
0.457476 0.225515 -0.031608 254 253 254
0.165164 0.394956 0.058503 197 197 198
0.339990 -0.298777 -0.064883 255 254 255
0.553130 0.185283 -0.013120 255 255 255
-0.000699 0.343752 -0.103342 17 17 16
0.262046 -0.337941 -0.050255 254 255 254
0.099565 -0.407907 0.009518 181 180 181
0.067486 0.359494 0.051127 10 11 14
0.312952 0.297682 0.001796 255 255 255
-0.141427 -0.106519 -0.000699 6 6 121
-0.017431 -0.338603 0.085683 201 202 201
-0.142207 -0.064738 0.050219 232 232 233
-0.083549 -0.287300 -0.123555 208 208 208
-0.062604 -0.274371 -0.107077 215 215 216
-0.075501 -0.246443 0.083358 7 19 126
0.109258 -0.402305 0.012900 252 253 251
-0.148762 -0.044333 0.044745 8 6 119
0.058338 0.378587 -0.038426 182 183 184
0.160706 0.387395 0.002739 254 254 254
0.036867 -0.375970 0.057674 13 14 14
0.593525 0.146110 -0.049253 6 8 57
0.618332 -0.133257 -0.094087 13 10 14
0.090688 -0.378868 -0.003066 198 195 196
0.351156 0.291859 -0.004582 5 5 54
0.127770 -0.397787 0.037941 188 189 190
0.365033 0.290071 -0.012270 254 255 253
0.288727 -0.325957 -0.009449 209 211 210
-0.136555 -0.114265 0.011555 10 10 122
-0.062026 -0.273059 -0.022031 13 18 125
-0.113575 0.205100 0.114049 15 15 16
0.623262 0.130576 -0.016572 252 253 252
-0.151699 0.066375 0.081961 123 124 125
0.006252 0.345744 0.080226 14 14 14
0.113713 0.403523 0.008761 12 10 13
-0.146833 0.119083 -0.094299 13 13 14
0.292616 -0.323303 -0.003865 168 168 168
0.013763 0.329010 -0.058872 10 11 16
-0.109939 -0.207456 -0.106700 13 13 13
-0.107816 -0.158676 0.107949 16 16 16
-0.128080 0.093199 -0.058187 191 191 190
0.069500 -0.392672 -0.002309 187 189 189
0.215829 -0.348450 -0.010431 254 255 254
0.170466 0.383448 -0.013174 255 253 254
-0.024840 -0.338383 -0.107699 197 198 198
0.263949 0.341024 0.042936 253 255 253
0.025810 0.339418 -0.038490 10 13 16
0.041710 0.338696 0.097675 11 12 14
-0.103531 -0.216120 -0.024891 8 12 126
0.376020 -0.281823 0.009799 248 249 249
0.039260 -0.383022 -0.040546 15 15 16
0.060197 -0.352694 0.092326 202 202 200
0.579466 -0.158466 -0.093163 14 13 14
-0.035328 -0.291542 0.096041 14 14 15
0.369202 -0.271228 0.016556 253 253 253
0.084144 -0.380413 0.029393 10 37 131
-0.022049 -0.296517 0.091030 13 14 14
-0.111450 -0.206388 -0.074131 12 11 119
0.179679 -0.392847 0.050435 255 255 255
0.193753 0.377076 0.026366 254 254 255
-0.103183 0.203587 0.086053 5 9 80
-0.141014 0.172166 -0.090992 173 174 172
-0.004363 0.324322 -0.101063 165 165 165
0.583026 -0.152146 -0.090695 12 13 13
-0.143047 -0.158182 0.097477 231 233 233
-0.119935 -0.227646 -0.113490 15 16 16
-0.103313 -0.198942 -0.120216 14 15 14
0.633275 0.123366 -0.038073 7 6 52
0.000651 0.351850 -0.094533 12 13 13
-0.045620 -0.311315 0.104986 207 207 206
0.166059 -0.386463 0.054326 253 254 255
0.114233 -0.400272 -0.000598 13 15 15
-0.152979 0.053658 0.082019 15 16 17
-0.141784 -0.036282 0.095173 13 12 14
-0.145742 -0.033721 0.077840 254 253 254
0.239471 0.352610 -0.030292 188 187 189
-0.147098 0.047775 0.012945 6 4 97
-0.074558 -0.254817 0.070034 10 20 126
0.119421 0.396564 0.013452 189 187 189
-0.138426 0.092183 0.048719 5 6 101
-0.084339 -0.242113 0.023699 8 12 119
-0.061694 -0.253511 0.117797 213 215 215
-0.043277 0.262732 0.096528 13 13 15
0.073114 -0.396777 0.040834 186 188 188
0.200207 -0.388782 0.043040 11 11 12
0.418484 0.263870 -0.037698 253 255 255
-0.031314 0.322289 -0.116218 12 13 12
-0.034345 -0.334567 -0.098525 13 13 15
-0.156701 0.042792 0.031365 16 15 16
0.300377 0.323038 -0.031127 159 161 160
0.456032 -0.239077 0.008281 254 254 253
0.553693 0.177322 -0.050285 6 7 50
0.088917 -0.377974 0.043081 12 12 14
0.015999 -0.347363 -0.069412 8 12 129
0.598668 -0.138880 -0.056295 252 252 253
-0.126719 -0.160426 0.004145 9 11 117
-0.012090 -0.321032 -0.039854 12 16 130
-0.125727 0.147334 0.088361 8 12 97
-0.022730 -0.339116 -0.089165 200 200 201
-0.033905 0.286014 0.111565 11 13 13
-0.110441 0.147588 0.101455 12 14 14
0.178017 0.368688 0.055257 254 254 255
-0.024344 0.302293 -0.092837 11 13 14
0.549704 -0.176358 -0.073730 252 253 253
-0.130703 -0.153872 -0.089746 11 5 113
0.466654 -0.229001 -0.048284 254 253 253
-0.077445 0.247855 -0.010682 7 12 42
0.597998 0.156535 -0.016430 252 252 253
-0.131011 0.138084 -0.022077 9 13 76
0.554243 -0.175984 -0.047552 254 255 255
-0.132155 -0.150015 0.007696 9 10 120
0.464105 0.235979 -0.044242 255 255 255
-0.137331 0.083620 0.005052 5 8 79
-0.137969 0.100071 -0.094698 14 14 15
0.649565 -0.120999 -0.081395 254 254 255
-0.092393 0.213627 -0.117048 12 12 13
-0.078787 -0.253051 0.020688 10 14 124
0.150473 0.391835 0.025906 185 184 183
0.007263 -0.332763 0.098075 17 42 130
0.271412 0.336453 0.016916 153 154 154
-0.125118 -0.154425 0.117218 234 234 235
0.139965 -0.391559 0.052248 252 255 254
0.175816 -0.370483 0.016371 253 253 254
0.068889 0.380167 0.047597 189 189 191
0.031966 0.343351 -0.011232 8 10 16
0.239123 -0.348730 0.037419 210 208 209
-0.070773 -0.287667 0.116997 214 214 213
-0.067265 -0.280586 -0.106009 14 15 17
0.436980 -0.249707 -0.012731 9 8 56
-0.008918 0.311015 -0.031999 11 12 22
0.074596 0.384409 0.052264 14 13 13
-0.001677 -0.318910 0.089108 205 203 205
0.290543 -0.304998 -0.054556 253 253 253
-0.147989 0.072795 -0.004717 9 7 90
-0.150585 -0.052043 0.033988 226 226 226
-0.155401 -0.114225 -0.073204 238 238 238
0.004957 -0.347460 -0.094409 195 195 195
0.152504 0.367983 0.060117 255 255 253
-0.028096 -0.305811 0.110924 206 207 208
-0.094884 0.221486 -0.015585 9 15 46
-0.026298 -0.312669 0.057155 8 24 123
0.278036 0.313217 0.018530 255 254 253
-0.142968 -0.067273 0.034328 9 8 117
0.284429 0.324632 -0.009450 162 163 164
0.521250 -0.194630 -0.084901 253 255 254
0.007344 -0.359138 0.084172 195 193 195
0.283906 0.318094 -0.039079 162 161 163
-0.134612 0.121956 0.040444 9 10 86
-0.133207 0.121770 -0.002679 12 13 80
0.632447 -0.120322 -0.097088 6 8 49
-0.102208 -0.214544 -0.005896 7 11 122
0.102616 -0.376298 0.052058 12 12 15
-0.117609 -0.226405 -0.106971 14 14 16
0.233659 -0.337363 0.023497 204 204 205
0.300067 -0.315050 -0.011626 156 158 158
-0.028822 -0.311587 0.052259 14 28 129
-0.146393 0.064592 0.033678 5 7 100
-0.103848 -0.217368 -0.039732 7 8 124
0.158755 0.385919 -0.019077 254 254 255
0.154051 -0.399031 -0.020404 251 251 250
-0.143014 0.096856 0.103268 193 194 192
-0.032713 0.297001 0.024033 9 13 42
0.175785 -0.409894 0.027757 175 175 175
-0.128441 -0.121629 0.085575 10 10 123
0.175821 0.385738 -0.000517 222 224 224
0.145209 -0.410664 0.026191 172 171 170
-0.077763 -0.236442 0.119184 221 224 222
-0.131787 -0.156731 -0.054266 7 6 116
-0.121860 0.134390 -0.088970 179 181 179
-0.122512 0.020236 0.024746 214 215 214
0.193778 0.355113 -0.014884 207 207 209
0.222766 -0.361673 0.044340 254 255 255
-0.101797 -0.215472 0.073179 7 12 121
-0.010996 0.318857 0.105348 165 165 166
-0.125543 0.171289 -0.063569 11 18 47
-0.123869 0.158187 0.088417 6 10 93
0.155049 0.383906 0.025141 228 229 227
-0.120742 -0.032096 0.082152 14 13 14
-0.000075 -0.361837 -0.086479 14 14 15
-0.115352 -0.203008 0.115870 14 16 15
0.623122 0.139165 -0.045416 6 8 56
0.040009 -0.382544 -0.056422 15 14 16
0.244475 0.353491 0.047430 253 252 255
0.276589 -0.329160 0.031137 174 173 175
0.143141 0.387057 0.066200 11 11 12
-0.014833 -0.319851 0.097731 46 65 144
-0.139719 0.057596 -0.035330 14 14 14
0.472500 -0.213305 -0.081438 13 12 15
0.453506 0.240044 0.024853 254 253 253
0.025008 -0.370647 0.066763 196 196 196
-0.120593 -0.011743 0.038574 221 222 221
0.122109 -0.409356 0.010956 249 249 248
0.418692 -0.242369 -0.005263 255 255 254
-0.121325 -0.171637 0.023261 8 9 123
-0.093671 -0.228758 -0.021926 8 12 128
0.134029 -0.401150 -0.003572 186 185 187
0.509313 0.211120 -0.027384 253 253 255
-0.062842 0.255353 0.006753 8 13 45
0.272881 -0.339632 -0.016597 205 206 206
0.210317 0.369451 -0.023057 203 202 204
0.188178 -0.383342 -0.018349 253 251 251
0.369271 -0.285094 0.016647 254 253 253
0.365315 0.292348 -0.022253 251 250 250
0.044597 -0.381105 0.063718 12 12 13
0.004548 -0.329618 0.077492 15 36 135
-0.075736 0.252220 0.009764 10 16 45
-0.120847 -0.191366 0.095795 15 18 18
0.421532 -0.252459 0.007145 254 255 254
-0.143581 0.129691 -0.079951 186 187 186
-0.156621 -0.052284 -0.016032 13 13 14
0.098284 -0.403508 0.038396 13 13 14
0.352432 0.293690 -0.041452 253 254 253
0.117787 0.379345 0.076270 186 187 186
0.056887 0.363537 -0.044026 12 11 11
0.144341 -0.421278 0.030587 162 164 161
0.378207 -0.258854 -0.029030 250 252 252
-0.118351 0.122650 0.099569 14 15 15
0.054627 0.335639 0.094618 13 12 13
-0.008574 0.312793 0.063913 9 15 38
-0.131741 -0.142496 0.003766 7 7 117
-0.097110 -0.226685 0.044632 7 12 122
0.565696 -0.158590 -0.080822 254 254 253
0.107001 -0.404250 0.034882 12 12 13
-0.137499 0.077354 0.038297 9 7 89
-0.113543 0.181077 0.098900 9 11 91
0.030410 -0.356079 0.004257 8 25 130
-0.054632 -0.280416 -0.008714 9 14 122
-0.035539 -0.311036 -0.071190 7 10 123
-0.069896 0.246402 0.096342 6 13 73
0.012886 -0.343833 0.011757 9 25 128
-0.103193 0.187229 -0.102572 168 168 169
-0.149455 -0.023476 0.079553 12 12 13
0.456318 0.220942 -0.024028 13 12 14
0.415010 0.246929 -0.019078 14 11 14
0.149564 -0.393364 0.063984 190 190 189
0.212857 0.366797 0.045238 111 114 112
-0.156739 -0.042736 -0.021478 14 14 13
0.003910 0.322898 -0.017704 9 14 23
-0.131106 -0.146853 0.046479 9 11 120
-0.128229 0.109116 -0.067648 14 14 14
0.556436 0.183470 -0.031961 7 7 50
0.240529 -0.334202 0.019460 188 189 189
0.013048 0.346753 0.095472 13 13 13
-0.071904 0.241194 0.035488 11 16 53
-0.096882 0.244930 -0.111437 12 12 14
0.314936 -0.293611 -0.065579 253 254 255
0.303237 -0.301046 0.015953 254 255 255
0.039014 0.362106 -0.039838 175 175 175
0.468902 0.221800 -0.010882 255 254 255
0.319804 -0.294644 -0.036053 252 253 252
0.185520 -0.385953 -0.024599 252 253 254
0.000176 0.341850 -0.096625 14 14 14
0.160168 0.388641 -0.003604 174 174 176
0.289911 -0.322429 -0.056188 148 147 145
-0.052646 0.275941 -0.119022 14 13 15
-0.136184 -0.140475 -0.049896 11 8 113
-0.101796 -0.234569 0.101128 218 220 219
0.372987 0.289839 0.026272 253 254 254
-0.081905 0.268773 0.096334 13 14 14
0.067366 -0.390373 0.035158 188 190 190
0.059703 -0.371561 0.057017 13 13 13
0.065685 -0.372388 0.017331 9 30 132
0.502887 0.211904 -0.047217 253 253 253
-0.113889 0.189117 0.009920 10 16 63
0.301078 0.319484 -0.003590 157 156 159
0.501327 0.204870 -0.050142 14 11 19
0.274637 -0.335925 -0.008497 143 144 147
0.407462 0.248530 0.029192 255 254 254
-0.061646 0.289012 -0.093923 13 13 15
-0.065145 -0.285916 0.097829 211 212 211
0.302135 -0.307046 0.023031 6 8 51
0.612294 -0.142387 -0.049110 5 5 54
-0.107326 -0.192277 0.098693 15 14 16
0.340815 0.300609 0.014751 253 253 252
0.105705 0.371974 0.026032 181 181 181
0.389646 0.259661 -0.035260 252 254 252
0.077705 0.367951 -0.028770 15 13 13
-0.001972 -0.353777 -0.092084 15 14 16
0.007175 -0.362257 -0.073725 14 13 14
-0.121144 0.166334 0.049497 10 16 81
0.172139 0.362465 0.052657 229 229 229
-0.137086 0.162331 -0.090403 146 145 146
0.222116 0.360552 -0.026734 253 253 251
0.420761 0.245612 -0.020180 14 12 15
0.197917 0.354808 -0.010187 204 205 205
0.249857 -0.340513 -0.047154 174 171 173
-0.025917 -0.310637 -0.026083 10 16 126
0.610237 0.136219 -0.055824 7 8 56
-0.100713 0.210768 -0.070188 7 12 31
-0.047791 -0.289833 0.001918 10 18 125
0.142957 -0.404334 0.057723 185 186 186
-0.137092 0.021404 -0.005059 218 219 220
-0.118503 0.149958 0.110534 180 181 182
-0.141302 -0.114118 0.100551 246 245 245
-0.142922 0.073969 0.061269 9 8 111
0.394023 0.262941 0.030663 253 252 254
0.030882 -0.353836 -0.075113 196 195 196
0.009579 -0.361196 -0.070292 196 195 196
0.011203 -0.339026 -0.095221 14 12 14
0.235428 -0.336314 0.004322 253 254 255
-0.088715 -0.276769 -0.114231 216 216 217
-0.058805 -0.268124 -0.113131 216 216 215
-0.127666 0.149243 0.022933 8 15 78
0.545178 0.178489 -0.037835 253 255 254
0.175030 -0.385385 -0.027764 253 254 253
0.127984 0.388404 0.039057 190 191 189
0.452110 -0.234917 -0.025312 255 255 255
-0.125132 -0.015436 0.048155 219 218 217
-0.109572 0.142297 0.101488 15 14 14
0.541745 -0.182607 -0.066475 7 8 46
0.247219 -0.343703 0.036834 186 186 187
0.277636 0.314055 -0.016214 154 153 154
-0.028731 0.320506 0.105799 165 166 166
0.036486 0.339048 0.034064 11 14 23
-0.047415 0.276622 -0.123091 155 156 157
0.060403 0.368076 0.087838 13 13 12
0.324093 0.294611 0.032544 254 254 254
-0.140753 -0.072861 0.072251 6 5 122
0.285681 -0.310441 0.020278 156 156 157
-0.149856 0.071915 -0.024628 196 196 196
-0.112707 -0.207375 -0.047044 9 9 118
0.211720 0.363078 0.053311 254 253 255
-0.147057 -0.140126 -0.078100 15 14 15
-0.065109 -0.251801 0.105316 14 16 16
0.105983 -0.405744 0.044887 182 181 182
-0.141874 0.092498 -0.055697 7 11 70
-0.152691 0.056086 -0.013154 207 206 206
0.326008 0.306839 -0.043974 156 155 157
0.438857 0.251831 0.020343 255 255 253
0.278446 0.312599 0.044724 167 167 168
-0.127138 0.133577 0.095701 183 184 183
-0.100718 0.255736 -0.116389 14 13 14
0.290125 -0.333809 0.020878 211 210 210
0.263747 0.341938 0.008685 253 253 253
-0.154072 0.111211 -0.089905 15 14 16
-0.122487 0.074393 0.095889 195 195 196
-0.120811 0.094694 0.099420 197 196 196
-0.124333 0.165934 0.083658 10 13 92
-0.120732 -0.176008 0.026348 8 7 124
0.051634 -0.368777 -0.034372 9 19 128
0.308032 0.300561 -0.019909 158 159 158
0.192568 -0.362101 0.028303 196 196 198
0.031626 -0.353448 0.028046 10 26 123
0.303573 -0.316760 -0.039204 169 169 170
-0.154683 0.091789 -0.069847 14 15 16
-0.134193 -0.060813 0.099572 247 247 247
-0.151745 0.016118 0.070879 214 215 215
-0.138826 -0.134175 -0.035554 9 7 119
0.083972 -0.400819 -0.013542 14 14 15
0.614086 0.143313 -0.005600 6 7 50
-0.054737 0.306269 -0.107634 13 13 13
0.048398 0.346669 -0.053891 171 170 171
0.222119 -0.361824 -0.030335 254 255 255
0.383232 0.261612 0.019601 6 6 51
-0.034419 0.317748 -0.102764 19 14 16
0.279934 0.313247 -0.011825 253 254 253
-0.067266 0.247530 0.077886 9 13 61
0.218937 -0.368728 -0.012642 205 206 206
-0.027000 0.300559 -0.008977 9 15 33
0.154616 -0.399216 0.049256 254 255 255
0.433365 -0.224206 -0.080682 11 12 14
-0.123002 0.090505 0.084169 13 15 13
0.193321 0.351244 -0.003009 255 255 252
-0.113000 -0.193260 0.041705 7 10 119
0.020577 -0.342261 0.101344 14 14 15
0.318733 -0.303348 0.022213 254 255 254
0.177293 -0.386996 0.017885 254 254 254
0.197714 -0.359051 -0.038867 251 252 252
-0.128952 0.111889 -0.066034 188 189 188
0.636730 -0.116466 -0.099276 253 254 253
0.249488 -0.335089 0.030781 254 255 255
0.086656 0.392870 0.007910 16 12 14
-0.055893 -0.286067 -0.071968 8 12 129
0.191566 -0.381261 0.024968 253 254 255
0.360987 0.288260 0.002710 8 8 55
0.593615 0.148013 -0.015210 254 253 255
0.458789 -0.226738 -0.061984 7 5 47
0.264042 -0.319001 -0.045708 158 158 158
0.163550 0.382740 0.039999 206 205 205
0.121681 0.383994 0.039174 234 234 235
0.503395 0.216304 -0.044826 251 252 252
0.614348 -0.142894 -0.095926 255 255 255
-0.136620 0.131588 -0.006060 6 9 79
0.311446 0.318304 -0.032593 254 254 255
0.594391 0.149377 -0.056511 254 254 252
0.058243 -0.388005 0.040019 191 193 193
0.599608 0.150198 -0.056239 6 8 55
0.331648 -0.301905 -0.039718 255 255 255
-0.129402 -0.155000 -0.041671 12 9 118
0.099230 0.398054 0.020687 253 255 255
0.033199 0.363817 -0.045206 13 13 14
0.380285 0.278765 -0.009402 7 7 52
-0.019494 0.318760 -0.115576 166 166 167
0.618111 0.137621 -0.046931 9 9 58
0.385091 0.285686 0.027782 8 6 52
0.287664 0.330803 -0.040405 163 163 165
-0.094072 0.198971 0.106882 14 14 15
-0.146896 -0.069385 0.004061 11 10 114
-0.139624 -0.162343 0.105807 233 234 234
0.160548 -0.402153 0.030834 253 255 255
0.279466 -0.331617 -0.028470 168 168 168
-0.115141 0.184692 0.060506 7 8 79
-0.036321 -0.297921 0.095233 11 13 12
0.235707 -0.346773 0.006084 173 172 173
0.039319 0.343766 0.100603 14 13 13
-0.122873 0.088955 0.101732 15 15 16
-0.096869 0.215971 0.087289 6 10 75
0.028721 -0.358434 -0.058537 197 196 198
0.104339 0.370384 0.017914 12 13 13
0.173738 -0.394900 0.032808 254 255 255
0.142178 -0.385951 0.032185 253 255 255
-0.013527 0.327349 -0.087594 14 10 13
-0.156397 -0.055302 0.012734 15 13 14
0.575983 -0.151535 -0.088493 254 254 255
0.545474 0.188648 -0.039658 253 255 255
-0.154098 -0.015021 0.022792 14 16 16
0.311808 -0.302486 0.000255 168 168 168
0.547760 0.189089 0.007234 253 253 253
0.292653 0.324439 0.028778 164 164 165
-0.111822 -0.194391 0.016625 10 12 123
-0.006065 -0.325002 0.057512 9 27 125
-0.144266 0.073448 -0.013071 10 8 86
0.078388 0.386694 0.061065 188 189 188
0.178026 0.379535 -0.008775 253 253 255
-0.113507 -0.190320 0.041336 7 9 118
-0.140223 0.091206 0.056605 6 8 103
-0.076908 -0.224725 0.124121 14 15 17
-0.015417 -0.300281 0.096021 13 12 14
-0.067452 0.292132 -0.107328 12 13 15
0.186392 -0.381425 -0.002184 251 252 251
-0.026983 -0.316016 0.110101 202 202 202
-0.054839 0.292092 0.096216 13 13 13
-0.011808 -0.320200 0.044768 11 24 124
0.599880 0.142429 -0.057686 13 13 13
0.345564 -0.289078 0.018189 255 253 254
0.018816 0.356823 0.081015 13 14 13
-0.120444 -0.190965 0.102472 231 229 231
-0.096438 0.244465 0.114169 13 13 13
0.118833 0.377682 -0.006374 255 255 255
0.133248 -0.288647 -0.017290 10 10 61
0.051340 -0.384297 0.042893 190 189 190
-0.132708 -0.158845 0.100085 235 236 235
0.625361 0.138537 -0.009725 252 252 253
-0.119408 -0.174054 0.034428 6 9 120
-0.033884 0.291159 0.002549 9 14 35
0.156968 -0.384965 -0.024344 254 255 254
-0.057749 -0.303058 -0.105283 207 208 209
0.098432 -0.384791 0.014531 12 14 13
0.289011 -0.326309 -0.043264 164 165 166
-0.125663 0.145955 0.109857 14 14 14
-0.143311 0.057993 0.102164 15 15 14
0.047980 -0.364242 0.021082 6 26 125
-0.148542 -0.157691 -0.092132 13 12 13
0.263889 -0.324384 0.006083 159 160 161
0.355110 -0.273258 -0.054672 252 254 253
0.556141 -0.166537 -0.050435 9 9 43
0.410729 -0.244437 -0.085898 11 12 14
0.507075 0.208440 -0.046437 6 7 53
0.392109 0.255573 -0.031252 255 255 255
0.468152 0.219518 -0.014576 8 8 51
-0.127818 -0.055227 0.047214 15 15 15
0.460044 0.221187 -0.017900 7 7 50
0.249317 0.329118 -0.031195 254 253 253
0.174057 0.382573 -0.005077 216 217 217
0.446941 -0.222281 -0.063399 253 255 254
0.007683 -0.335455 0.082499 13 15 15
-0.137792 -0.155357 -0.108247 15 15 13
-0.114552 0.224086 -0.125502 15 14 15
-0.108464 0.192618 -0.043180 10 15 50
0.148006 0.368301 -0.014823 229 229 230
0.028662 0.345479 0.067395 10 11 12
-0.129461 0.148678 -0.077085 8 17 44
0.219212 0.357801 0.050068 252 253 254
0.338140 -0.302805 0.015450 254 252 253
0.065555 0.379791 0.048169 14 13 13
0.337293 0.285250 -0.045879 6 7 51
0.183316 -0.384628 0.013409 254 255 254
0.134402 -0.384282 0.004529 255 255 255
-0.135341 -0.086807 -0.063580 15 15 15
-0.130520 -0.116090 -0.059896 246 247 246
-0.064923 0.276038 0.113006 13 12 12
-0.127630 -0.140600 0.072356 7 11 123
0.163310 -0.393457 -0.009636 219 218 218
0.381051 0.281298 -0.049026 252 253 252
0.139644 -0.399262 0.003919 13 13 15
-0.152528 -0.114164 -0.062171 243 243 243
-0.064364 -0.251088 0.100236 13 14 15
-0.129541 -0.187042 0.106340 13 16 14
0.213735 0.346564 0.038838 253 254 255
-0.077900 -0.255680 -0.024393 8 13 126
-0.122190 0.162996 -0.115550 14 12 14
0.067100 0.382149 0.005034 16 14 14
-0.088580 0.222936 0.089037 7 13 76
-0.108942 -0.189499 -0.114880 15 14 16
0.184918 0.381546 0.003860 216 216 215
0.376422 0.266177 -0.015701 7 7 52
0.598603 -0.140541 -0.061231 6 6 54
-0.059939 -0.281805 -0.058500 8 11 122
0.526535 0.198664 -0.043484 252 252 253
0.339954 -0.297313 -0.065760 12 12 15
0.539561 -0.182915 -0.072886 254 255 255
0.467704 0.220332 0.018206 252 253 253
0.034292 -0.347465 0.102408 12 14 15
-0.111321 0.147357 0.098599 16 16 16
-0.009305 0.304284 0.093816 13 12 13
0.105833 0.398902 0.063203 249 248 248
-0.004005 -0.356274 -0.096901 197 196 197
0.282194 0.328542 -0.032166 6 5 51
-0.144841 -0.056887 0.064492 12 13 13
-0.049480 -0.302089 -0.104160 209 209 209
0.259422 -0.343207 -0.048724 165 164 167
0.292026 -0.325417 -0.016992 254 253 253
-0.136598 -0.090691 0.067557 8 10 123
0.445261 0.233151 -0.049136 12 13 14
-0.151942 0.049065 0.081429 207 207 207
-0.005383 -0.317845 0.095902 208 208 209
-0.039697 0.291133 0.089493 14 15 17
-0.085484 0.232962 0.116123 158 158 159
0.357383 0.280286 -0.053488 255 255 255
-0.056632 -0.302546 0.100009 208 209 208
0.354745 0.293445 -0.002955 5 5 53
0.107084 0.396677 0.038846 14 12 13
0.198267 0.374011 0.010728 212 212 212
-0.126537 0.007908 0.022368 14 12 14
0.409966 0.259099 -0.049619 12 13 14
0.067173 0.366735 -0.045221 183 185 185
0.426170 -0.244838 -0.077776 5 5 50
0.010050 -0.352393 0.074859 15 14 15
0.545566 -0.181822 -0.087149 255 255 254
0.529672 -0.188314 -0.060610 254 254 254
-0.030955 -0.306124 0.035717 12 26 128
-0.137121 0.115117 -0.010442 6 9 66
-0.118017 -0.225144 -0.116015 228 227 229
-0.144211 0.077428 0.022732 6 8 93
-0.052142 0.279913 -0.097352 12 12 14
0.021595 -0.364635 0.063961 15 14 15
-0.156342 -0.026365 0.045572 223 224 224
0.402738 -0.273164 -0.007237 254 255 255
0.174565 -0.363257 0.004483 251 251 252
-0.123767 -0.176641 -0.059872 9 17 107
-0.017350 -0.296404 0.097728 12 12 13
-0.126988 0.153948 0.085259 6 10 93
0.537043 0.193619 -0.011390 255 255 254
0.359677 -0.290293 -0.059495 253 254 255
0.057823 0.375123 -0.039882 15 13 14
0.547987 0.186082 -0.050712 13 12 14
0.380313 -0.266412 -0.004922 7 6 51
0.009669 -0.346184 -0.028376 12 21 130
0.095238 -0.396035 0.078936 120 125 135
0.037077 -0.362054 -0.006666 9 22 127
-0.117842 -0.176459 -0.106077 233 233 234
-0.138058 -0.070075 -0.023417 233 231 234
-0.145017 0.084126 -0.063152 194 194 195
-0.134309 0.115882 0.036155 6 10 92
-0.148866 -0.088372 -0.010113 13 12 16
-0.081055 -0.251746 -0.001470 9 14 121
-0.129393 0.027085 -0.001606 209 211 210
0.026569 -0.362655 -0.077226 192 193 194
-0.127804 -0.033969 0.022714 18 16 18
-0.134237 0.097295 -0.079627 192 192 191
-0.073504 -0.285189 0.113669 17 18 19
-0.128703 -0.152864 0.009355 8 9 119
0.457500 0.225135 0.011716 5 5 52
0.055533 0.372981 0.005157 14 13 15
0.198133 0.379493 0.033228 167 165 166
-0.144035 -0.127770 -0.095678 17 17 16
-0.027284 0.298702 0.114498 163 166 166
-0.052486 0.267072 -0.115324 13 11 12
0.238351 -0.352760 -0.024940 188 188 188
-0.157264 0.035331 0.021099 210 208 211
0.195557 -0.354563 0.045484 255 255 254
0.158224 0.396011 0.048329 12 12 12
-0.133139 0.107145 0.053088 6 8 95
-0.047832 0.275364 0.025673 9 15 45
0.130028 -0.390457 -0.018116 254 255 254
0.163083 -0.395527 -0.029009 223 221 222
-0.139316 0.052359 0.078771 205 206 206
0.243234 -0.355555 0.019016 190 190 191
0.324091 0.309929 0.022720 252 252 253
0.228345 -0.360870 -0.009444 210 209 211
-0.099340 -0.230408 -0.083931 10 10 121
0.063329 -0.371655 0.052902 13 14 13
0.198354 0.354054 -0.009632 206 207 206
-0.077791 -0.253364 0.031777 7 15 122
0.589489 0.149462 -0.035127 250 251 251
0.069270 -0.364220 0.063778 197 198 196
-0.135345 0.109378 0.066119 10 10 98
0.565231 0.168789 0.005398 255 253 255
-0.133940 -0.170848 0.099504 15 17 15
0.176041 -0.368421 0.009029 255 255 255
-0.041056 -0.296046 0.030858 12 23 128
-0.087284 -0.246106 -0.026716 8 11 122
0.061836 -0.372682 0.027443 11 35 132
0.124295 0.366468 0.066733 12 13 14
-0.141595 0.083963 0.016146 5 10 94
0.110145 0.397916 0.024270 246 247 247
0.049602 0.368583 0.080296 14 12 13
0.402335 -0.256104 -0.081021 13 13 15
-0.155434 -0.030519 0.035184 13 13 13
-0.130517 -0.023711 0.090080 229 229 231
0.537355 0.188736 -0.050064 11 10 13
-0.057444 -0.316679 -0.101678 202 203 202
-0.061992 -0.271373 0.017757 10 16 127
-0.131270 -0.155983 -0.057711 8 6 116
0.258663 0.345150 -0.014473 176 176 176
-0.126835 0.044724 0.057708 206 205 207
-0.123575 0.136304 0.108826 185 183 185
-0.158184 0.019364 0.018607 214 213 214
0.214809 0.363645 0.029112 196 196 196
0.130698 0.385532 0.020249 175 175 176
0.395441 0.275549 0.010876 255 255 254
0.245440 0.351948 0.007520 161 162 160
0.645734 0.124729 -0.059577 12 11 12
0.342204 0.281604 0.011452 254 255 253
0.165408 -0.395411 0.027193 227 227 227
0.213934 0.345766 0.042069 252 254 253
-0.024908 -0.302079 0.058665 13 30 129
0.413674 -0.256230 -0.057681 254 255 255
0.198867 -0.377547 -0.031105 203 204 205
-0.087165 -0.240187 -0.017036 7 9 120
-0.117686 -0.191786 -0.062146 11 8 125
-0.033397 0.285312 0.085718 6 15 53
0.311856 -0.296066 -0.013775 7 8 51
-0.128047 -0.091702 -0.042507 15 15 15
0.547805 -0.179724 -0.025300 255 255 253
-0.139793 0.075788 0.077951 15 14 16
-0.037748 -0.292591 0.088149 10 28 123
-0.142297 0.097114 -0.093255 16 15 15
0.138499 -0.407659 -0.011852 233 232 232
0.122569 0.380033 -0.013405 254 255 255
-0.039435 -0.302329 -0.034163 12 14 123
-0.095666 0.223614 -0.097333 9 14 24
0.547855 -0.178001 -0.080610 255 254 255
0.427891 0.238906 -0.044747 254 254 255
0.098305 -0.378163 -0.009396 194 194 192
-0.134344 0.025299 0.098958 13 13 14
0.086720 -0.390375 0.053565 90 103 144
0.076437 0.369780 0.088534 182 182 183
-0.115452 0.181445 0.058797 8 15 76
0.474281 0.214806 0.011439 251 252 252
0.427208 0.239594 0.023160 254 252 252
0.220910 0.361630 -0.019517 199 201 200
-0.140445 0.080361 -0.071584 13 12 12
0.059076 -0.351162 0.081007 12 13 14
-0.144817 -0.071503 -0.048419 8 7 74
0.175882 0.401232 0.036840 13 13 13
-0.127682 -0.174783 -0.086939 11 11 121
0.064949 -0.392643 0.005674 13 13 14
-0.135726 -0.064659 -0.027128 253 254 255
-0.119339 0.220042 -0.119296 162 162 162
-0.144618 0.091225 -0.005058 7 9 80
-0.112332 0.192558 0.045505 11 11 79
-0.120754 0.136059 0.091389 14 14 16
-0.147816 -0.153039 -0.089164 234 235 233
-0.117764 -0.197776 -0.091532 7 9 119
0.134438 0.385735 0.068553 238 238 241
0.537300 0.190337 -0.049540 13 11 14
0.254642 -0.333815 0.033635 254 255 254
-0.100956 -0.223294 0.012027 7 10 123
-0.012198 -0.317125 0.099282 11 37 132
-0.095843 -0.252701 0.106783 15 14 16
-0.127309 -0.080043 0.065316 237 238 238
0.271557 0.318271 0.009307 254 254 253
-0.114046 -0.193400 -0.020250 8 10 123
0.257775 0.322548 0.034712 255 255 255
-0.024742 0.323967 -0.087648 11 11 12
-0.041201 -0.302682 -0.076828 12 10 125
-0.109180 -0.215908 -0.083629 10 9 125
0.171084 0.383907 -0.001612 254 254 254
-0.050908 0.272150 0.076010 8 15 57
-0.079441 0.223990 0.113882 139 142 144
-0.146851 0.003780 0.083546 218 217 219
-0.145346 -0.167091 -0.103894 225 225 226
-0.077943 -0.259408 -0.003148 9 15 125
-0.138050 0.098014 0.002965 9 7 87
-0.013408 0.324881 -0.107615 15 13 12
0.259710 0.324925 0.023673 255 255 254
-0.141416 -0.123375 -0.058843 13 12 13
-0.138229 -0.045134 0.021282 225 224 225
0.044188 0.372761 -0.034645 184 185 184
-0.029920 0.311991 0.085977 163 164 163
0.330034 -0.288946 -0.030513 253 254 255
-0.081340 -0.252237 0.056204 9 16 121
0.125062 0.389930 0.046213 255 255 253
0.319917 -0.310838 -0.046983 231 231 230
-0.022552 -0.307798 -0.072138 13 18 117
0.061712 0.370167 0.076536 180 180 180
-0.001448 0.335541 0.085489 13 12 13
0.298917 0.306246 0.035546 254 254 255
0.313774 -0.293527 -0.034896 171 172 171
0.293156 0.326007 0.001141 170 169 170
-0.071107 -0.264933 -0.125034 13 13 14
0.266322 0.317345 -0.022431 181 179 180
-0.131284 -0.153257 -0.069693 9 10 114
0.555527 -0.164438 -0.039896 254 254 255
0.050944 -0.360565 0.098299 13 15 16
0.060703 -0.389489 0.061183 13 13 13
-0.136574 0.117631 0.042181 8 11 96
0.637983 -0.128167 -0.075095 253 254 254
0.531377 0.185859 0.011094 253 253 254
-0.126980 0.157660 -0.029062 27 40 79
-0.119935 -0.182770 -0.078437 10 10 119
0.249366 -0.351927 0.003877 171 172 172
0.044185 -0.347546 0.076486 14 14 13
-0.149281 0.072227 0.076293 199 199 199
-0.100811 0.208656 0.057010 10 17 68
0.122450 -0.397101 0.065203 187 186 187
-0.128720 -0.175638 -0.063848 9 9 118
-0.154287 -0.010467 0.021137 223 223 224
0.615445 0.140736 -0.002255 253 253 254
-0.141940 0.151829 -0.091684 177 176 178
-0.103258 -0.189743 0.117366 12 12 13
-0.061090 0.268095 0.025504 7 12 48
0.180272 0.358020 0.026531 252 254 253
-0.156157 0.057005 -0.021116 14 15 13
-0.156475 0.038291 0.030669 210 210 211
-0.006537 -0.314380 0.113731 12 12 15
-0.145546 0.077181 0.025972 6 6 94
0.058485 -0.391191 -0.018087 13 13 15
0.038935 -0.364391 0.017253 13 33 131
-0.155420 -0.054601 0.021335 232 232 231
0.203614 0.376171 0.024206 213 213 213
-0.105298 0.166159 0.113107 177 176 176
-0.050878 0.273723 0.031963 19 16 49
0.638571 -0.123837 -0.084458 14 12 22
-0.122328 -0.083947 0.097566 238 237 238
0.388090 -0.261197 0.007087 9 10 55
-0.119087 0.183623 0.112175 12 13 15
-0.117592 -0.182810 0.036038 6 9 122
-0.071973 -0.231768 0.106108 13 15 14
-0.080147 0.224071 0.099386 14 16 15
-0.144911 0.143543 -0.105882 14 14 13
0.385532 -0.257287 -0.060345 8 7 50
0.135568 0.392803 0.064426 13 12 12
0.326936 -0.308291 0.014440 251 251 252
-0.032414 0.292273 0.057569 9 13 42
-0.080589 0.228935 -0.113395 13 11 15
-0.032209 -0.329912 -0.110478 15 16 15
-0.130799 -0.101233 -0.042036 14 15 16
-0.137629 -0.109591 0.105743 249 248 248
-0.135034 0.154750 0.098581 178 178 177
0.147011 -0.403994 0.031517 255 254 253
0.587610 0.162757 -0.007951 253 252 252
-0.074905 -0.228960 0.114620 14 14 14
0.029833 -0.346142 0.075574 199 203 204
-0.145667 0.080643 -0.033444 13 13 14
0.097526 -0.384871 0.004662 12 14 15
-0.090470 -0.244241 0.115851 218 217 216
-0.085431 0.268937 -0.105205 14 13 15
-0.121072 0.183877 -0.114337 140 142 142
0.145848 0.368053 0.043855 253 255 255
-0.092689 -0.206372 0.118629 13 11 13
0.100446 -0.379149 0.058453 189 189 190
0.118548 0.379110 0.029631 177 177 179
0.069965 -0.375720 0.069182 15 44 128
0.154323 0.367407 -0.013655 225 224 224
0.128770 -0.388207 0.010109 190 190 190
0.417544 -0.239153 -0.054878 255 254 255
-0.119273 -0.175339 0.050024 10 9 118
0.178561 -0.367185 -0.023028 255 255 254
0.403191 0.255390 0.001544 254 255 253
0.058236 0.376659 0.006707 183 185 184
-0.114261 -0.190145 -0.095123 13 8 117
0.094599 -0.405202 0.022098 188 188 188
0.286562 -0.318954 -0.032790 255 255 255
-0.141417 0.102692 -0.035800 11 13 80
-0.004217 -0.329680 -0.064538 10 12 129
0.170620 0.363414 0.011137 254 254 253
0.065395 -0.372985 -0.003396 9 30 132
-0.024974 0.299327 -0.110443 15 12 11
-0.127026 0.177981 -0.097617 171 172 172
0.301725 -0.311464 -0.007525 155 156 158
-0.154241 -0.074187 -0.015460 234 234 235
-0.106555 -0.163776 0.114975 17 17 17
-0.052091 0.283345 -0.101675 12 11 15
0.257245 -0.344084 -0.038524 252 253 252
-0.130943 -0.115068 -0.078636 15 15 15
0.049119 -0.382164 0.061363 188 189 190
-0.138229 -0.005732 0.012985 15 13 15
0.070063 0.384050 -0.037366 13 13 13
-0.026285 -0.305271 0.111698 212 212 211
0.487405 0.204114 -0.051008 11 12 14
-0.033601 -0.326126 -0.095410 202 204 204
-0.132148 0.069636 -0.023530 13 13 13
0.191934 0.355726 -0.000387 255 255 254
0.519288 0.203261 -0.021077 6 6 48
0.477930 0.209941 -0.038536 254 253 255
-0.064786 -0.270508 0.012039 7 14 125
0.586899 0.150308 -0.013053 7 6 50
-0.088989 -0.237508 0.018520 9 12 124
0.583137 -0.156775 -0.090061 254 255 255
0.072809 0.354231 0.092002 12 12 12
0.474292 -0.208024 -0.044001 6 7 51
-0.069127 -0.257911 -0.121525 221 222 219
0.184073 -0.364152 -0.015556 203 204 204
-0.145977 -0.127107 0.099334 236 235 237
-0.021599 -0.332219 -0.094256 14 13 15
-0.133889 -0.131595 -0.021278 11 12 118
0.121599 0.400936 0.024364 253 254 252
-0.124066 0.052804 0.079818 15 14 16
-0.097933 -0.227172 -0.016873 8 12 128
0.103892 0.397275 0.007217 252 255 253
-0.130306 0.178566 -0.105527 170 171 171
-0.064604 -0.270040 0.036196 8 18 122
-0.019394 -0.345380 -0.091820 13 13 15
-0.146565 -0.052211 0.081714 14 14 16
-0.016673 0.332959 -0.099307 171 171 171
0.043313 0.336132 0.094843 13 14 14
0.048791 -0.349493 0.089941 13 13 14
0.025489 -0.353253 0.002194 9 23 125
-0.015496 0.321728 0.084416 15 14 16
-0.095080 -0.242035 -0.108816 15 14 16
0.029716 -0.350560 0.078425 8 35 126
-0.148827 0.045564 0.040800 14 16 16
0.545851 0.176749 -0.031962 254 255 255
0.225708 0.342253 0.026790 253 252 253
-0.131374 -0.138851 0.012292 7 10 118
0.002201 -0.335044 -0.030496 11 16 122
-0.049057 0.278451 0.047431 9 15 50
-0.079714 -0.220746 0.107006 222 223 223
0.269205 -0.319539 -0.054681 253 252 252
-0.151068 0.068607 0.079194 201 198 201
0.340155 -0.300789 -0.002551 253 252 252
0.118759 -0.396644 0.037312 249 249 249
-0.124193 -0.068942 0.087144 14 12 14
0.334844 0.305445 -0.028049 252 252 253
-0.041378 0.280378 0.109910 158 159 158
-0.010534 0.326391 0.083905 167 166 167
0.404622 -0.264131 -0.010616 254 253 253
-0.102973 0.242154 -0.109877 15 15 14
-0.105012 0.243221 -0.127584 13 12 14
-0.139552 -0.108487 -0.004838 11 11 116
-0.091327 -0.231746 0.010918 9 13 120
-0.123098 -0.170616 0.032084 8 9 120
-0.124174 -0.039325 0.050142 218 220 220
0.570033 -0.165094 -0.087195 254 254 253
-0.055827 0.261934 0.116580 15 15 15
-0.145263 0.082865 -0.010184 10 14 81
0.230768 -0.368678 0.029696 171 170 169
0.144880 0.381094 -0.001526 13 12 13
0.119218 0.400879 0.001542 253 253 252
0.635039 0.119823 -0.023258 255 255 252
0.108936 0.367077 0.075092 10 10 12
0.150556 -0.402119 -0.019631 252 251 250
0.365610 0.272730 -0.001175 251 251 251
0.097940 -0.378124 0.053443 13 13 14
0.498526 -0.191678 -0.085415 7 8 53
-0.107515 -0.193856 0.078678 6 14 126
0.602946 0.136705 -0.055258 255 255 254
0.066454 0.385450 -0.002931 13 15 14
-0.117214 0.113816 0.099400 14 13 13
-0.117442 -0.188609 0.035420 7 10 118
-0.089320 -0.255164 -0.129890 220 220 221
0.598087 -0.141499 -0.064208 254 255 254
-0.129083 -0.145024 0.069360 6 8 119
0.535380 0.183285 0.002135 6 5 51
0.609660 -0.142084 -0.089606 5 7 50
-0.123397 -0.099554 0.106115 235 234 235
-0.092625 -0.267641 -0.123130 16 13 15
-0.123166 0.039818 0.039424 209 209 209
0.535344 0.196897 -0.026256 254 254 252
0.268736 -0.337778 -0.052793 165 165 168
-0.143963 0.065071 -0.050847 12 12 14
0.169217 -0.383202 -0.026390 148 145 143
0.567591 -0.171342 -0.068178 5 8 53
-0.083612 0.233606 -0.110979 14 12 13
-0.041614 -0.299878 -0.020057 9 16 123
-0.069031 0.252157 0.004404 6 11 42
0.308763 0.296272 -0.007413 158 158 157
-0.080885 -0.267935 0.108606 215 217 214
0.350686 0.278967 -0.018077 254 255 254
-0.148103 0.120012 -0.073794 189 189 188
0.588075 0.150553 -0.050237 255 254 255
0.397734 -0.254190 -0.030922 254 253 254
0.184565 0.366674 0.034424 205 204 204
-0.044018 0.273963 0.112721 12 12 14
0.121696 -0.400588 0.039959 13 13 14
0.112239 -0.391020 0.023112 188 190 188
0.213025 -0.352608 0.020976 254 254 255
-0.146437 0.044690 -0.032271 14 14 14
-0.124722 0.029447 0.035737 16 16 17
-0.140044 0.108370 -0.034140 8 11 68
0.625264 0.137959 -0.019776 255 255 255
0.480758 0.225596 -0.040257 7 5 49
0.142326 -0.403338 -0.009258 221 223 223
0.615216 0.143992 -0.011370 254 255 254
0.183464 0.380269 -0.010275 252 252 253
0.577901 -0.151621 -0.076318 10 11 55
0.309451 -0.301803 -0.062749 7 6 51
-0.109959 0.199708 -0.096609 6 10 25
0.290894 0.305323 -0.003914 253 253 252
-0.126237 -0.078203 0.084943 250 250 251
0.113053 -0.381523 0.046917 12 12 15
0.009281 0.343746 0.087998 12 13 13
-0.155969 0.025414 0.029034 13 14 15
-0.122109 -0.020260 0.020205 220 220 220
-0.070391 0.257604 -0.106875 8 9 12
0.153385 0.387317 0.038376 229 230 230
-0.074963 -0.249253 -0.112767 14 14 16
0.300607 -0.306365 -0.060807 255 255 255
-0.047486 -0.294485 -0.103712 210 210 210
-0.132827 -0.089494 -0.046169 13 14 14
-0.121348 -0.141206 0.112636 14 12 14
-0.145874 -0.060600 0.037416 12 13 14
0.306971 0.306258 0.018798 255 255 255
0.561951 -0.174589 -0.043259 252 254 254
0.259867 -0.344805 0.012770 253 253 253
0.018144 0.326491 0.083015 167 167 166
-0.135767 0.067889 -0.014943 14 12 12
-0.083022 -0.209352 0.121433 222 222 223
