ply
format ascii 1.0
element vertex 1269
property float x
property float y
property float z
property uchar red
property uchar green
property uchar blue
end_header
0.226545 -0.395316 -0.025751 255 255 255
0.437409 0.267676 -0.003649 254 255 253
-0.067602 0.283810 0.110188 144 149 146
0.591645 0.162001 -0.059083 2 0 55
0.119954 -0.434773 0.024599 179 178 180
0.332785 -0.339222 -0.039438 255 255 255
-0.144120 0.140360 -0.035549 1 9 61
0.007570 -0.350228 -0.088111 2 3 131
0.218844 0.392907 0.014018 255 254 253
0.089223 -0.399056 -0.006947 0 21 129
-0.000458 0.344558 -0.118640 7 7 6
-0.117629 0.243290 -0.118931 154 156 155
0.031718 -0.360133 0.039330 3 22 131
-0.161912 -0.042686 0.009461 224 223 224
-0.121421 -0.136906 0.125282 8 8 7
-0.034989 0.313888 -0.081308 0 3 15
0.186209 -0.438130 -0.013421 229 229 228
-0.144100 -0.086736 -0.054139 6 7 7
0.049488 -0.400899 0.076666 183 184 186
-0.147211 0.056823 -0.006130 7 6 7
0.099423 0.422954 -0.039595 5 7 7
-0.007569 -0.341909 0.122600 197 197 197
0.568154 0.168867 -0.047219 0 1 51
-0.112710 0.224978 -0.116748 154 157 156
-0.139852 0.098447 -0.015853 6 6 6
0.252005 0.377394 -0.000962 255 255 255
0.587039 0.178581 -0.027216 0 0 51
0.588048 0.147828 -0.049902 255 254 255
-0.068376 -0.273392 0.008746 0 8 129
0.657746 0.102940 -0.025477 0 0 52
-0.109125 -0.214521 0.020942 2 3 128
0.644927 -0.129426 -0.107743 254 255 255
0.098649 0.394354 0.105325 5 7 6
0.546388 -0.176914 -0.063389 0 0 53
0.029180 -0.385174 -0.102377 187 188 186
0.115445 -0.410188 -0.004191 185 186 187
-0.160515 -0.111982 0.110013 231 229 231
0.002032 -0.367737 -0.101997 6 6 7
-0.148351 0.095513 0.020614 2 9 83
0.172534 0.441061 0.028069 227 228 226
-0.123471 0.121003 0.102523 7 7 7
-0.092953 -0.246402 -0.015125 1 5 130
-0.164697 0.081241 0.033172 192 194 194
-0.110266 0.260273 -0.130786 153 154 154
0.004993 -0.365802 0.097391 7 8 9
0.030613 -0.394664 -0.079203 5 5 8
-0.154296 -0.024732 0.088069 7 7 7
-0.057843 0.318131 -0.124783 157 158 158
0.073189 0.378150 0.101730 6 8 7
0.080465 -0.382840 0.096073 6 7 7
0.061637 -0.386511 -0.005961 1 17 129
0.009119 0.357901 0.096110 7 7 8
-0.117720 -0.222689 -0.114295 6 6 7
0.066385 -0.384107 0.081845 0 30 127
-0.123344 0.196502 -0.030229 0 11 44
0.612001 0.152757 -0.043149 255 255 255
0.263391 0.371087 0.027223 254 252 254
-0.125930 -0.176005 0.021899 1 4 122
0.043391 -0.372019 -0.045221 3 9 128
0.005482 0.348939 0.020313 0 7 25
-0.029840 -0.296922 0.116209 202 204 204
0.321377 -0.335414 -0.069534 254 252 253
-0.161860 0.072770 0.070917 196 193 196
0.367120 -0.325334 -0.004489 253 252 252
-0.116338 -0.187067 0.127725 228 227 228
-0.131006 -0.026697 0.087804 7 5 6
0.350485 0.342051 -0.027276 253 252 254
-0.015106 0.322691 0.117812 8 9 8
-0.019203 0.333989 0.102425 157 155 156
0.426720 -0.279942 -0.017113 255 253 254
-0.107418 0.253216 -0.119945 7 8 6
-0.083318 0.276490 -0.129830 1 3 9
-0.147415 0.098810 0.031026 2 8 83
-0.083118 -0.252016 0.012437 3 7 126
-0.131784 -0.169083 0.040824 1 2 124
-0.129932 0.044473 0.041664 200 201 202
0.632469 -0.137915 -0.104379 254 254 254
-0.038192 0.302688 0.133622 8 8 6
-0.158880 -0.055371 0.039180 7 8 8
0.327078 -0.369526 0.018877 140 139 137
0.402345 0.288632 -0.039990 1 0 52
0.153076 0.449387 0.002977 243 243 242
0.701737 0.060192 -0.043862 255 255 253
0.415099 0.287925 0.027029 0 0 50
0.183919 -0.445984 -0.019495 227 224 224
0.222805 0.396425 0.023221 211 210 210
0.135816 -0.411354 0.055149 6 7 8
0.593280 -0.142900 -0.110886 0 0 54
-0.086912 -0.241449 0.090310 0 11 129
0.673061 -0.080034 -0.106849 255 255 255
0.119708 0.434932 -0.009613 6 9 8
-0.113127 0.156626 0.114151 7 7 6
-0.155939 0.089146 0.020437 0 5 77
-0.080048 -0.294066 -0.148135 206 205 207
0.664004 -0.109890 -0.083161 254 255 254
-0.149435 -0.113178 0.040331 1 1 118
0.609896 0.145498 -0.009749 0 0 52
0.677967 -0.110359 -0.107056 0 1 52
-0.136756 -0.076930 0.115317 230 228 229
-0.097985 -0.279387 -0.134348 8 5 7
-0.129892 0.084670 0.031932 191 191 193
0.220242 0.421233 0.005889 213 214 212
0.026461 -0.371056 -0.080546 5 9 132
-0.108271 0.228957 -0.094648 0 4 20
0.129854 -0.440095 -0.024914 101 98 96
0.606797 -0.172377 -0.077179 0 1 53
-0.074208 0.273105 -0.124001 6 6 5
0.069178 -0.415516 0.006008 6 7 9
0.377427 0.298366 0.012495 0 0 52
0.353701 -0.310250 -0.039027 143 143 143
0.067232 -0.409045 0.066781 182 184 181
0.406450 0.286932 -0.023396 255 255 255
-0.145155 0.193307 -0.104863 166 166 165
0.664303 0.109972 -0.062454 255 254 255
0.436187 -0.259256 -0.039826 255 253 255
0.098738 0.419373 0.054001 175 175 176
0.030166 0.359576 0.073493 1 6 19
0.162880 -0.436735 0.042299 6 6 8
0.344026 -0.337166 -0.035472 142 147 144
0.234718 -0.392657 0.021399 254 253 255
-0.154488 0.072997 -0.026913 6 7 6
-0.130117 0.085683 0.037102 8 9 8
-0.163160 -0.043714 0.015714 7 6 8
0.697474 0.083179 -0.039588 255 255 255
0.546607 0.211166 -0.046720 1 0 53
0.072228 -0.394340 -0.021991 188 191 192
0.682355 0.098072 -0.030748 254 255 255
0.222432 0.415451 -0.009575 254 252 254
0.657193 -0.102547 -0.097171 1 2 54
0.376295 -0.307670 -0.080132 0 0 53
-0.084422 0.260040 -0.066685 0 4 22
0.179474 0.410433 0.015098 231 230 229
-0.136380 -0.107964 0.102864 243 241 242
0.158515 -0.417124 0.049143 6 6 9
0.044665 0.382314 0.083938 4 6 8
-0.165396 0.055287 0.030360 5 7 7
-0.131395 0.051134 0.008908 199 199 199
-0.043303 0.306743 -0.109590 0 2 7
0.222935 0.402912 0.035333 205 205 204
-0.092377 -0.240905 -0.121211 6 7 8
0.386805 -0.298795 -0.084641 255 255 255
0.023919 -0.369379 0.076284 191 192 192
-0.106624 0.225511 -0.086153 0 6 22
-0.133990 -0.126428 0.125223 7 5 7
-0.156302 -0.048369 0.047883 5 6 7
0.359519 0.319588 0.013453 255 255 255
0.350153 -0.341428 -0.022651 202 205 204
0.290644 -0.378678 0.013234 254 253 254
0.021697 0.353334 0.096021 160 160 159
-0.144421 0.092912 -0.004687 7 6 6
-0.126004 0.060034 0.109799 197 196 197
0.122495 0.403396 0.012071 0 3 8
-0.137097 -0.151586 0.077738 0 0 124
-0.135470 0.185678 -0.101322 163 162 164
0.581376 -0.188561 -0.040250 254 255 255
0.520565 -0.218047 -0.094228 8 8 9
0.033840 0.385451 0.072332 5 8 6
0.453277 0.244226 -0.011393 0 1 50
-0.152737 -0.006660 0.037162 5 6 7
0.094049 0.420071 -0.039904 176 176 176
-0.041564 0.303093 0.024839 0 7 37
0.328550 -0.320808 0.023825 0 0 51
-0.067524 0.274400 0.075803 0 6 53
0.301826 0.366161 -0.001623 168 170 170
-0.130943 0.181434 -0.007926 1 8 52
-0.108266 0.255989 0.115145 6 6 5
0.302091 0.355986 -0.030248 161 162 162
-0.138068 -0.057391 0.008736 6 8 5
0.347547 0.332845 -0.006670 0 0 53
0.108164 0.404776 0.024442 2 5 8
-0.111415 0.236994 0.112227 7 7 7
-0.122731 0.222070 -0.121329 155 155 157
0.496542 0.222600 -0.005748 255 255 255
-0.112276 0.207222 -0.014006 0 10 47
-0.131287 0.110866 0.099936 6 6 7
0.499021 0.219344 -0.049914 0 0 52
-0.097957 0.244982 -0.072582 0 5 22
0.514643 -0.230603 -0.046305 0 2 52
0.142942 -0.411850 0.041275 181 180 182
0.402338 -0.282882 -0.049947 0 0 51
0.615698 0.140045 -0.050969 0 0 52
-0.149860 0.153287 -0.070155 9 9 8
-0.007810 0.316287 0.129603 8 9 8
-0.153468 0.100352 -0.016827 6 7 7
-0.121873 0.143096 0.104131 177 176 177
-0.153119 0.148805 -0.107219 172 174 173
0.012663 -0.355042 0.052334 0 23 132
-0.127934 0.002039 0.027861 214 211 214
-0.125687 0.153311 0.103808 174 175 175
-0.041689 0.322229 0.127746 155 156 154
0.219297 -0.417847 -0.036057 205 205 205
0.688165 0.078320 -0.054519 255 255 255
0.078219 0.410825 -0.042400 173 174 175
0.676117 -0.096435 -0.087611 254 255 255
0.117709 -0.420196 0.049620 6 6 9
-0.137469 -0.011263 0.026291 6 7 6
0.720328 -0.085681 -0.102227 255 253 255
0.155830 -0.447551 -0.012555 4 5 6
0.087656 0.414925 0.092405 7 6 7
0.222786 0.416008 0.031045 190 189 188
0.086406 -0.411857 0.084154 181 181 181
0.554782 0.184551 -0.000348 255 255 253
-0.075127 -0.269985 0.005239 1 7 129
0.141852 0.415955 0.062399 176 177 176
-0.136620 -0.024335 0.061688 7 7 6
-0.056826 -0.325916 0.120817 9 9 7
-0.102138 0.238187 -0.088859 0 5 19
-0.038224 -0.331616 0.128692 7 6 7
0.383673 0.298571 0.027014 0 0 50
-0.075702 0.269290 -0.144696 5 5 6
0.603199 -0.148596 -0.107529 5 8 7
-0.149213 0.096035 0.034590 185 185 188
0.194270 0.440466 0.056434 5 7 7
0.647370 0.106313 -0.068325 8 6 6
0.021256 -0.364767 -0.071948 1 7 129
-0.022619 -0.331812 -0.108314 2 3 132
0.412731 0.274040 0.013603 0 0 54
0.148438 0.428361 0.046807 5 7 7
-0.111246 -0.196319 0.102130 0 6 128
0.026022 -0.356697 0.094199 0 29 127
0.062541 0.383008 0.070191 166 168 168
0.484027 -0.246159 -0.010854 255 255 255
-0.133729 0.216911 -0.123679 8 6 8
0.048382 -0.404451 -0.059689 183 183 184
0.572061 -0.160335 -0.083724 254 255 255
-0.119769 -0.193584 0.057259 3 3 125
-0.059070 0.290113 -0.095566 0 3 12
0.006672 0.361620 0.096344 7 8 7
0.586697 0.162212 -0.058228 0 1 53
-0.137699 0.144490 0.119500 5 6 7
0.149095 -0.414532 0.066180 181 182 182
0.189451 -0.454735 0.057471 107 109 109
0.247191 0.370505 0.002168 187 188 186
-0.168854 -0.071552 0.010670 232 231 232
-0.166438 -0.050809 -0.026236 230 228 230
-0.092414 0.221683 0.134308 161 160 159
0.204224 0.441474 0.030820 179 181 179
0.324458 -0.348402 -0.039692 150 152 153
0.249524 0.375155 0.050520 193 194 193
0.063664 -0.401920 -0.040814 6 6 7
0.092458 0.394190 0.059158 1 5 12
0.346525 -0.315162 0.003424 255 255 255
0.167456 0.429129 0.060965 234 233 231
-0.131119 0.018376 0.039490 6 8 6
-0.131588 -0.096330 0.096367 233 234 234
0.196491 0.435441 0.031728 227 224 224
0.091984 -0.398079 0.036515 0 27 129
0.045179 0.367651 0.084413 2 8 27
-0.132682 0.088635 0.079554 189 188 190
0.617683 -0.160470 -0.057863 253 252 254
0.486055 0.230189 0.014270 255 254 255
-0.009718 0.353131 0.106997 7 7 7
-0.146332 0.130095 -0.016665 0 6 63
0.095009 -0.400013 0.006073 0 22 127
-0.153408 -0.164100 -0.096730 6 8 8
0.336108 0.340194 -0.027650 124 125 125
0.190603 0.415740 0.011139 226 227 227
-0.127367 0.061550 0.109294 196 196 197
0.065815 -0.388509 0.086565 0 34 125
0.128037 0.408288 0.014202 173 175 175
-0.078593 0.307838 -0.143105 153 152 155
0.077088 0.383976 -0.039625 5 6 7
-0.146273 0.093525 0.071725 188 191 193
0.076922 0.390060 -0.009793 0 5 10
0.430276 -0.263938 -0.074934 255 255 255
-0.167757 -0.135075 -0.078250 234 233 234
-0.059957 -0.284368 0.118523 9 6 8
0.139739 0.409622 0.071718 7 8 8
0.222188 -0.419167 -0.018640 204 204 206
-0.140346 -0.112958 0.045732 3 3 124
0.568455 0.192231 -0.040870 255 253 253
0.050401 0.396372 -0.082416 7 8 7
-0.095533 -0.245408 -0.127551 214 214 214
-0.149086 0.109131 0.053140 2 5 89
0.534163 -0.205281 -0.059377 0 0 53
-0.123240 -0.197962 -0.096942 4 1 123
-0.135918 0.032241 0.099377 249 246 246
0.231394 -0.424344 0.035386 255 253 255
0.379891 0.296827 -0.029466 1 1 51
-0.091017 -0.246253 -0.017595 3 6 125
-0.025846 -0.340570 0.099118 6 6 7
-0.088818 -0.291796 -0.141412 205 204 206
-0.148112 0.084657 0.049573 0 0 90
0.191993 0.424896 -0.009647 221 221 221
-0.112129 -0.161017 0.134133 7 8 7
0.051281 -0.391226 -0.087224 186 185 186
-0.132047 0.201903 0.110886 163 164 163
0.220038 -0.423793 -0.030264 255 255 254
-0.151271 0.063951 0.001462 195 195 196
-0.099166 -0.259489 -0.139886 7 7 8
-0.003355 0.337689 -0.117783 0 3 5
0.666819 -0.119237 -0.104244 255 255 253
-0.130522 -0.107363 0.131063 6 7 4
-0.162144 0.015328 0.023497 209 209 209
0.071140 0.388356 -0.070064 2 5 4
-0.076462 0.250189 -0.137081 5 5 6
-0.142626 -0.055741 -0.013456 227 226 225
0.030749 -0.386870 0.085590 5 5 5
-0.010499 0.331096 -0.057563 0 8 17
0.552521 0.198815 -0.005717 255 255 255
0.043471 -0.366941 0.116618 192 191 191
-0.008092 0.340891 -0.120504 159 158 159
0.496191 0.245297 -0.000682 255 255 255
0.141834 0.431265 0.067172 181 182 182
0.516760 -0.197519 -0.091922 0 0 54
0.031911 -0.364176 0.055576 0 25 130
-0.107761 0.245202 0.108839 154 153 155
-0.094510 0.229944 0.072547 0 8 60
0.124888 0.405969 0.051576 8 8 8
0.536569 -0.208406 -0.084532 254 253 254
0.378129 0.307630 -0.054005 12 12 12
0.494188 0.255452 -0.020599 0 0 52
0.406327 -0.284495 -0.067776 0 0 53
-0.036799 -0.327433 -0.129149 7 5 9
0.581888 0.165272 -0.057779 8 6 9
0.197639 -0.433527 0.033771 228 228 228
0.179200 -0.441915 0.005549 224 225 226
-0.136075 -0.143962 0.109020 0 1 125
-0.162644 -0.086659 -0.031293 234 233 234
-0.031291 -0.338891 0.123915 5 6 6
0.002999 0.332378 0.101068 155 155 156
-0.094520 -0.283342 -0.120281 210 209 210
-0.104924 -0.231045 -0.053572 5 4 123
-0.162451 0.108135 -0.027298 184 183 183
-0.151338 -0.051949 0.098642 226 225 224
0.257955 0.368675 -0.014742 183 184 184
-0.117053 0.208552 -0.056323 0 6 36
0.070933 0.390270 -0.046081 0 2 6
-0.122401 0.181491 -0.099984 7 6 6
0.010611 -0.339361 0.025161 0 18 127
-0.162274 -0.152838 -0.110995 236 236 235
0.530939 -0.210534 -0.024391 255 255 254
-0.033266 0.332092 0.121759 6 7 7
-0.143509 -0.002464 0.022242 216 215 216
-0.132079 0.164991 0.079527 0 6 76
-0.155512 -0.095871 -0.006679 3 0 118
-0.103477 0.218058 0.106069 1 8 71
0.200984 0.411809 -0.014356 255 255 255
-0.162042 -0.103343 -0.070659 5 7 7
0.229155 0.434726 0.045817 180 182 182
-0.130750 -0.025232 0.085620 6 7 6
-0.042563 -0.301492 -0.021382 1 9 127
-0.093317 -0.239381 0.108332 215 216 213
0.634883 0.150625 -0.027317 0 1 50
0.686936 0.076308 -0.081848 8 7 7
0.614223 0.152308 -0.021070 255 255 253
0.500669 0.231631 -0.048355 255 255 255
-0.139601 -0.154192 0.047150 3 0 125
-0.142699 0.119040 0.084038 2 5 93
0.567954 -0.185248 -0.036349 0 0 52
0.361505 0.324233 -0.044678 253 252 254
0.093946 0.397043 0.043753 0 5 12
-0.138989 -0.213774 0.118402 6 4 6
0.208964 -0.429409 0.045934 232 231 232
-0.075805 0.313483 -0.143929 7 8 6
0.162878 -0.428104 0.013726 7 7 9
0.175100 0.443579 -0.006740 196 196 196
0.591051 -0.162244 -0.107467 0 0 53
0.726647 -0.074122 -0.102462 2 1 51
-0.126140 0.173824 -0.111943 6 6 8
-0.163173 0.012384 0.051225 7 8 5
-0.119888 -0.208807 -0.109136 4 0 122
0.160246 -0.451473 0.019760 227 226 229
-0.002297 -0.344132 -0.102191 4 1 129
-0.121324 0.166386 0.128087 110 111 111
-0.151793 0.088188 -0.004689 0 3 77
0.077951 0.417915 0.005795 173 173 174
0.353327 -0.310219 0.000544 2 2 51
-0.127482 -0.164319 -0.050953 3 6 119
-0.151575 -0.115956 -0.049034 6 8 8
-0.044304 -0.304840 0.059982 0 17 126
-0.097242 0.210183 0.103669 0 9 72
-0.117625 -0.238734 -0.147535 216 216 218
0.205813 0.400914 0.040323 222 220 221
0.116443 0.424939 0.023710 174 174 175
-0.095383 0.265598 -0.123403 6 7 6
-0.051320 -0.290800 0.096027 0 16 126
0.409826 0.303981 0.015810 0 2 52
0.249437 -0.393192 0.039990 255 253 254
0.178289 0.429839 0.008290 233 233 231
-0.155275 -0.020881 0.104082 6 7 6
-0.108957 -0.233493 0.123443 217 216 216
0.380794 -0.310532 -0.064539 0 2 52
-0.131463 0.081834 0.017821 7 5 5
-0.142865 0.129060 0.081996 0 5 86
-0.142654 0.147167 -0.066183 106 107 105
0.531667 0.227234 -0.004414 255 255 254
0.350633 0.328688 0.021594 255 255 254
-0.118959 0.204612 -0.020693 1 10 47
0.359281 -0.335635 -0.008754 0 0 51
0.384948 0.293778 -0.032350 253 253 255
-0.141056 0.063332 -0.002828 198 196 197
-0.119937 -0.194865 -0.032366 6 3 122
0.488278 -0.220096 -0.051753 1 1 52
-0.063383 -0.291394 0.114132 206 206 207
0.276762 -0.366774 -0.013331 254 253 254
-0.083399 0.276591 -0.127294 148 151 151
-0.038843 -0.304398 0.062736 0 17 131
-0.128197 -0.158448 0.100483 0 0 127
0.516783 0.207530 -0.050693 0 0 52
-0.130458 0.224288 -0.116825 6 7 6
-0.026067 0.321745 -0.026748 0 4 23
-0.156819 0.143779 -0.097634 174 175 176
0.266877 0.387661 0.018601 255 254 255
0.547820 0.194677 -0.053026 7 6 7
0.489990 -0.213195 -0.070142 255 255 255
-0.129901 -0.181251 -0.128340 6 6 5
-0.032189 0.309909 0.042096 0 6 38
-0.127512 -0.108260 0.115008 240 239 239
0.248835 -0.403737 -0.021261 193 191 193
-0.151571 0.084427 0.015335 0 6 79
0.112425 -0.418851 -0.021941 5 7 6
0.642394 -0.106261 -0.105290 0 2 50
-0.052007 0.292922 0.001534 1 8 32
0.604081 0.167342 -0.027459 255 253 254
0.545396 0.206949 -0.000185 255 255 255
-0.131443 -0.067677 0.041988 5 6 5
0.109018 -0.411392 0.012148 183 183 183
-0.015126 0.319570 0.125001 156 157 156
-0.134784 0.133886 -0.058637 6 7 7
-0.142594 -0.113735 0.079783 1 4 126
0.132623 0.408604 -0.011021 170 167 167
-0.150054 0.083011 0.030890 7 7 7
0.557900 -0.190154 -0.075670 7 8 9
-0.164535 0.025509 0.076855 253 255 252
0.549629 -0.176354 -0.068781 255 253 254
0.451316 0.259561 -0.005995 0 0 51
0.534039 -0.186249 -0.066004 255 255 253
0.129170 -0.416496 0.093407 183 184 183
0.542311 -0.193306 -0.055123 255 255 255
0.419620 -0.289706 -0.049570 0 0 50
0.179182 -0.432845 0.007515 255 255 255
0.034476 -0.381884 0.074136 189 188 191
0.270741 0.371308 0.041107 253 253 254
-0.121552 0.193713 -0.012760 0 7 49
0.322734 -0.363829 0.005495 157 160 161
0.296079 -0.357135 -0.034561 178 177 179
-0.110861 0.231447 -0.124570 1 4 11
0.557419 -0.191094 -0.095845 1 1 51
-0.049271 0.294808 -0.003000 0 6 30
-0.127592 -0.184577 -0.112794 8 7 7
0.017420 0.347645 0.106933 0 10 33
0.257859 0.404376 0.029172 191 192 191
-0.129887 0.136661 0.093162 7 6 7
0.682095 -0.102535 -0.065479 0 0 53
0.431166 0.269973 -0.032927 255 254 255
0.113333 -0.406814 0.037787 5 8 8
-0.168712 -0.079383 -0.048383 5 8 7
-0.152058 0.103333 0.012519 0 8 80
-0.125098 -0.194751 -0.102731 3 2 121
-0.133831 0.135508 -0.061727 176 178 177
0.047923 -0.370582 0.055614 0 25 130
0.041725 -0.375215 -0.041718 0 9 129
-0.142580 -0.134328 0.081613 0 3 125
-0.142410 -0.025749 0.111004 219 220 221
-0.135018 -0.027023 0.028403 7 8 5
0.309819 -0.345827 -0.013609 153 156 155
0.480471 -0.239787 -0.084376 255 255 255
0.181517 -0.457033 0.035118 5 7 6
-0.011962 0.325253 0.092778 0 7 40
-0.072235 -0.257737 0.110707 1 12 129
0.067295 -0.418026 0.003849 7 6 6
0.497874 0.224673 -0.055731 2 1 54
-0.025477 -0.316936 -0.008263 4 12 126
-0.021254 0.324406 -0.078385 0 2 15
0.422759 -0.290814 -0.034701 0 0 54
-0.136705 -0.151988 -0.001387 2 0 119
-0.148029 -0.159927 -0.091905 6 7 7
-0.168228 -0.069015 -0.040842 7 9 7
0.140025 -0.424076 0.020226 180 178 179
-0.148571 -0.089852 0.097155 5 0 128
-0.086096 0.262940 0.113363 155 154 154
0.237500 0.425168 -0.004635 194 198 195
-0.153582 0.166908 -0.087368 170 169 170
0.072235 0.404646 -0.004622 170 171 172
-0.126022 -0.186153 -0.010613 1 2 125
-0.128038 0.166025 0.091136 0 3 80
0.684063 0.105681 -0.028809 254 255 253
-0.134955 -0.053633 0.018728 5 7 7
-0.128106 0.179627 -0.040533 0 7 47
-0.019077 -0.339717 0.099202 6 6 5
0.149202 -0.410796 0.083853 179 180 181
0.355452 0.318703 0.007070 0 1 51
0.184416 0.433137 0.033521 7 7 8
-0.084335 0.242907 0.058050 0 6 53
0.646190 -0.133970 -0.089494 0 0 52
-0.032025 -0.308516 0.084099 0 20 126
-0.158748 -0.095949 -0.043647 7 8 7
0.015909 0.362436 -0.107293 161 161 162
0.196655 0.422594 -0.019887 220 221 220
0.419850 -0.260503 -0.050084 252 253 254
0.475162 -0.229269 -0.074295 8 7 10
-0.011630 -0.348015 -0.112277 8 7 7
0.534972 0.198709 -0.020320 255 253 255
-0.142215 -0.036778 0.108447 249 251 249
-0.051243 0.302688 -0.108988 0 2 10
-0.097356 0.224091 0.006065 0 8 47
-0.026157 0.317945 0.013696 0 6 29
0.276447 -0.376308 0.006506 172 174 173
0.146228 -0.440758 0.028317 53 68 122
0.269433 0.382582 -0.016724 254 252 253
0.552925 0.197323 -0.017550 255 254 255
0.112592 0.403297 -0.022772 0 4 6
-0.091324 0.271612 0.119923 151 154 152
-0.136650 -0.157883 0.010192 0 1 122
-0.005662 0.332334 0.071621 0 10 35
0.314153 0.333655 0.033630 0 1 51
-0.145018 -0.111148 0.010732 2 1 121
-0.084435 -0.258516 0.010495 1 9 126
0.234850 0.392732 0.033551 201 201 201
0.064163 -0.395507 0.103955 185 186 186
-0.028726 -0.311776 0.049584 3 18 128
0.012622 -0.358415 -0.106715 193 193 194
0.398236 -0.288704 -0.022641 1 1 51
0.037757 -0.357358 0.111103 6 7 8
-0.029433 -0.344064 -0.116979 6 7 7
-0.151982 -0.105358 0.049808 3 2 124
-0.135982 0.189215 0.111591 6 7 5
-0.140554 -0.193825 0.125679 8 6 7
-0.068404 -0.278296 -0.096645 4 3 129
0.039033 0.361842 0.064265 1 7 25
-0.144800 0.139891 -0.084853 74 75 75
0.701161 0.078080 -0.039180 254 255 255
-0.025580 0.324777 -0.077068 0 4 15
-0.150055 -0.056371 0.077753 227 225 227
0.581872 -0.171503 -0.036559 0 1 51
-0.134075 0.117206 -0.056559 180 180 182
0.552732 0.182330 -0.046272 1 2 53
0.082018 -0.412920 0.015649 8 6 9
-0.006071 0.342807 -0.115378 7 6 7
-0.132184 -0.181340 -0.053800 4 2 121
0.048668 -0.383456 0.113240 189 188 190
0.531424 -0.218645 -0.028229 0 1 50
-0.135186 0.169859 0.003678 0 9 59
0.280988 0.381008 0.017004 255 255 255
-0.046831 0.302088 -0.058045 0 7 19
0.355164 -0.333468 -0.047329 199 199 201
0.234586 -0.413857 0.008670 253 253 254
-0.145351 -0.124450 0.103033 5 6 7
-0.061301 0.280509 0.114223 7 6 6
0.265133 0.363037 0.024982 255 254 255
0.094586 0.419709 0.042770 7 8 7
0.412583 -0.273339 -0.069439 0 0 51
-0.152283 -0.068459 0.016402 6 6 7
0.070856 0.396963 -0.055352 171 170 171
0.083525 -0.389435 0.068664 187 189 190
0.603082 -0.143261 -0.080554 255 252 254
-0.103367 0.188187 0.116025 164 165 164
-0.098957 -0.269753 -0.143717 7 7 6
-0.151469 -0.122541 0.114387 235 234 233
0.577761 -0.150594 -0.089499 253 255 255
-0.025263 0.325822 -0.116681 157 157 156
-0.067663 0.269587 0.090609 0 9 55
0.204162 -0.430996 0.021061 255 254 255
0.047326 -0.371197 0.001073 2 18 130
0.480513 -0.223316 -0.026449 0 0 48
0.027351 -0.388040 -0.097722 6 4 7
-0.061440 0.277827 0.038616 0 7 40
0.338494 0.347579 -0.008029 0 0 52
0.009505 -0.372435 0.115831 189 187 191
0.205528 -0.399659 0.041379 218 217 218
0.060426 0.402092 -0.068198 169 170 171
0.062046 -0.376678 0.091227 6 8 8
-0.064425 -0.293764 0.119990 8 9 9
0.220307 -0.402733 0.048934 210 211 210
-0.058569 0.291115 0.005450 0 5 35
-0.093703 0.274249 -0.139329 7 6 7
0.227158 -0.390158 -0.031869 255 253 255
0.624298 0.151276 -0.010937 0 1 56
0.433359 -0.262168 -0.075868 1 2 51
-0.141651 -0.070780 0.042417 231 228 230
0.698313 -0.089428 -0.115925 1 2 55
0.032767 0.356963 -0.068923 1 5 10
-0.132293 -0.072914 0.001593 6 5 5
0.283933 0.373640 0.042903 178 176 178
0.654978 0.128970 -0.056891 255 255 255
0.278025 0.376260 0.016401 255 255 255
0.511384 -0.211583 -0.066673 0 1 50
0.582345 0.180198 -0.048225 253 253 254
-0.165514 0.019756 0.068710 6 8 9
-0.101687 0.230393 -0.069129 1 9 30
-0.011787 0.333142 -0.123073 5 6 7
-0.146409 0.104868 -0.003834 0 7 72
-0.129721 -0.030523 0.010519 6 7 6
-0.093031 -0.240920 -0.003438 2 6 128
0.665812 -0.121827 -0.096225 0 2 52
0.127053 0.435707 -0.000478 5 6 8
-0.121584 -0.193913 0.039111 0 2 127
-0.000266 -0.338076 0.001662 0 15 128
0.039862 0.367236 0.093351 164 164 163
-0.128974 0.202385 0.125455 162 164 164
-0.044265 0.284943 0.132015 6 6 6
0.121020 0.412817 -0.028797 5 5 6
-0.138819 -0.068835 0.048744 231 230 228
0.396849 0.284742 -0.034166 0 0 50
-0.062330 -0.294431 -0.137224 204 205 204
-0.027132 -0.321552 -0.132237 5 6 7
-0.133056 -0.130472 0.126206 4 5 5
0.634985 -0.135408 -0.057989 0 0 52
0.635145 0.133300 -0.014664 249 249 249
-0.144592 0.136381 0.024865 0 8 69
-0.117158 0.195688 0.079538 0 6 71
-0.121526 -0.248690 -0.147891 8 7 7
-0.019692 -0.330801 -0.061478 4 7 129
0.069253 -0.384192 0.098781 186 186 187
0.697627 0.075457 -0.054412 255 255 255
-0.025894 -0.322608 0.042166 2 17 129
0.439126 0.290011 -0.036002 255 255 255
-0.134471 0.044374 0.022532 203 202 203
0.388876 -0.289696 -0.057835 254 255 255
-0.086690 -0.301301 -0.134799 7 7 8
-0.103640 0.254331 0.125992 154 152 154
-0.090137 0.231998 0.087984 0 7 61
-0.076506 0.246742 0.107971 155 155 154
-0.130586 0.234281 -0.128714 7 7 7
-0.002820 -0.359033 0.093334 192 193 194
0.394297 -0.298906 0.007515 255 255 255
0.270222 -0.389914 -0.032581 255 255 255
0.111177 0.404970 0.058143 2 5 8
0.619180 -0.159352 -0.070396 255 255 255
-0.110204 -0.207864 0.008953 1 2 126
-0.152577 -0.079356 0.087592 5 6 7
-0.152044 -0.107110 0.013598 2 2 115
0.279854 0.384668 -0.025417 188 191 189
0.032674 -0.373468 -0.066079 4 7 129
-0.062539 -0.314345 0.128233 5 7 5
-0.122366 0.168008 0.121182 168 169 170
0.189573 0.426891 0.069057 105 104 104
0.738838 0.051153 -0.078606 0 3 56
0.239644 0.380759 0.021849 197 197 196
0.635469 -0.116296 -0.109119 2 3 53
0.653424 -0.132409 -0.093416 255 254 255
0.013103 -0.383670 -0.108877 189 190 190
0.273578 0.374066 0.037094 255 255 253
0.365247 -0.334059 -0.033158 253 253 252
-0.164620 0.079573 -0.009117 5 7 6
-0.064909 0.282561 0.116581 148 150 149
0.108141 0.423172 -0.043382 172 173 176
-0.040723 -0.352068 -0.102003 195 194 193
0.281529 0.385272 0.033753 255 255 255
-0.090644 -0.271506 -0.129033 210 209 211
-0.128413 0.026699 0.085290 206 205 206
-0.138328 -0.136810 -0.095021 241 239 238
-0.074609 0.291127 -0.140830 5 6 5
0.138248 -0.419613 -0.009522 234 231 231
-0.113800 0.227941 -0.115967 1 7 14
-0.048418 0.303303 -0.109751 0 2 9
-0.150346 0.102000 0.086160 186 187 186
-0.112080 -0.217385 -0.011631 1 7 122
0.014142 0.356630 -0.075207 0 5 12
-0.132233 0.184595 -0.072763 2 10 33
0.238103 -0.392143 0.051377 199 200 200
-0.127467 0.019977 0.101774 8 9 8
0.052903 0.365721 -0.093739 162 165 165
0.652201 0.108855 -0.067546 255 255 255
0.098099 0.395811 -0.003640 0 3 6
0.054217 0.391152 -0.083513 168 167 168
0.399454 0.296456 0.011556 255 255 255
0.049639 -0.364634 0.117296 5 5 5
0.188121 0.438006 0.028743 177 178 177
0.587856 0.169530 -0.006387 253 253 253
-0.031695 0.315223 -0.022049 0 7 24
-0.152901 0.082030 0.039936 0 4 89
0.177997 0.445894 -0.010209 230 229 228
0.282375 0.355711 0.032977 172 173 172
-0.132671 0.074250 0.104108 194 193 193
-0.144378 0.121020 0.005499 0 6 69
0.047485 0.360344 0.115366 5 7 5
0.224187 -0.417023 0.031571 209 208 210
0.032843 -0.384556 -0.088830 185 186 187
0.155399 -0.418772 0.038426 7 6 9
0.330279 0.339889 -0.041147 148 149 148
-0.008088 -0.321519 0.132840 8 5 6
0.107386 -0.411194 0.035638 182 182 183
0.107244 -0.410796 -0.012430 183 183 183
-0.092162 0.271239 -0.123600 149 152 151
-0.152829 -0.127390 -0.027516 2 0 117
-0.095943 0.237242 -0.000876 0 8 36
-0.006992 -0.335192 0.022726 1 17 129
0.508442 0.214609 -0.021729 0 1 53
0.035854 0.383234 0.114125 163 163 165
-0.100475 0.286151 -0.138464 149 148 151
-0.126490 0.192395 -0.064854 1 10 40
0.490316 0.220365 -0.020495 0 0 52
-0.070106 -0.268093 -0.005374 2 7 129
0.057326 0.373153 0.034333 0 7 18
-0.038320 0.283861 0.127389 151 152 153
0.365841 -0.300516 -0.064263 255 255 255
-0.126001 0.171300 0.049996 1 10 70
0.464236 0.266083 -0.004708 0 1 51
-0.156684 -0.093342 -0.026283 3 0 112
0.065223 -0.379909 0.080258 189 189 191
-0.119206 0.147334 0.124180 175 175 177
-0.103397 -0.231773 -0.123544 219 218 217
0.057705 -0.366936 0.093744 8 5 7
-0.023921 0.343253 -0.128958 159 159 158
0.608337 -0.150382 -0.103078 255 255 255
0.053041 0.373495 -0.003982 0 5 13
0.022869 0.350404 0.020711 0 8 25
0.427807 0.278743 0.023270 255 255 255
0.068392 -0.403302 -0.042967 184 183 185
0.366368 0.320600 -0.009539 0 0 50
0.450656 -0.276853 -0.057415 2 1 50
-0.006698 -0.353642 -0.113283 193 192 195
0.326647 -0.343020 0.026162 253 251 252
-0.096741 0.240214 0.025834 0 7 49
-0.113839 0.209124 -0.015756 0 11 45
0.153740 0.445030 0.038813 181 180 181
-0.151483 -0.139406 -0.091046 7 7 7
-0.152550 0.120520 0.096012 6 7 7
0.071043 -0.399081 0.065215 6 7 7
-0.149004 0.091277 -0.050525 188 188 189
-0.160642 0.111242 -0.011761 6 6 4
0.138559 -0.460077 -0.031684 162 163 164
-0.102230 0.286244 -0.130345 152 152 152
0.655545 -0.100888 -0.091658 255 255 255
0.655196 0.120797 -0.064512 255 253 254
-0.133036 -0.171486 -0.056883 4 2 118
-0.111056 -0.204736 0.050652 2 6 127
0.534892 0.212584 -0.055712 1 1 53
-0.159605 0.152633 -0.081888 6 6 6
0.605280 0.142691 -0.039609 0 0 54
-0.026552 -0.324915 -0.096089 4 4 128
0.632425 0.124191 -0.025572 0 0 52
-0.139321 -0.154776 -0.001876 0 2 121
0.011869 -0.362082 -0.113828 7 6 7
0.687327 -0.103622 -0.101914 0 1 54
-0.150668 0.142863 0.107657 177 177 177
-0.144561 0.008721 0.084016 223 221 225
0.125570 -0.434120 0.043927 7 8 6
0.566772 -0.170963 -0.095961 254 253 255
0.164029 0.411063 -0.003164 173 172 173
-0.158283 0.023683 0.085020 7 9 8
0.405204 -0.304302 -0.069907 0 1 53
-0.146135 0.113833 -0.006464 0 8 70
-0.023145 -0.327606 -0.085145 5 6 131
-0.015216 0.328414 -0.014871 0 5 26
0.005913 0.372248 0.106903 164 165 165
0.093505 -0.395688 -0.029977 184 185 186
0.372415 -0.318399 -0.060733 161 160 162
0.027078 -0.393918 -0.095200 185 185 185
-0.058051 -0.290580 -0.032523 2 8 130
-0.092597 0.206766 0.131867 161 164 162
0.025396 -0.372088 0.116292 190 189 191
-0.155765 -0.082886 0.090754 7 6 8
0.134003 -0.418271 0.028502 5 5 6
0.040670 0.394717 -0.081179 169 168 169
-0.018617 -0.334409 -0.078304 4 4 131
0.554396 0.181843 -0.005064 0 0 52
-0.117697 -0.203356 0.134751 220 223 223
0.067512 -0.383481 0.050155 0 25 129
0.440597 -0.257444 -0.034898 0 1 52
0.554483 0.198007 -0.031840 0 0 53
0.199170 0.430330 0.006295 223 222 222
0.695037 0.073074 -0.029544 1 0 52
0.362480 -0.313268 -0.074566 142 145 143
0.149063 -0.420300 0.030445 7 8 9
0.151786 -0.415571 0.075391 180 178 179
-0.154843 0.099666 -0.005334 188 188 190
0.018161 -0.346176 -0.007024 2 16 132
-0.127703 0.179444 0.014473 2 10 66
-0.102429 -0.237454 -0.085823 5 0 126
0.146979 0.414203 -0.011008 172 172 173
-0.166589 -0.083750 -0.027362 7 7 7
-0.088124 -0.226626 0.128500 7 5 7
-0.126646 -0.207823 -0.131863 223 223 223
0.557450 0.196466 -0.054628 255 255 254
0.244311 0.402760 0.054886 255 255 254
0.339637 0.338644 0.035219 145 147 148
0.490257 -0.223837 -0.074383 0 1 51
0.093445 -0.413281 0.064911 6 5 6
0.804263 -0.063403 -0.124213 3 4 19
0.213484 -0.425650 0.036181 252 251 251
0.186746 -0.432028 0.034093 231 230 231
0.159294 0.428560 -0.010662 8 8 7
0.522278 0.227416 -0.060410 0 1 51
0.640417 -0.137531 -0.082853 255 254 255
0.159676 0.445151 0.008488 255 255 255
0.078598 0.392814 -0.018012 167 169 169
-0.144566 -0.126841 0.057490 2 2 124
0.699333 0.089587 -0.037643 0 0 53
0.686930 -0.109234 -0.108485 254 255 255
0.306696 -0.375453 -0.052003 164 165 166
-0.156028 -0.143625 -0.108947 7 8 6
0.462433 0.272824 -0.001321 253 252 253
0.410457 -0.306422 -0.006088 0 0 52
-0.127549 -0.192422 -0.128103 8 7 6
0.214715 0.405923 0.061754 255 255 255
0.240598 0.409287 0.037766 202 201 202
0.562241 0.183865 -0.057074 0 0 56
-0.128532 -0.193089 0.014979 1 2 124
0.125253 -0.411956 0.059188 6 7 9
0.414378 0.290979 -0.026471 2 2 51
0.020191 0.351188 0.034118 0 7 26
-0.153669 -0.107723 0.015516 3 0 120
-0.161786 0.068994 0.086576 7 7 8
0.606740 0.168312 -0.015613 255 255 253
0.385351 -0.291966 -0.020381 253 253 254
-0.145663 -0.106314 0.072454 4 0 125
-0.002334 0.356991 -0.123936 6 5 6
-0.092588 -0.243679 -0.038386 3 6 126
-0.090416 -0.245446 0.107573 0 11 128
0.541719 0.210127 -0.038437 254 255 255
0.071624 0.409029 0.084350 7 7 7
-0.007593 -0.336932 0.126569 197 196 198
0.675021 -0.112138 -0.073894 0 0 54
0.032022 -0.360484 -0.011810 2 15 127
-0.144689 0.087657 0.080532 7 7 7
0.192555 0.445635 0.048803 177 179 177
0.050992 -0.396937 -0.077869 186 186 186
0.244102 -0.392596 0.049836 254 255 255
0.098629 -0.428154 -0.004031 7 7 7
0.174163 -0.424431 0.059741 6 9 6
0.299868 -0.362247 0.026192 171 173 174
0.351612 0.331285 0.000481 151 153 153
-0.125780 0.206999 -0.094405 0 9 29
-0.134385 0.007339 0.038236 214 213 213
-0.140021 -0.112912 0.118428 236 237 236
0.001186 0.346346 -0.077934 0 3 12
-0.122333 0.182990 0.127812 165 166 165
0.163290 -0.437535 -0.001537 164 164 166
-0.130386 0.054601 0.035422 202 200 202
0.467958 0.254191 -0.033737 1 1 55
-0.131458 -0.175704 0.039031 0 3 123
-0.163502 -0.017250 0.035459 217 218 218
0.193999 0.411646 0.055916 252 252 253
0.202248 -0.428215 0.043493 176 178 179
-0.150798 -0.098716 -0.026922 1 2 115
0.555498 0.180160 -0.055789 7 8 6
0.014540 0.346773 0.092983 0 12 32
-0.044749 -0.304682 -0.067851 3 5 128
-0.097083 -0.266189 -0.140856 6 6 6
-0.140905 0.050179 0.106868 199 199 201
0.420919 -0.275901 -0.088280 0 0 54
0.471743 -0.250804 -0.005091 0 0 54
0.536967 0.212918 -0.006291 1 2 53
0.008194 -0.334622 0.108719 196 195 196
0.001584 -0.338651 0.100719 197 198 197
0.315396 0.347414 -0.041142 156 156 156
-0.140897 -0.134009 0.080558 0 1 124
0.126763 0.401571 0.008848 4 4 11
0.452620 -0.276648 -0.048364 0 0 50
0.084906 0.416761 -0.030028 175 175 176
0.022380 0.387772 -0.093526 4 7 8
0.176899 -0.431520 0.000166 254 254 255
0.093511 -0.402152 -0.005274 1 20 129
0.079889 0.390208 0.109718 6 6 6
-0.126896 0.173868 0.034597 1 9 68
0.184303 -0.429054 -0.020595 228 227 228
-0.159439 0.069770 -0.000559 8 7 8
-0.135842 0.092023 0.104279 191 191 191
0.080450 0.416437 -0.025625 172 171 172
-0.090409 0.245740 0.060073 1 10 55
0.708779 0.076968 -0.050835 1 0 52
0.449008 0.263755 -0.003311 0 0 54
-0.019472 -0.325200 0.066029 1 20 129
0.083807 0.421404 -0.013828 173 175 176
-0.162358 -0.034912 0.003448 6 7 5
0.111879 -0.405064 0.097711 6 9 9
-0.130029 -0.165730 0.054479 3 2 125
0.364112 0.303382 -0.003426 255 255 255
0.714323 -0.082904 -0.107595 254 255 254
-0.010513 -0.354177 0.108984 6 7 5
0.549799 -0.203324 -0.051543 255 254 254
0.193090 0.447779 0.013336 182 183 182
0.044931 -0.400525 -0.078587 182 183 184
0.279455 0.385571 -0.016594 178 177 178
-0.159843 -0.062788 0.081313 6 7 7
0.183732 0.440789 0.026022 179 179 178
-0.131371 -0.054972 0.070090 227 226 229
0.700555 0.082398 -0.038235 255 255 253
0.588051 0.154896 -0.026733 0 0 52
-0.157828 -0.136806 0.120467 7 6 7
-0.137300 0.087701 0.113289 191 190 191
-0.151609 0.041954 -0.009084 202 203 203
0.341774 0.335814 0.000447 255 255 253
0.026384 -0.358624 0.105765 195 195 196
-0.139646 -0.079947 0.119705 248 244 245
0.354909 -0.326608 -0.046136 167 166 169
0.702628 0.075057 -0.070209 6 6 8
0.059948 -0.379969 0.085946 8 7 7
-0.062137 0.280395 -0.048638 0 5 20
0.344831 0.326751 0.034636 255 255 255
-0.111023 0.202915 0.068619 0 6 65
-0.012451 -0.333072 -0.072686 4 7 131
0.159805 -0.459961 -0.014670 234 232 234
0.347128 0.341940 0.010024 1 2 52
-0.124881 0.176206 0.109154 167 166 167
0.489007 -0.217462 -0.046984 254 255 254
0.412335 -0.268200 -0.073212 254 252 254
-0.125256 0.176613 0.050474 1 8 68
0.655465 -0.107520 -0.075938 255 255 255
-0.134091 -0.018801 0.040750 5 6 7
-0.076541 0.278480 -0.124026 4 6 5
-0.115633 0.162502 0.101128 168 172 171
0.291340 -0.375326 0.018298 173 174 176
-0.136745 0.192158 -0.108140 4 9 25
-0.078391 -0.272116 -0.050514 3 6 129
0.358799 -0.308209 -0.015968 254 253 253
-0.146842 0.107658 -0.012519 8 7 8
-0.132138 0.172551 -0.001653 0 7 57
-0.121418 -0.195661 0.122545 5 5 5
0.627213 -0.149329 -0.046509 255 255 255
0.074301 0.386593 0.060773 1 7 20
-0.138005 0.061877 0.027322 197 196 199
-0.026473 -0.330451 -0.130685 196 197 197
0.097913 -0.427478 0.017487 8 7 8
0.078044 -0.409873 -0.020857 183 182 184
-0.117194 0.159457 0.126126 5 6 6
0.191548 0.428035 0.068618 6 7 7
0.181523 -0.444537 -0.005912 230 228 227
0.311635 -0.363460 0.020832 254 253 253
-0.095856 -0.242684 -0.046325 4 3 126
0.550847 -0.196990 -0.086709 1 2 51
0.108947 -0.407345 0.057997 184 184 185
0.001271 -0.359358 0.117851 8 6 8
-0.103895 -0.225135 -0.023323 1 4 126
0.209016 0.392233 -0.009224 211 211 210
0.704189 0.067331 -0.059265 0 0 52
0.286709 -0.381164 0.007992 178 182 181
-0.132433 -0.208824 -0.112384 224 224 223
0.256316 0.392297 0.051297 197 196 196
0.203862 -0.416155 0.048361 255 255 255
0.609655 -0.165964 -0.056230 255 255 255
0.048410 0.397353 -0.090766 171 170 171
0.147458 0.440333 0.050110 7 6 8
0.109081 -0.410492 0.047119 4 4 5
-0.031805 0.315501 -0.044295 0 6 22
-0.069189 -0.277704 0.030906 2 10 130
-0.162094 0.121647 -0.036911 180 180 181
-0.167418 -0.101505 -0.054380 240 240 240
-0.057331 0.319779 -0.129199 158 158 158
0.120460 0.427069 0.087555 6 8 6
-0.126799 -0.217265 0.116591 7 6 6
0.189027 0.418293 0.067500 255 252 255
0.463725 -0.231232 -0.087217 253 253 253
0.127455 -0.414211 0.017322 0 29 128
0.689486 -0.080943 -0.108983 255 255 255
0.069808 -0.413283 0.042048 182 180 181
-0.133115 -0.177052 -0.119432 231 229 230
0.452818 -0.261938 -0.092540 0 0 51
0.167271 0.426195 -0.013234 6 8 7
-0.061908 -0.273989 0.137771 206 206 206
0.127915 -0.431265 -0.010479 176 177 179
0.070090 -0.398207 0.075415 25 50 137
-0.161433 0.005244 0.048619 212 211 212
-0.135369 -0.031519 0.051782 221 219 221
-0.147436 -0.194571 -0.107369 229 227 228
-0.147861 -0.131499 -0.013956 1 1 116
-0.116761 -0.194853 0.045870 2 4 126
0.096865 0.402128 0.049709 172 172 174
-0.141771 -0.043531 0.026646 223 222 223
-0.094064 0.239019 -0.052495 0 8 28
0.299933 0.347987 -0.019016 162 162 163
0.514539 -0.197087 -0.059576 0 0 54
0.308896 0.338071 -0.012381 159 162 161
0.133754 0.410917 -0.003984 172 173 175
0.218210 0.420590 0.023522 255 255 255
-0.106637 -0.226581 -0.124582 7 7 6
-0.162469 0.096381 0.084930 189 188 189
-0.129444 0.021185 0.091456 7 9 8
0.437667 -0.262306 0.003073 0 0 51
0.164125 0.451992 -0.008359 231 232 230
0.189738 0.428912 0.013877 255 255 255
-0.141892 -0.136433 -0.067896 240 239 240
-0.111454 -0.234662 -0.135558 219 219 219
0.557437 0.186283 -0.055604 255 255 255
-0.072462 0.242613 0.124924 153 152 154
0.166335 0.414509 0.083188 171 172 171
-0.085390 0.258220 -0.094514 1 3 15
0.092590 -0.404267 -0.047037 180 181 182
-0.101075 0.198008 0.115726 163 162 163
0.537020 0.192614 0.013110 0 1 51
-0.156042 -0.056180 0.102545 227 226 227
0.149307 0.447881 0.006213 180 181 183
-0.147459 -0.114730 -0.094335 8 6 7
0.068290 0.411029 -0.033459 171 172 172
0.084834 0.404797 0.094938 57 58 57
-0.124272 0.178717 0.073553 1 6 74
0.612065 0.161728 -0.048311 255 253 254
0.697247 -0.105240 -0.103012 0 0 51
-0.144096 0.146308 -0.065712 0 12 54
-0.128725 0.015009 0.091186 208 208 209
0.302669 -0.355845 -0.056179 172 174 174
-0.048279 -0.327689 -0.123132 200 200 200
0.533720 0.224932 0.004717 0 0 53
0.062073 -0.382889 0.035970 0 24 128
0.315197 0.336753 0.014300 255 255 255
0.268379 -0.370306 0.014901 255 253 255
-0.139269 0.144825 0.083352 1 7 84
0.204868 0.399241 0.026486 255 255 254
0.692932 -0.097021 -0.090766 255 255 255
-0.088821 0.237932 0.110665 0 10 69
-0.067399 -0.319251 -0.141202 202 200 199
0.152455 -0.426761 -0.010333 6 7 7
-0.123846 -0.160722 0.132750 229 229 230
-0.031366 -0.317056 -0.041291 1 7 129
-0.112900 -0.226858 0.114247 7 7 6
-0.139264 0.167362 -0.008218 0 7 62
0.009540 0.340344 0.048036 1 9 30
-0.006842 0.346552 0.105158 7 8 7
-0.045154 0.319476 0.120794 154 155 156
-0.037914 0.310348 -0.104031 0 3 10
0.286345 0.354475 -0.002506 169 173 171
-0.142581 0.139454 0.025019 1 9 74
0.559038 0.195277 0.002073 0 0 50
-0.128770 -0.186684 0.016085 0 2 124
0.088363 -0.419518 0.033186 180 181 182
0.159876 -0.438885 -0.017970 243 242 242
0.076824 0.387729 0.046756 0 7 14
0.444825 -0.241595 -0.086244 255 254 255
0.391496 0.315636 0.025770 0 1 51
0.494019 -0.207990 -0.078525 254 255 255
0.209942 -0.404928 0.021089 252 250 251
0.048514 -0.406646 -0.035081 184 183 184
-0.140651 0.153590 -0.107486 173 174 174
0.013582 0.337871 0.099314 0 8 35
-0.096175 0.240636 -0.022968 0 10 37
0.086131 -0.392303 0.041790 0 27 131
-0.077648 0.267151 -0.074753 0 6 18
0.149352 0.426450 0.029591 5 6 7
0.674224 0.089763 -0.073940 5 6 5
-0.156685 -0.106774 -0.042624 6 8 7
-0.071210 0.265706 0.000463 0 6 35
0.456275 0.252060 -0.050716 1 0 54
-0.013377 0.362320 -0.130417 162 161 163
-0.127844 -0.041394 0.050665 222 220 222
0.224007 0.419461 0.052453 189 190 189
0.037768 -0.365833 -0.019095 0 15 127
-0.131999 0.204281 0.125762 6 7 6
0.626854 0.151039 -0.034823 0 0 53
0.129184 0.404397 0.088468 8 7 8
0.368089 -0.300594 -0.049154 254 254 255
-0.069712 0.260303 0.052949 0 8 48
0.192784 -0.439521 0.058850 175 177 176
-0.141135 0.001450 0.100091 212 212 213
-0.012063 -0.353624 -0.113097 6 8 6
-0.056340 -0.312000 -0.134021 7 8 6
-0.097229 -0.275902 -0.137730 209 208 209
0.071510 0.388073 0.035878 1 6 16
0.034554 -0.389389 0.085180 187 187 189
-0.096382 -0.249353 -0.109627 6 3 125
-0.085286 0.247491 -0.131207 5 6 6
0.076808 -0.418903 -0.003601 183 182 183
0.053719 -0.374230 0.013098 2 22 132
0.143395 -0.411233 -0.014335 182 183 183
0.496021 0.232969 -0.051594 0 2 53
0.272420 0.386188 -0.002869 183 181 183
0.354309 -0.309585 -0.047773 255 253 255
0.153642 -0.449000 0.010277 167 168 169
0.333226 -0.346183 -0.002021 255 254 255
0.514110 -0.208541 -0.016170 255 255 255
0.464143 0.265573 -0.057933 255 255 255
0.251759 -0.387506 -0.032477 186 184 185
0.077998 -0.397824 -0.047124 185 186 187
0.125494 0.423870 -0.026230 7 8 7
0.112606 -0.405551 0.094516 179 183 183
0.436779 -0.278998 -0.042621 255 255 255
-0.063892 -0.274491 0.046951 3 11 130
-0.125004 -0.120926 0.127868 8 8 6
-0.136953 -0.169514 -0.065113 2 2 119
-0.077819 0.267857 0.002194 0 5 35
-0.134113 0.001626 0.019793 8 7 7
0.521636 -0.201590 -0.078858 0 0 52
0.691258 -0.092497 -0.073085 253 255 252
0.376483 -0.325964 -0.031238 147 149 146
-0.134040 -0.012990 0.052262 218 217 218
-0.154188 -0.078111 0.030361 4 1 117
0.081999 0.391956 0.041933 1 6 12
0.317813 0.357251 -0.017535 192 193 193
-0.130876 -0.167010 0.056983 0 2 123
-0.148264 -0.136539 -0.062606 1 0 115
0.505117 -0.206274 -0.071637 255 255 255
0.038346 -0.372763 -0.045887 3 12 130
0.237060 0.380729 0.014167 255 255 255
0.362730 -0.336931 0.003871 254 253 254
-0.147677 0.098088 0.061381 0 3 89
-0.143443 0.117939 0.068608 1 6 85
-0.070472 -0.279286 -0.141354 7 8 7
0.201841 -0.410997 0.028510 254 253 255
-0.169832 -0.018651 0.029363 5 5 7
-0.018432 0.323411 -0.018917 0 5 24
0.125647 0.424964 -0.016504 7 8 8
-0.015855 -0.361567 0.108077 192 192 194
0.457868 0.262637 -0.023860 254 254 254
-0.001838 -0.354663 0.110448 193 194 193
-0.106425 -0.223875 0.012212 1 3 126
0.064965 0.388982 -0.055519 0 4 4
0.226409 0.432406 0.011098 175 177 177
-0.119188 0.218356 0.126959 5 7 5
0.065039 0.398925 -0.037743 169 170 169
-0.140763 -0.144215 -0.033264 3 2 118
0.499188 0.241747 -0.025836 1 0 48
-0.138304 0.041103 0.057071 202 202 203
-0.030308 -0.354819 -0.123401 6 7 6
-0.133391 0.184061 -0.097579 6 6 7
0.267120 0.365856 0.050180 183 184 184
-0.132274 -0.194849 -0.104242 225 223 223
0.121030 0.432066 -0.014335 5 8 7
-0.147905 0.038699 0.008629 6 8 7
0.681413 -0.108233 -0.082185 255 255 255
0.442884 -0.275197 -0.000578 0 1 54
0.195881 0.418767 -0.013681 215 214 214
0.253781 0.377867 0.051870 255 255 254
-0.054907 0.299152 -0.098025 0 4 13
0.635799 -0.120086 -0.101190 255 254 254
-0.053200 0.292864 -0.052334 3 9 21
-0.104238 0.219229 0.027368 0 7 52
-0.075478 0.273560 -0.068874 0 6 21
-0.050739 -0.312084 -0.128232 5 1 129
0.069283 0.385323 -0.035537 0 4 7
0.254194 -0.390460 0.040617 194 195 195
-0.159865 0.090029 0.103558 7 7 7
-0.009921 -0.326625 0.113953 6 9 5
0.485786 0.227903 -0.039255 0 0 53
0.261028 0.365554 0.039737 183 185 184
-0.110811 -0.229492 0.124210 216 214 216
-0.117440 -0.199686 -0.054043 2 3 122
-0.136247 0.062157 0.055004 198 198 198
-0.086042 -0.243520 0.043715 0 10 129
0.060917 -0.407590 0.074840 182 184 184
0.263694 -0.404103 0.005606 255 255 255
0.522186 0.227922 -0.051988 8 8 8
0.002977 -0.351838 -0.101216 1 2 131
-0.100417 0.222568 0.079517 0 9 63
0.348316 0.314999 0.005516 253 255 255
0.502142 0.240228 0.003965 1 2 54
0.386064 -0.283890 -0.080290 0 0 51
-0.120954 -0.209136 -0.087969 4 2 126
0.146306 -0.404319 0.059055 6 5 7
-0.154611 -0.072966 -0.018649 5 8 6
-0.132584 0.164708 0.052336 0 8 74
0.535287 0.195793 -0.017520 253 252 253
0.650138 0.132739 -0.035509 253 255 255
0.663335 0.115048 -0.030012 254 255 255
0.208543 -0.375209 0.030512 2 7 43
-0.096392 0.230473 0.136512 159 159 159
-0.167237 -0.053016 -0.004135 222 223 224
-0.137382 -0.007230 0.026486 7 9 7
0.396552 -0.281939 -0.016417 255 254 255
0.522649 -0.215479 -0.039174 0 0 50
0.572602 0.184938 -0.005507 0 0 51
-0.019229 0.342688 0.123084 157 156 158
0.583858 0.181284 -0.059125 254 255 253
-0.130580 -0.001018 0.076201 5 6 7
0.712496 -0.086984 -0.097155 0 0 51
0.026861 0.365907 0.118639 161 161 162
-0.143820 -0.134217 -0.009466 1 2 119
-0.009043 -0.339529 -0.108556 1 1 131
-0.047049 -0.315261 -0.119160 203 199 203
0.063567 -0.409163 0.049292 184 184 185
0.591326 -0.152761 -0.053204 252 252 253
-0.101198 0.233493 -0.133072 159 157 158
-0.080176 -0.258227 0.072025 0 10 127
-0.015442 0.330146 -0.080912 0 5 13
-0.006672 -0.321093 0.130592 8 5 7
0.265271 -0.390939 -0.040176 255 255 254
-0.130493 -0.023547 0.087002 8 8 8
-0.129632 0.072586 0.104962 7 6 7
0.036307 0.366063 -0.053867 0 5 14
-0.008914 0.353950 0.119825 159 162 161
0.000392 -0.377502 -0.110921 4 6 7
-0.145634 0.052876 0.088112 175 173 174
-0.142956 -0.149481 -0.053663 5 0 117
0.340252 -0.353447 0.019829 255 255 255
0.152111 -0.415758 0.044981 8 8 8
0.443437 -0.245556 -0.089921 1 0 49
0.611804 -0.125754 -0.111852 4 6 3
-0.158716 -0.066152 0.096237 230 228 230
0.492176 -0.242574 -0.008903 0 0 51
0.311479 -0.339087 0.016350 254 255 255
-0.154677 -0.040911 0.099343 5 7 5
-0.116028 -0.199550 0.105461 0 5 125
-0.156981 0.033050 0.099898 206 206 207
0.035374 -0.364238 -0.013233 4 16 130
-0.098599 0.232639 0.099858 0 9 65
0.095902 -0.413126 -0.039168 179 180 180
-0.132568 0.154447 0.128651 6 7 6
-0.147726 -0.033833 0.000716 6 6 6
0.305581 -0.349342 -0.029748 184 184 185
0.239869 0.401025 0.002508 255 255 254
0.081317 -0.383660 0.106023 7 6 6
-0.136738 -0.073964 0.117018 7 5 6
0.158108 0.434611 0.006522 182 183 183
-0.135126 0.123701 -0.063163 7 7 7
-0.124002 -0.137849 0.132890 6 6 6
-0.119867 0.210612 -0.088056 1 8 27
0.592305 0.154991 -0.008224 255 255 255
0.003841 0.345607 -0.077020 0 2 12
0.031631 0.363180 0.108037 7 8 6
0.055902 0.357473 0.116002 161 159 160
-0.144510 -0.140360 -0.039983 3 0 119
0.381366 -0.314640 -0.080860 255 255 254
-0.044692 -0.292362 0.069664 0 16 129
0.112073 0.421147 0.082589 6 6 7
-0.113091 0.265244 -0.138728 149 152 151
0.110665 0.434214 -0.027773 178 177 179
0.586736 -0.167594 -0.041951 255 255 255
0.705060 0.054316 -0.077808 5 8 6
-0.144201 -0.113879 0.041980 2 0 121
-0.033907 -0.319968 -0.089559 3 2 126
0.074194 0.384431 0.069256 166 165 166
0.217279 -0.434716 0.037649 7 6 6
0.060163 -0.382206 0.031654 1 22 128
-0.132031 0.219616 0.103680 159 158 160
-0.024166 0.322999 -0.077001 0 5 14
-0.139440 0.141706 -0.003396 1 11 70
0.115280 -0.422040 0.005719 72 72 71
0.475657 0.232424 -0.038901 0 1 52
0.255385 -0.384944 0.001598 195 196 195
0.032814 0.388586 0.071655 5 5 4
0.071701 -0.409155 0.073458 181 180 183
-0.158015 -0.187687 -0.102509 225 226 227
0.090019 -0.396057 -0.027853 3 15 128
0.283503 0.373732 0.044679 254 253 254
0.095397 -0.410152 -0.038584 2 11 127
-0.110031 -0.221839 0.006520 1 5 126
0.446336 -0.263724 -0.082650 0 0 52
0.635301 -0.140838 -0.089937 255 253 255
-0.105693 -0.223135 0.050986 0 6 126
-0.163330 -0.077981 0.093240 5 8 6
0.033016 0.378041 -0.104360 166 164 167
0.259835 0.366799 -0.020863 190 190 191
-0.117361 -0.161176 0.124767 8 9 7
-0.165243 0.012073 0.019488 212 211 212
0.367545 -0.326326 -0.049061 255 254 255
-0.152580 0.128362 -0.090153 8 7 8
-0.123712 0.168942 -0.097926 168 169 169
-0.110497 -0.204755 -0.119921 226 222 226
-0.043239 0.294565 0.064152 0 8 40
0.663914 -0.103962 -0.083173 0 0 52
-0.137867 0.178083 0.111693 166 167 169
0.061045 0.390242 -0.077703 6 7 6
-0.084196 -0.252339 -0.001275 3 6 129
-0.138919 0.073613 -0.019748 7 8 6
-0.148293 -0.145750 0.110130 233 229 232
-0.009553 -0.348120 0.100039 8 8 8
0.089659 0.413557 0.037125 5 6 7
0.328633 0.338499 -0.021881 147 149 147
0.008358 -0.347814 0.078613 0 22 128
-0.127742 -0.003806 0.016913 214 213 215
-0.155732 -0.078400 0.050589 3 3 122
0.672882 -0.109501 -0.086011 1 0 54
-0.111997 0.219054 -0.127815 158 159 160
-0.134106 0.060072 -0.007393 8 7 7
0.078940 0.414123 0.000488 5 6 7
0.711939 0.050334 -0.038775 255 255 255
-0.096242 0.230863 0.133853 153 154 155
0.410713 0.281402 -0.013977 253 254 254
0.184740 -0.448436 0.052627 174 171 175
0.420834 -0.260678 -0.089589 255 254 255
-0.097736 0.235577 -0.047808 2 10 31
-0.136221 0.173723 -0.058534 0 11 49
0.184005 -0.420895 0.017416 255 255 255
0.031836 -0.384919 0.064744 187 187 190
-0.160232 0.015258 0.053205 7 7 6
0.774906 0.008568 -0.063928 255 255 252
0.433885 -0.267688 -0.073687 255 255 255
0.048669 -0.379272 -0.085594 188 187 190
0.383082 -0.296333 0.005114 254 254 255
-0.074680 0.259549 0.106335 0 7 60
-0.155641 -0.053808 -0.020523 230 229 229
0.407399 -0.289666 -0.049923 0 0 52
-0.086658 -0.244525 0.009454 3 6 130
0.061543 -0.395972 -0.062655 5 7 7
-0.057915 0.308707 0.122946 7 6 6
0.102588 0.410496 0.029652 3 6 6
0.771273 -0.013842 -0.093348 255 255 254
0.282997 0.357492 -0.033263 255 253 254
