ply
format ascii 1.0
element vertex 1179
property float x
property float y
property float z
property uchar red
property uchar green
property uchar blue
end_header
-0.095895 -0.108118 0.017771 103 149 235
-0.102433 -0.048665 -0.008677 100 139 211
-0.085432 -0.030706 -0.030217 102 149 235
0.237465 0.068344 0.010033 253 253 253
-0.103280 -0.074433 -0.037586 102 148 233
-0.079776 0.276803 0.001406 255 255 254
-0.089224 -0.271490 -0.006830 253 255 255
-0.053492 0.251750 -0.010342 252 252 253
0.142376 -0.019057 0.010912 254 254 255
0.021739 0.160981 0.044735 254 254 254
0.025257 -0.149707 0.041883 255 255 254
0.211456 -0.032184 0.042383 254 253 255
0.128130 -0.050144 0.059597 254 255 254
-0.090213 -0.128622 -0.096048 102 148 234
-0.028716 -0.206282 0.013938 253 255 254
-0.104689 -0.273273 -0.031171 103 146 226
0.170291 0.013209 0.004523 255 255 254
0.183312 0.002897 0.034913 252 253 254
-0.087216 -0.221606 -0.065301 100 147 229
0.038865 -0.133620 0.017204 253 253 254
-0.099719 0.229538 0.040834 103 142 215
-0.019389 0.202671 0.000043 254 255 253
-0.084366 -0.265895 0.023916 120 129 135
-0.033894 -0.226834 -0.009035 253 254 253
-0.100908 0.230134 -0.068799 100 140 212
-0.068349 -0.262053 0.048721 255 254 253
-0.010514 -0.202657 0.053243 255 254 255
-0.099789 0.270935 -0.027888 101 147 230
0.239006 -0.055710 0.008237 255 255 254
0.101100 0.088218 0.012368 254 254 254
-0.058920 0.257472 0.025375 254 254 253
-0.084731 0.122491 -0.019138 100 146 231
-0.033850 0.232662 -0.008010 255 254 253
-0.084788 -0.084848 0.021696 128 131 134
-0.094544 -0.054079 -0.031112 101 145 226
-0.016077 0.210417 0.018170 255 255 254
-0.056296 -0.235316 0.055505 255 254 254
-0.083309 0.166320 0.029037 130 135 137
0.270561 -0.083770 0.022279 253 254 255
0.163271 0.022057 0.008606 255 254 254
-0.086465 -0.207487 0.053347 101 135 198
0.186974 0.021633 0.044950 253 254 255
0.196514 0.032129 0.063815 254 255 254
0.099390 0.075232 0.043480 253 254 255
-0.082308 0.181746 0.009133 101 140 215
-0.088352 -0.213309 0.036501 99 134 199
0.268349 -0.085548 0.047196 255 254 253
0.168149 0.011948 0.021099 255 254 255
-0.098227 0.208025 -0.017288 101 146 232
-0.086981 -0.208539 0.006210 102 149 234
0.006753 -0.182415 0.006086 252 253 254
-0.098963 0.128934 -0.088417 100 146 227
-0.083528 0.125751 -0.034110 101 148 235
-0.084927 -0.072589 -0.033898 103 141 211
0.108088 0.066151 0.050894 255 255 254
-0.088810 -0.184350 -0.054615 101 148 234
-0.100863 -0.220114 -0.003840 101 149 232
-0.106253 -0.217275 -0.011970 102 140 210
-0.102323 0.248851 0.042482 123 135 152
-0.097325 -0.181826 -0.072108 101 147 234
0.026198 -0.149404 0.033772 252 253 254
-0.067651 0.266995 0.051648 255 253 253
-0.080755 0.203257 -0.073672 100 136 203
-0.087870 0.201119 -0.051505 102 142 216
-0.054362 -0.247011 -0.022431 255 255 254
-0.081045 -0.278132 0.041842 254 253 252
-0.083990 -0.200460 0.009509 101 143 219
0.021889 -0.151724 -0.005183 254 255 253
0.154950 0.031502 0.011280 254 254 254
-0.078221 0.283815 0.062039 255 255 255
0.061366 -0.127870 0.059098 254 254 253
-0.085244 0.269974 -0.013894 103 147 230
-0.078814 -0.274703 0.042806 255 254 253
-0.100964 0.232953 -0.069289 101 142 216
0.119962 -0.063017 0.063167 254 255 254
-0.085713 0.197146 -0.085842 100 144 222
-0.088222 -0.168968 -0.063723 102 148 234
-0.008721 -0.184942 0.009070 255 255 254
-0.087910 -0.159850 -0.037024 99 138 206
0.216587 0.044515 -0.002810 254 254 253
-0.102148 -0.191222 -0.038789 100 147 234
0.131341 0.042029 0.027412 254 255 255
-0.097837 -0.118756 -0.032090 100 145 230
-0.103616 -0.155942 -0.047866 101 138 202
-0.084301 -0.119801 -0.014817 102 148 235
-0.086141 0.235554 -0.016945 102 148 235
0.042202 -0.145912 0.049388 255 254 255
-0.087376 -0.132202 -0.068053 105 141 203
-0.086709 -0.153352 -0.088564 121 129 135
0.153808 -0.025635 0.060021 254 253 255
0.223315 -0.027956 0.012289 254 255 254
-0.045716 0.230549 0.006295 253 253 254
-0.084287 0.277363 0.047177 254 254 253
-0.094614 0.146394 -0.021470 102 149 235
-0.089400 -0.255600 0.040535 134 139 141
0.044034 -0.129555 0.065093 255 255 253
0.206901 0.043550 0.024999 253 255 253
-0.090857 -0.154054 0.043847 102 145 222
0.177651 0.010600 0.035836 254 254 255
0.053509 -0.134799 0.036931 255 254 254
0.069349 -0.115360 0.052149 253 255 253
-0.087275 0.068613 -0.017650 102 149 235
-0.088269 0.217840 -0.059720 100 137 202
0.111497 0.064092 0.021429 254 253 254
0.032200 -0.142873 0.035754 253 253 254
-0.027991 0.211441 0.054303 255 254 255
0.176822 0.001379 0.064593 254 255 255
0.196598 -0.010390 0.065918 255 255 253
-0.099160 0.024519 -0.034747 102 150 236
-0.107836 -0.060715 -0.022388 103 148 233
-0.077926 -0.256222 0.046591 255 254 253
0.182625 0.020271 0.009359 255 255 254
-0.086003 0.269826 0.002068 254 255 253
-0.053156 -0.240935 -0.009275 253 254 253
0.058940 -0.111619 0.032577 253 254 255
-0.092759 -0.114210 0.035080 102 144 218
-0.091133 -0.033147 -0.010109 101 142 215
-0.098758 -0.228159 0.015496 102 149 234
-0.095728 -0.099417 -0.096798 133 131 132
0.019533 -0.158692 -0.009241 255 255 254
-0.086678 0.100431 -0.077552 100 143 220
0.215514 -0.024707 0.030823 254 254 254
-0.088454 0.071217 -0.072925 102 148 235
-0.077675 0.269267 -0.008970 253 253 254
-0.082312 0.126698 -0.092762 100 143 218
0.147161 -0.012888 0.021807 254 254 253
0.126670 0.046988 0.032167 255 255 255
-0.101688 -0.130529 -0.028110 100 146 225
-0.092416 0.075629 -0.038199 101 149 234
-0.105039 0.247945 0.028361 103 146 223
-0.085449 0.224879 0.030985 137 147 155
-0.084942 0.195607 0.013064 100 147 235
-0.087549 -0.185969 -0.064467 100 136 203
0.203894 0.034563 -0.006143 253 253 255
-0.037514 0.221362 -0.001924 254 255 255
-0.088720 0.196125 -0.072222 101 147 233
-0.085884 0.113849 -0.089722 100 147 235
-0.041336 0.239210 0.045820 255 254 254
-0.092185 -0.034803 -0.014329 102 149 236
-0.098759 -0.220635 0.049327 100 148 231
-0.087407 -0.277089 0.051377 254 255 255
-0.008609 -0.199171 0.000695 254 255 253
-0.048928 0.249286 -0.001267 253 254 254
0.062978 -0.103052 0.054046 254 254 254
-0.099936 -0.187859 0.026765 102 148 234
-0.087332 -0.256133 -0.002294 102 145 224
-0.100010 -0.144792 0.001966 101 147 230
-0.095261 -0.189931 -0.089390 102 133 191
-0.098176 0.136712 -0.025711 102 142 216
-0.033415 -0.222579 -0.019989 253 254 254
-0.090088 0.108844 -0.096434 102 147 234
-0.106519 0.073671 -0.045879 102 148 234
0.073649 -0.095818 0.013917 252 253 254
0.058686 -0.124595 0.066696 254 255 254
0.005648 -0.171260 0.033795 254 254 255
-0.098249 0.205915 -0.006470 101 149 236
0.002587 -0.173639 0.007963 254 254 254
-0.086988 -0.166533 -0.080720 101 149 235
0.019878 0.167257 0.003846 253 255 255
-0.101174 -0.142451 0.016148 102 150 235
-0.088074 -0.198679 -0.054027 102 147 231
-0.087729 -0.168034 -0.085649 130 135 140
-0.100063 -0.200295 -0.004443 101 144 224
-0.095368 -0.143890 0.015199 105 135 185
-0.101945 -0.046226 -0.077853 101 144 225
-0.028903 0.225366 0.047311 255 255 254
-0.049926 -0.243892 0.063821 253 254 255
-0.052792 0.256199 0.045716 254 254 254
-0.086046 0.126138 -0.092781 99 138 205
0.070333 0.114146 0.011451 252 253 253
0.081737 0.099903 0.020360 254 253 253
-0.085383 0.190058 -0.090735 99 138 209
-0.085695 0.132408 -0.014364 102 148 235
-0.079310 -0.268012 -0.020727 253 254 253
-0.105579 0.144150 -0.035652 101 149 234
0.137593 -0.025178 0.009851 252 253 253
-0.088683 -0.064986 -0.034793 100 148 232
0.220016 0.061671 0.014898 252 254 255
-0.031655 0.228332 0.016435 253 255 253
-0.105278 0.174258 -0.021489 103 148 235
-0.086590 -0.119284 -0.069573 100 145 226
-0.088224 0.170960 -0.034181 101 147 234
-0.099364 0.022459 -0.000259 125 131 135
-0.052934 -0.248051 -0.013010 254 255 253
-0.101379 -0.102127 -0.078998 102 150 235
-0.091842 0.280710 -0.000933 123 130 138
0.020279 -0.171078 0.043833 253 255 254
0.074642 0.119998 0.015069 254 255 254
0.197159 -0.007630 0.023124 255 254 255
-0.088097 -0.200878 -0.026605 101 148 234
-0.088749 -0.126640 -0.054136 130 129 131
0.083365 -0.100339 0.000102 252 253 254
-0.083788 0.138418 0.032987 135 137 137
-0.101476 -0.214500 0.050191 102 149 235
0.036698 0.145736 0.036050 255 255 255
-0.087173 -0.247583 -0.029550 101 136 203
-0.069480 0.269053 -0.001802 253 254 254
0.073588 -0.098145 0.037623 255 255 253
0.008828 0.170470 0.050520 255 255 253
0.107167 -0.063853 0.001737 254 255 254
-0.085439 0.164531 -0.087097 102 149 236
-0.099741 -0.153046 -0.036132 102 149 235
-0.034772 0.229110 0.021954 255 255 255
-0.101217 -0.051817 -0.028931 123 131 134
0.081956 -0.081688 0.009400 255 255 255
-0.099852 0.117086 0.008602 101 148 235
0.014042 0.184009 -0.006760 253 255 255
0.201772 -0.024395 0.052191 254 255 254
-0.031865 0.213932 0.017799 254 254 255
0.184490 0.021548 0.031542 255 255 254
-0.080400 0.266542 -0.006924 254 254 253
-0.098686 0.235468 0.021388 102 149 236
0.180098 0.019585 0.065001 252 252 253
-0.087605 -0.053842 -0.016268 131 140 147
0.063087 -0.117126 0.064370 254 255 255
0.035902 0.159614 -0.009339 253 253 254
-0.051683 0.235358 0.019322 253 254 255
-0.095053 0.091487 -0.020189 101 148 234
-0.085421 -0.084060 0.028056 99 135 200
-0.025849 0.225150 -0.021466 254 255 254
-0.022258 0.219151 -0.008674 255 255 254
-0.074283 -0.254130 0.041028 252 253 253
0.049585 -0.124530 0.052926 254 254 253
0.045311 -0.141738 0.029802 253 254 254
0.082102 -0.100042 0.022072 253 254 254
0.041442 -0.132569 0.058985 255 255 255
0.157088 -0.003555 0.020242 253 255 254
-0.101890 -0.239731 -0.010387 101 143 217
-0.102911 -0.042788 0.018113 103 149 235
0.146639 0.025338 0.041462 255 254 255
-0.098184 0.110544 -0.062713 101 149 234
-0.084081 0.050028 -0.048470 103 149 234
-0.101719 0.254376 -0.040702 103 143 221
-0.087483 -0.097562 -0.089157 100 144 225
-0.085725 -0.100795 0.002274 133 138 141
-0.087605 -0.257846 -0.011334 101 143 223
0.069818 -0.114722 0.013081 253 254 254
-0.015809 -0.206520 0.035756 254 255 253
0.262783 -0.062156 0.052864 254 254 252
-0.088267 -0.095079 0.006277 101 148 234
-0.086374 0.275742 0.051839 253 254 254
-0.083383 -0.142722 0.021985 126 130 132
-0.088280 -0.198454 -0.047785 100 148 230
-0.014585 -0.192860 0.035345 253 255 254
-0.100809 -0.063311 -0.032505 101 143 222
-0.095572 0.045218 -0.043008 102 146 226
0.097753 0.077248 0.039917 254 255 254
-0.105008 -0.064704 -0.038670 130 129 133
-0.087567 0.206159 -0.086884 100 146 226
0.000278 0.197271 0.004151 253 254 253
-0.084839 -0.065915 -0.074323 102 148 234
-0.086814 -0.182093 -0.076586 102 149 235
-0.080557 0.183611 -0.016566 101 147 234
-0.104622 -0.068533 -0.052854 101 143 219
-0.007163 0.204197 0.044917 254 255 254
0.026517 -0.147504 0.036568 255 255 253
-0.065825 -0.244588 0.055497 254 253 254
-0.090147 -0.087164 -0.066431 100 140 209
0.149286 -0.026491 0.067511 253 253 253
0.157113 0.021488 0.013557 254 254 255
-0.099953 0.251021 -0.069167 102 148 235
-0.084708 -0.211883 -0.069438 102 148 232
0.128499 -0.048860 0.021764 253 254 253
0.196056 -0.016807 0.054905 254 255 253
0.036693 -0.138488 -0.004558 253 254 255
0.114150 0.061337 0.018222 255 255 254
-0.099131 -0.189838 -0.071898 101 148 234
-0.071209 -0.265153 0.060300 255 253 253
-0.088470 0.275477 0.056212 254 255 255
-0.107051 -0.177455 -0.086443 104 148 228
0.066306 -0.102720 0.024576 253 255 253
-0.087379 0.170116 -0.025153 99 142 221
-0.088169 0.246452 -0.025317 101 148 233
-0.023759 -0.215364 0.058332 255 254 255
-0.077507 -0.270194 -0.022486 253 253 253
0.189156 -0.010276 0.013685 255 254 255
0.157343 -0.019792 0.062909 254 255 254
0.074725 0.120340 0.004286 255 255 255
-0.029458 -0.205416 -0.001199 253 255 253
-0.095709 -0.073417 -0.065219 101 148 234
-0.084559 0.260892 0.017312 104 136 192
-0.089911 -0.026524 0.002732 101 145 223
-0.100201 0.095446 -0.096107 102 147 233
0.103810 -0.076202 0.002286 254 254 253
-0.083433 0.194649 -0.037462 99 139 209
0.019399 -0.168606 0.017183 255 254 254
-0.086553 0.103931 -0.052270 101 147 235
0.115711 0.056053 0.056167 253 255 254
-0.101664 -0.174912 -0.042173 100 147 233
0.134981 -0.027705 0.021309 252 253 254
-0.088068 -0.152961 -0.027642 102 149 234
0.043210 -0.144768 0.047004 255 255 254
-0.093322 -0.279886 0.018326 254 255 253
-0.012166 -0.205313 0.061312 255 255 254
-0.106379 -0.103266 -0.030351 100 143 221
-0.086415 0.107425 0.022429 103 149 235
-0.091781 -0.081536 -0.096601 101 148 230
-0.096434 0.044358 0.008078 102 149 236
0.107217 -0.072020 0.001126 253 254 253
0.187490 0.027053 0.032160 254 255 255
-0.000115 0.195409 0.060679 255 254 254
-0.098668 0.213992 0.020050 100 137 204
-0.097586 -0.140399 0.041743 103 145 220
-0.084810 0.101161 0.001454 101 149 235
-0.083933 0.237876 0.027668 102 146 226
-0.087954 0.190789 0.050008 101 148 236
0.088895 0.090325 0.023876 253 255 254
0.191484 -0.012263 0.012439 253 255 255
0.158229 0.024884 0.028327 255 254 255
-0.086887 0.089932 -0.026299 101 149 236
-0.053681 -0.247476 0.043525 253 254 254
-0.084997 -0.221108 0.050306 136 137 137
-0.024805 0.224100 0.062725 255 254 255
0.161793 0.009256 0.013821 254 255 255
-0.046206 0.244209 0.056007 255 255 254
-0.099372 -0.154965 0.007063 101 148 231
-0.085402 0.237338 0.004092 101 149 235
-0.100391 0.139419 -0.080310 126 131 135
0.018613 -0.157795 0.044982 255 255 255
-0.087486 0.075364 -0.048691 124 128 131
-0.060631 -0.255612 -0.017967 255 255 253
-0.056544 0.255412 -0.009218 254 253 253
-0.097094 0.192916 -0.006209 100 147 229
0.092391 0.084606 0.027115 253 254 253
0.063159 0.128815 0.013338 254 255 254
-0.086814 0.121151 -0.074782 101 144 223
0.232578 0.059241 0.054291 255 255 254
-0.083190 -0.196108 0.040788 100 139 209
-0.033514 0.230247 0.020841 255 253 254
-0.098946 0.066162 0.018557 100 145 226
0.120328 -0.043984 0.034009 254 255 254
0.129680 0.044956 0.027593 253 254 253
-0.087442 -0.214990 -0.044451 102 148 235
-0.099989 0.047067 -0.006189 100 140 214
0.183579 0.001454 0.001305 255 254 253
0.073317 -0.106406 -0.004354 255 254 253
-0.085623 0.060417 -0.085499 103 149 235
0.091953 0.097106 0.060234 255 254 253
-0.081713 0.076778 0.002905 129 130 133
-0.012768 -0.201381 0.056196 253 254 253
-0.100683 0.098357 -0.042842 127 130 135
-0.098741 0.222110 0.006500 99 138 209
-0.083508 0.228253 0.023879 100 139 211
-0.099870 -0.184453 -0.030343 102 148 235
0.165056 0.012291 0.060167 254 254 253
0.152466 -0.014203 0.008072 255 255 254
0.051597 0.130601 -0.002103 253 255 254
0.062624 -0.111194 0.065212 254 255 254
0.065348 -0.099025 0.022516 255 255 255
-0.019768 0.215196 0.016978 200 205 206
-0.087498 -0.251887 -0.058032 102 149 235
0.102164 0.067235 0.066255 254 255 254
-0.102872 -0.101036 0.001299 102 149 233
-0.097514 0.119257 0.000128 101 147 232
-0.083857 0.047485 0.017749 131 133 136
-0.039164 -0.218250 0.051429 254 255 254
-0.101002 0.061933 -0.020016 101 148 234
0.100792 -0.065690 0.008824 254 254 253
0.018261 -0.156825 0.010881 252 254 255
-0.086144 0.231460 -0.052114 101 148 235
0.041266 0.156136 0.007105 254 254 253
0.086071 0.094022 0.027507 253 255 253
0.238659 0.076548 0.028108 255 255 253
-0.062750 0.261697 0.019005 253 255 254
-0.086616 0.278769 0.022660 253 254 255
-0.099217 0.185190 -0.060624 100 149 235
-0.044402 -0.223700 -0.007256 255 254 254
0.086298 0.091970 0.051728 255 254 254
0.198130 0.033246 0.033819 253 255 255
0.017684 0.164162 0.032017 255 255 254
-0.101940 0.233838 0.020336 101 139 208
-0.086394 0.261602 -0.043148 100 145 227
-0.098459 -0.248040 -0.017788 102 147 231
-0.092656 0.184018 -0.066595 100 138 209
-0.102428 -0.224210 0.050881 103 149 233
0.077069 0.114708 0.044996 254 254 253
0.036068 0.146584 0.038699 255 255 254
-0.004653 -0.185432 0.061604 255 255 253
0.204051 0.041225 0.000237 253 254 255
-0.099822 0.058503 -0.045790 102 147 234
-0.100150 0.177354 -0.038854 99 137 205
-0.085681 0.092912 0.009733 128 135 137
-0.096711 0.192241 0.028217 102 149 235
-0.092182 -0.272152 -0.044347 102 148 233
0.028805 -0.146187 0.031018 253 255 255
-0.083712 0.123200 -0.053627 101 147 234
0.093317 0.081959 0.058042 254 255 254
0.263221 -0.066449 0.055668 254 255 255
-0.095250 0.275734 0.007855 125 132 139
-0.062368 -0.263474 -0.011291 254 254 254
0.146399 -0.014267 0.011890 255 255 255
-0.102319 -0.199425 -0.079586 128 130 133
0.175638 -0.001743 0.031740 254 254 255
-0.091186 -0.159140 -0.091815 103 150 236
-0.014482 0.212237 0.023774 253 255 253
-0.084976 -0.207922 -0.071430 101 139 212
0.131939 0.038019 0.046353 253 255 253
0.174969 -0.000710 0.033922 254 255 255
0.028835 0.168618 0.017830 254 255 254
0.032270 0.146445 0.056492 253 255 255
-0.086911 -0.128022 -0.063329 128 133 136
0.107711 0.079809 0.024214 254 254 253
-0.088219 -0.070315 -0.000492 102 148 235
-0.101422 -0.174180 -0.035782 102 146 230
-0.008261 0.191253 0.048491 254 254 254
-0.104916 -0.193805 -0.026646 102 149 235
-0.101826 0.265538 -0.053578 101 139 209
-0.104214 -0.064551 -0.005111 102 148 235
-0.036491 -0.215656 -0.005261 255 255 254
-0.084615 0.067723 -0.059287 133 137 140
0.106721 0.075474 0.067485 253 253 254
-0.103339 0.245847 -0.032933 132 133 135
-0.101434 -0.217659 -0.037213 101 148 234
0.220619 -0.033091 0.000190 255 255 255
-0.105305 0.107416 -0.011985 102 140 210
-0.086372 -0.251671 0.010731 102 148 235
-0.105761 -0.222931 -0.022843 100 137 203
-0.103424 -0.064404 -0.053410 101 142 218
0.106524 -0.059176 0.013862 253 253 253
-0.095849 0.104128 -0.096983 102 150 236
-0.087914 -0.270907 0.049340 255 254 253
-0.100843 0.268522 -0.000991 103 145 221
-0.102351 -0.051810 -0.065042 132 142 151
-0.095917 0.223458 -0.061386 101 148 234
-0.086338 0.205167 -0.028210 133 132 133
0.203507 0.039517 0.028184 255 254 254
-0.096042 0.171756 0.048160 101 149 234
0.196790 0.031029 0.040611 254 255 255
-0.052589 0.251098 -0.002527 253 253 254
0.019585 -0.156023 0.047748 255 255 253
-0.001076 0.184418 0.043083 255 255 254
0.044801 -0.128567 0.043454 254 254 254
0.205265 0.041572 0.030264 253 253 253
0.019485 -0.162214 0.054205 253 255 255
-0.096388 0.205318 0.033415 102 147 232
0.041629 -0.145061 0.013270 253 254 253
-0.047332 -0.227255 0.002529 254 255 254
-0.025406 -0.202714 -0.005150 255 254 254
-0.107032 0.135923 -0.074568 103 150 234
-0.100572 -0.171951 -0.077807 126 128 131
-0.100990 0.148038 -0.025981 101 148 234
0.130770 -0.043913 0.018094 255 255 253
0.038225 -0.149023 0.015099 253 253 254
-0.104656 0.174894 -0.086868 102 148 233
-0.105542 0.135739 -0.018746 101 148 234
0.006007 -0.186864 0.017921 254 253 253
0.180102 0.003168 0.036472 253 254 255
-0.084532 -0.168037 0.041287 103 150 234
0.255658 -0.056719 0.016014 254 255 253
0.231835 -0.044462 0.003020 254 255 253
-0.064006 -0.244519 -0.021422 254 254 254
-0.099589 -0.190432 -0.055815 101 147 234
0.145819 -0.024644 0.015378 254 255 255
0.230572 0.070043 0.015156 255 255 253
-0.093696 -0.217604 -0.082208 110 134 167
0.219939 -0.027916 0.050107 254 255 253
-0.085817 0.021484 -0.024976 133 139 140
-0.088582 0.251873 -0.056800 106 127 160
0.045224 0.133325 0.061328 255 255 255
0.051224 -0.120964 0.012471 254 254 253
-0.103434 -0.224697 0.035270 127 139 151
0.231153 -0.045492 0.008182 254 254 255
-0.084943 0.263411 0.012653 122 127 132
0.060559 -0.115944 -0.001141 252 254 254
-0.085160 -0.073759 -0.037170 134 128 130
-0.101660 -0.059542 -0.024585 101 149 234
0.006675 0.190392 0.012559 254 255 255
-0.087531 -0.255626 -0.021424 134 139 141
0.005762 0.177566 0.043228 253 254 254
0.051340 -0.138372 -0.006565 254 253 253
-0.100088 -0.032438 -0.023691 101 143 218
-0.005278 0.201249 0.015937 253 255 253
-0.087731 -0.181730 -0.047557 129 132 140
0.139199 0.035844 0.003931 255 255 255
0.062325 0.130714 0.036959 253 253 254
-0.103347 0.236523 -0.027810 129 134 137
-0.102508 -0.130403 -0.084295 101 149 234
-0.086009 0.072584 -0.076141 126 131 134
0.045688 0.151566 0.012533 254 255 254
-0.080932 -0.133750 -0.037186 102 147 233
-0.089921 -0.096159 -0.068629 102 149 233
-0.087735 -0.271996 -0.031094 102 146 227
-0.087079 0.155567 -0.023372 102 148 233
0.037063 0.159048 -0.001972 253 255 253
-0.045791 -0.224785 -0.009647 254 255 254
-0.023754 0.221484 -0.015105 254 254 253
-0.065889 0.265848 0.052822 254 255 255
-0.044540 -0.237425 0.021648 255 255 254
0.230759 -0.035871 0.016557 254 255 254
-0.098630 0.232223 0.052980 103 137 197
-0.085916 0.174483 0.047765 100 134 193
0.140452 -0.033347 0.041810 252 253 255
0.070675 0.112620 0.014640 254 254 255
0.222294 -0.039891 0.062488 254 255 255
0.014129 0.167892 0.048166 254 254 254
-0.099935 0.100455 0.028479 102 149 236
-0.087086 0.180283 -0.054294 101 148 236
-0.101082 0.253018 -0.025486 100 138 209
-0.097028 0.199331 -0.009604 102 141 218
-0.085783 -0.267190 -0.043372 131 132 134
-0.087050 0.272854 0.061244 253 254 253
-0.090553 -0.041283 -0.064062 101 148 235
-0.086961 0.138156 -0.047435 102 149 235
-0.097407 0.139809 0.015789 103 148 229
-0.101891 -0.096927 -0.093578 100 137 203
-0.029506 -0.207850 -0.017186 254 255 254
0.070591 -0.098714 0.044835 255 255 255
-0.106938 0.055142 -0.023356 101 144 219
-0.089045 0.086087 -0.096569 99 140 213
-0.089639 -0.225766 0.037460 102 148 230
-0.088171 0.248148 -0.068532 102 149 234
-0.098703 -0.098097 0.016632 100 138 211
0.030955 0.152657 0.013044 253 253 254
0.045503 -0.125562 0.057934 255 255 253
-0.087474 0.168014 -0.093697 128 132 136
0.008050 0.189396 -0.014635 254 254 254
0.188034 -0.000097 0.050923 253 254 255
-0.004425 -0.195654 0.027914 254 254 253
-0.066673 0.265430 -0.000182 253 253 254
-0.103500 0.097078 -0.053904 100 144 224
-0.100612 -0.109016 -0.031675 102 135 199
0.186566 0.022460 0.056202 253 255 254
0.119243 0.066780 0.035489 254 253 254
-0.088005 0.115058 -0.074179 100 136 204
-0.084827 -0.105490 0.028462 102 144 220
0.027284 0.163244 -0.011022 254 254 253
-0.019152 -0.194988 -0.008011 254 255 253
-0.087381 -0.250471 -0.003127 132 138 138
-0.096819 0.165162 -0.075141 99 135 201
0.043261 -0.130059 0.048790 254 254 255
0.091136 -0.076038 0.005251 254 255 254
0.222890 -0.040237 0.049150 253 255 255
-0.088403 -0.102852 -0.036144 101 148 232
0.036028 -0.153487 0.055300 254 255 255
0.054368 -0.130591 0.023094 253 255 254
-0.101888 -0.248237 -0.066355 134 126 130
0.152817 -0.007492 0.014635 252 253 253
-0.100267 -0.136440 0.000444 100 144 220
0.007179 -0.169986 0.054167 255 255 253
0.157383 0.025229 0.054316 255 254 254
0.205909 -0.015913 0.036495 253 255 254
-0.105630 -0.081826 -0.074296 102 148 233
0.043978 -0.142461 0.010826 253 254 255
0.014250 0.182648 0.015660 254 255 254
0.010007 -0.164630 -0.001823 255 254 255
-0.102517 -0.120256 0.014183 126 130 133
-0.085303 0.036383 0.018889 103 149 233
-0.077668 0.203278 -0.083762 102 142 218
0.102143 -0.080529 0.052260 254 255 254
-0.086701 -0.041915 -0.032357 101 141 218
0.049630 0.132519 -0.006105 253 253 254
-0.085354 -0.137533 -0.005549 102 146 229
-0.097655 0.169822 -0.012019 103 150 236
-0.086578 -0.075801 -0.092050 100 142 219
0.078782 0.098896 0.053687 254 255 254
0.213687 0.041449 0.029754 253 255 255
-0.089019 0.178784 0.048496 103 133 189
-0.062259 0.248077 0.004798 255 255 253
-0.107587 -0.103059 -0.047379 129 130 133
-0.103684 0.119675 0.025780 103 142 213
-0.098068 -0.125874 -0.070341 102 144 222
0.000050 -0.194098 -0.013217 251 253 252
-0.101944 0.195080 0.036466 103 147 232
0.172329 0.000412 0.009689 254 254 254
-0.087943 0.222209 -0.025734 102 147 234
-0.082719 -0.108096 0.031418 101 146 229
0.161261 0.017308 0.065839 253 254 255
-0.040236 0.225870 -0.007365 254 254 254
-0.087152 -0.046032 -0.014663 100 148 232
-0.013821 0.209040 -0.017075 253 253 253
-0.098935 0.084850 0.008235 101 143 221
0.045881 -0.126111 0.036048 253 254 253
-0.084519 -0.192780 -0.056181 101 147 231
0.034753 0.147925 0.018835 254 255 254
-0.084992 0.266324 -0.001078 119 128 134
-0.047468 0.237014 -0.007088 254 255 253
0.255713 -0.073626 0.049966 253 254 253
0.162516 0.020227 0.063413 254 255 255
-0.080931 0.281347 0.050230 254 254 254
-0.009065 -0.186117 -0.011629 253 253 254
-0.034867 -0.211067 0.028495 255 255 254
-0.051299 -0.229956 0.057502 255 255 254
-0.090175 0.266969 0.023734 101 149 234
-0.099934 0.261107 -0.001946 102 148 235
0.076718 -0.093445 0.030397 255 255 255
0.147406 0.023514 0.033562 252 253 254
0.048195 -0.140237 -0.008598 254 254 254
-0.100002 0.068737 -0.070036 101 149 235
-0.103556 -0.127143 -0.077092 123 135 140
-0.098558 -0.277458 -0.010714 109 131 170
0.051940 0.141684 0.059940 255 254 254
-0.097486 0.247575 -0.018576 100 138 207
-0.087828 -0.126412 -0.062153 102 149 236
-0.101020 0.102832 -0.019966 101 147 228
0.086312 -0.077715 0.035140 253 253 253
-0.088051 -0.232332 -0.041439 100 147 228
-0.079433 0.113583 0.017709 99 131 191
0.035837 -0.138717 0.066368 253 254 253
0.075939 -0.107810 0.050967 255 253 254
0.000120 -0.176363 0.012276 255 255 255
0.017675 0.165462 0.024093 253 254 253
0.199294 0.034344 0.013166 253 254 255
-0.099814 -0.152199 0.044722 99 137 204
-0.032690 0.214608 0.017401 254 255 255
0.248762 -0.054337 0.047239 255 255 255
0.251392 -0.068152 0.036653 253 255 254
0.107285 0.078779 0.057434 254 255 254
-0.100963 0.193710 -0.078550 102 150 235
0.200000 -0.006361 0.012497 254 254 254
-0.098569 0.193356 -0.065852 101 147 230
0.041751 -0.140870 -0.006222 255 255 254
0.009306 0.188658 0.010946 253 255 255
-0.085468 -0.189821 -0.007074 101 149 234
-0.080626 0.128545 -0.021949 101 148 235
-0.084728 0.152962 -0.091147 102 147 235
-0.101421 -0.073486 -0.092570 102 145 226
-0.091141 -0.225695 0.052167 103 149 234
-0.099586 -0.110192 -0.097318 101 146 226
-0.015575 0.198982 0.045115 254 254 255
-0.100860 0.144880 0.000460 100 148 234
0.106589 -0.073257 0.037435 254 253 255
-0.103138 -0.171563 0.024072 102 149 234
-0.054135 -0.250485 -0.008850 254 255 255
-0.034354 0.218152 -0.009481 253 254 254
-0.101140 -0.237806 0.047042 132 134 138
-0.089151 -0.137177 -0.046209 100 142 218
-0.101693 0.253430 -0.038075 136 139 142
0.164189 -0.007570 0.039695 253 255 255
0.017593 -0.157095 0.032105 255 255 254
-0.044409 0.243285 -0.018154 253 253 255
-0.040454 -0.229878 -0.021758 255 254 254
-0.096103 -0.117887 0.035138 130 139 147
-0.095019 0.068566 -0.048923 101 147 232
-0.099513 -0.120329 -0.088507 100 144 224
-0.098293 -0.068673 0.016142 101 143 221
-0.036861 0.221830 0.043885 255 254 254
-0.091122 0.183228 -0.095365 101 145 228
-0.083642 0.092324 0.006140 101 147 234
0.055179 0.141577 0.009743 254 255 253
0.015141 0.180523 0.051513 253 255 254
-0.011164 -0.188945 0.027757 255 254 254
0.011610 0.184897 0.048374 254 255 254
-0.011846 0.199788 0.063827 253 254 254
0.245178 -0.051520 0.029182 253 255 254
0.199620 -0.020565 0.054666 255 253 255
-0.103371 -0.036951 -0.032027 104 150 235
-0.014968 0.211918 0.059320 253 255 255
-0.043356 0.241576 -0.006847 253 254 253
-0.014091 0.206361 0.012733 253 254 253
-0.098468 -0.114639 -0.085347 101 146 227
-0.103168 -0.229614 -0.061941 102 146 227
-0.088355 -0.169857 0.021504 102 148 235
-0.085988 -0.119166 0.026816 134 135 139
0.227798 0.066514 0.016244 252 253 253
-0.090643 -0.135226 -0.096117 100 137 207
-0.102571 0.100101 -0.081139 101 149 234
-0.094011 -0.053277 -0.046116 103 148 233
-0.091385 -0.032260 -0.031985 100 147 234
0.178602 -0.005957 0.051602 253 255 254
0.022020 0.160283 0.030092 253 253 255
-0.103759 0.162476 0.021584 102 141 215
0.102081 -0.078129 0.006020 253 254 253
-0.084958 -0.063846 0.009228 102 143 219
-0.080427 0.266394 0.001335 255 254 255
0.022772 -0.164864 0.013492 253 254 253
0.101494 0.087606 0.024729 253 254 255
0.157355 0.026413 0.034318 255 255 255
0.020151 -0.155863 0.057003 254 254 253
0.218227 0.044230 0.047130 254 255 255
-0.071056 0.274523 -0.016820 253 253 254
0.118308 0.055063 0.036291 254 255 254
-0.044034 0.242143 0.045117 254 253 255
-0.019345 0.201240 0.014115 254 255 255
-0.031533 -0.209180 0.000562 254 254 253
-0.083570 0.224803 0.049499 102 148 235
0.072071 -0.097737 0.002515 254 255 253
-0.088562 -0.180504 0.000229 102 149 233
-0.050266 0.248315 -0.012514 254 254 253
-0.104262 -0.131675 -0.035059 100 143 219
-0.066689 -0.248002 0.030781 252 253 253
-0.104348 0.140049 -0.009362 126 132 145
0.162655 -0.003858 0.030963 253 255 255
-0.053326 0.238390 0.056121 253 254 255
-0.095388 -0.059096 -0.033495 101 145 227
-0.095890 -0.247456 0.041058 133 136 138
-0.093805 0.147518 0.041714 102 138 207
-0.103814 -0.118673 -0.040222 102 148 234
0.191725 -0.011184 0.011874 255 255 253
-0.087622 -0.248692 -0.002161 101 138 203
0.096853 -0.083005 0.018329 253 254 254
0.021208 0.162817 0.002280 254 254 254
-0.094238 0.174478 -0.070636 100 135 199
-0.103171 -0.155424 -0.023814 99 139 208
0.030605 0.166658 -0.004780 253 254 253
-0.088111 -0.197407 -0.028682 101 148 235
-0.105628 -0.126662 0.026682 102 148 234
-0.096631 -0.067347 0.017409 101 137 203
-0.023990 0.220146 0.048832 254 254 254
-0.043487 -0.237149 -0.015536 253 254 255
-0.006972 0.190019 0.038543 255 254 254
-0.000758 -0.193375 0.024312 254 255 255
0.024493 0.168750 0.037342 254 254 254
-0.101340 0.039958 -0.020481 103 148 235
-0.096420 -0.032558 -0.027113 101 149 235
0.003728 0.179870 0.033752 254 255 255
-0.089602 -0.040527 0.022030 99 137 207
0.037191 -0.137738 0.037532 254 255 254
0.123045 0.063630 0.021094 252 253 253
-0.087748 -0.140954 -0.048290 100 148 235
-0.102676 -0.075232 -0.003406 126 131 134
-0.093409 -0.039032 0.022587 101 136 202
-0.081369 0.228177 -0.001435 100 146 228
-0.085762 0.083593 -0.081131 102 147 232
-0.088861 -0.072185 -0.052100 100 148 235
0.220335 0.062342 0.030949 253 253 253
-0.082908 0.114419 0.008392 132 133 137
-0.102660 0.159840 -0.009201 103 147 229
0.014751 0.161942 0.060640 254 255 255
0.235856 -0.053625 0.049292 255 255 255
-0.102056 -0.228454 -0.079605 100 142 218
-0.085857 -0.262477 0.025043 100 142 214
-0.086596 0.192850 0.010465 102 148 233
-0.085545 0.197052 0.031354 102 129 176
0.199481 0.037600 0.057417 255 254 253
-0.085811 0.202057 -0.066702 102 149 235
0.210903 -0.030841 0.035321 254 254 254
-0.106148 0.267217 -0.049377 102 135 189
-0.085632 0.100796 0.033930 132 135 142
-0.029866 0.228989 0.029181 255 253 253
0.050093 -0.136759 0.011957 253 255 254
-0.084407 0.201236 -0.032075 102 142 216
0.171953 -0.002451 0.047517 253 253 253
-0.083198 0.285469 0.037720 255 255 253
-0.086844 -0.141813 -0.032538 101 148 234
-0.085298 0.166425 0.014427 102 144 227
-0.096317 0.182909 0.027286 101 148 235
-0.099838 -0.224619 0.017845 102 143 217
-0.105345 -0.214375 -0.038206 103 150 236
-0.084809 -0.153486 -0.002292 101 147 233
-0.085043 0.079329 -0.008997 102 149 235
0.013496 0.185267 -0.009968 253 254 254
0.178893 -0.004765 0.047180 254 255 254
-0.081216 0.211112 0.037501 101 146 230
-0.087159 0.139149 -0.061626 100 138 205
0.226268 -0.036452 0.046998 255 254 255
-0.044597 0.227337 -0.016037 253 254 253
-0.090850 0.083929 0.030134 102 150 235
0.122779 -0.039723 0.036221 255 255 255
-0.047722 0.233162 0.045480 255 255 255
0.092944 0.084957 0.000797 253 254 255
-0.039116 0.224097 -0.006296 253 254 253
-0.100691 0.269063 0.019149 117 130 141
0.152835 0.029711 0.014521 255 253 253
0.180733 0.004733 0.066310 255 253 253
0.004129 -0.172760 0.030397 254 255 255
-0.087733 -0.207186 -0.036576 102 148 231
-0.098598 -0.157623 0.030778 102 148 231
-0.097810 0.204164 -0.052246 103 147 232
-0.047295 -0.241645 0.007891 254 255 255
-0.045113 0.230685 0.046946 255 254 254
0.057182 -0.130594 0.064378 254 254 253
0.237171 -0.055157 0.036482 255 254 254
-0.096005 0.047712 -0.028865 103 149 236
0.005500 0.178755 0.025635 253 255 255
0.023114 -0.166753 0.027230 253 253 253
-0.060580 -0.240848 0.053837 254 254 254
-0.103002 0.057975 -0.083388 103 148 235
-0.013959 -0.191712 0.010791 253 254 254
-0.062191 -0.239239 0.026633 254 255 255
-0.092144 -0.109501 0.033663 128 132 135
-0.104440 0.134191 -0.068147 102 145 224
0.002748 -0.179053 -0.015132 255 253 254
0.003271 -0.187611 0.024181 253 255 253
-0.085406 0.160577 0.025553 102 149 235
0.024095 0.170713 -0.014743 253 254 254
-0.100995 -0.214055 -0.033207 102 149 234
0.011666 -0.178545 0.057800 253 254 253
0.213955 -0.034216 0.014531 253 254 255
-0.100336 0.182404 -0.049296 101 148 236
-0.065386 0.261178 0.059983 254 255 254
-0.088479 -0.190607 -0.003624 101 149 235
-0.023218 0.205971 -0.005887 252 254 254
-0.100817 0.221217 -0.073615 102 148 235
-0.097853 0.129849 -0.059800 101 148 235
0.112096 0.073554 0.038065 253 253 252
-0.088064 -0.202221 0.053960 133 137 139
-0.098112 -0.268515 -0.055708 127 131 135
-0.032363 0.215772 0.022034 253 255 255
-0.086247 -0.035824 -0.047777 102 149 236
-0.086909 -0.162441 -0.071191 101 143 219
0.172205 0.012506 0.065588 254 254 253
-0.104098 -0.123711 0.031688 103 148 231
-0.082357 0.215462 0.049858 101 145 224
0.076105 0.114802 0.053490 253 254 254
0.212324 0.050767 0.061485 254 254 254
0.199680 0.035678 0.011048 253 254 254
-0.084788 0.279616 0.006623 253 254 253
-0.100463 -0.177261 0.011147 101 149 234
-0.100435 -0.163748 -0.010968 101 144 219
-0.083072 0.232541 -0.034779 99 136 203
-0.087441 -0.210825 0.010150 105 135 194
-0.077220 -0.255848 0.050021 253 254 253
0.024804 0.172330 0.000572 254 254 255
-0.028600 0.209252 0.059196 253 255 253
0.047405 -0.126045 0.017292 254 255 253
-0.084159 0.143548 0.008791 101 149 235
-0.096724 -0.097537 -0.097274 101 145 225
-0.083509 0.115680 0.022574 102 150 236
0.068606 0.124150 0.023345 253 254 254
-0.085031 -0.248821 -0.061861 101 144 224
0.170912 0.001773 0.022683 253 254 253
-0.086325 0.166199 0.017099 102 147 233
-0.099996 -0.112278 -0.018987 99 141 215
-0.087988 0.175640 -0.027501 102 148 233
-0.097023 -0.093873 0.031190 101 147 231
0.215037 0.052444 0.045234 253 253 253
-0.088776 0.067531 -0.091069 102 148 235
-0.083424 0.025684 0.010757 133 140 145
-0.101950 0.148490 -0.053371 103 150 236
-0.103880 -0.248078 0.000476 101 148 231
-0.089452 0.163361 -0.093194 101 148 234
-0.099138 -0.035002 -0.009608 102 147 228
0.088725 0.101389 0.047194 255 255 254
0.156356 0.018632 0.024815 253 255 254
-0.103203 -0.126085 -0.023403 103 149 235
-0.096710 0.033979 -0.054727 102 148 235
-0.098115 0.153034 -0.088455 103 133 184
-0.084355 0.207365 0.032880 101 148 234
0.027577 -0.151799 -0.012435 253 253 253
-0.103291 0.195852 -0.091507 101 147 227
0.258495 -0.063376 0.049488 254 254 253
0.089958 0.100765 0.015648 254 255 254
0.104249 0.085664 0.022877 254 254 253
0.038555 0.143908 0.040286 254 255 253
0.168805 -0.000397 0.035840 254 255 253
0.091814 -0.088696 0.002740 254 254 254
-0.082410 0.159580 0.025754 101 144 218
-0.083179 0.267796 0.022069 136 141 144
-0.089152 0.236725 -0.052326 129 130 133
-0.025772 -0.216983 0.018261 255 255 255
-0.101756 0.186149 0.042975 130 131 134
0.058274 0.123973 0.016710 254 255 254
-0.103440 0.080574 -0.016962 127 132 133
-0.106262 -0.100941 -0.011861 101 149 233
-0.007778 -0.200100 0.005143 253 254 254
-0.085441 0.140730 0.031327 101 149 235
0.045200 -0.128086 0.017660 253 254 253
-0.089901 0.251984 -0.066912 103 142 214
0.051444 -0.139985 0.038621 255 255 255
-0.085077 -0.170346 -0.049603 128 132 134
-0.098903 0.198529 -0.033621 102 146 229
-0.103739 -0.075224 0.028792 102 149 234
-0.009850 -0.197271 -0.016504 253 253 255
-0.011325 -0.187672 -0.005249 253 254 253
0.049757 -0.123384 0.038802 254 255 255
-0.085661 0.175561 0.004643 100 134 199
-0.087574 -0.041494 -0.013323 103 149 234
0.066620 0.124790 0.057434 254 255 254
-0.087301 -0.227883 0.007647 102 148 233
-0.058980 0.259058 0.006517 254 255 254
0.264104 -0.063914 0.040089 253 253 253
-0.085626 -0.173198 -0.084752 101 149 234
0.138307 -0.027744 0.012449 253 255 254
-0.095705 0.064598 -0.074986 100 142 216
0.003971 -0.171772 -0.008134 253 253 254
-0.098298 0.173855 0.028900 103 145 226
-0.100946 0.055456 -0.031384 102 148 235
0.185840 0.000556 0.059281 254 255 253
-0.069904 -0.250732 0.039127 254 253 253
-0.025682 -0.202191 0.029479 254 255 255
0.088613 -0.096346 0.058960 255 255 253
0.236396 -0.042416 0.022537 254 255 255
-0.085754 0.077203 -0.003696 100 148 234
-0.084501 -0.095885 0.018438 129 136 139
0.105170 -0.075251 0.001343 253 253 253
-0.083193 0.084651 0.006644 101 144 222
-0.096782 -0.165808 0.048088 100 139 208
0.103113 0.076239 0.003132 252 253 254
-0.086836 0.090848 -0.022369 101 150 235
0.153217 -0.022347 0.042659 254 255 253
-0.100890 0.257060 -0.037629 129 137 145
-0.096019 -0.171236 0.044921 129 131 134
-0.092949 -0.183985 0.049264 103 145 219
-0.101439 -0.142165 -0.090693 101 143 217
0.090942 0.102183 0.050831 253 254 253
-0.084091 0.192040 0.052396 100 139 209
0.090385 0.098282 0.044321 254 255 255
-0.066728 0.263252 0.057929 254 254 254
-0.054244 -0.234611 -0.009218 253 255 255
0.121742 0.049755 0.050703 254 255 255
-0.104681 -0.110727 -0.012519 102 143 217
-0.102631 -0.172369 0.000737 101 148 229
0.239374 0.067677 0.056382 254 255 254
-0.101570 0.163841 -0.093996 101 144 221
-0.086635 0.049911 -0.034709 102 150 235
-0.010603 -0.188389 0.027170 254 254 253
0.046802 -0.125520 0.008003 255 254 254
-0.083729 -0.139358 0.037053 127 133 135
0.001711 0.194161 0.032227 253 253 253
-0.101023 0.216310 0.035810 102 149 234
-0.005131 0.189701 0.061704 255 255 255
0.222637 0.046958 0.058504 254 254 254
-0.087059 -0.079780 0.015245 102 147 232
-0.067901 0.265764 -0.021215 253 254 254
-0.091609 -0.049933 -0.081084 102 145 224
-0.086305 -0.161745 0.023523 118 143 180
-0.085816 -0.088722 0.033231 100 133 193
0.117457 -0.061995 0.062532 253 254 254
0.106688 -0.077794 0.041668 253 254 254
0.204626 -0.013756 0.055148 253 254 253
-0.021360 0.216877 0.020171 253 254 254
-0.003194 0.204743 0.002517 253 255 253
-0.095806 0.207203 0.023928 100 149 234
-0.084104 0.111986 -0.000644 100 144 227
-0.100879 -0.048478 -0.066707 103 131 183
-0.086964 0.094393 -0.072226 126 130 133
-0.070143 0.269083 0.000731 255 253 254
0.065193 0.114753 0.043123 253 253 254
-0.091030 0.070916 -0.066713 131 134 137
-0.086655 -0.246058 0.049473 100 143 217
-0.062551 0.250997 0.017216 253 253 254
-0.086776 0.123070 -0.073474 102 141 211
-0.070852 0.256398 0.040592 253 255 255
-0.095289 0.144686 0.018262 102 148 236
0.134005 -0.027835 0.033708 253 255 253
-0.086930 0.171589 -0.022137 100 137 202
-0.048765 0.247389 0.000206 255 255 253
0.224242 0.054949 -0.000976 254 255 253
0.197695 -0.001513 0.005577 255 255 253
0.172838 -0.003511 0.057391 255 254 254
-0.095242 0.070799 -0.080482 101 147 233
-0.097955 0.245693 -0.014223 128 132 135
-0.099631 -0.104852 -0.086810 129 131 135
0.072715 -0.098258 0.028958 253 254 255
-0.062364 -0.256433 0.052805 254 254 254
0.053451 -0.131822 0.008642 252 254 254
-0.085682 -0.067781 -0.086539 126 130 132
-0.102268 -0.105215 0.022928 102 150 235
0.181493 0.002917 0.016854 254 254 255
-0.084414 0.171306 0.000132 102 148 234
-0.103173 -0.068897 0.020978 102 145 226
-0.085999 0.095296 0.033773 102 149 236
-0.031501 0.215270 -0.004640 253 254 254
-0.010091 0.207642 -0.003199 253 253 253
0.118903 0.053479 0.061141 253 254 255
0.154447 -0.020449 0.044447 253 255 254
-0.096606 0.241401 0.045488 103 148 233
-0.103288 -0.212264 -0.043951 101 148 234
-0.087794 -0.175807 0.000730 100 143 217
-0.061620 -0.241403 0.045570 253 254 255
-0.046991 0.229917 0.059594 255 255 255
-0.104702 -0.229217 -0.075118 103 146 224
-0.103365 0.199241 -0.021044 132 138 142
0.163136 0.022445 0.019159 253 255 253
-0.085022 0.204243 -0.029787 101 146 229
0.178324 0.008070 0.027512 254 254 254
0.031796 0.167610 0.020150 254 254 254
-0.029692 0.215862 0.010340 254 253 253
-0.086292 -0.210047 -0.032691 133 134 136
0.015230 0.167013 -0.010582 253 254 253
-0.102172 0.094313 -0.095525 103 146 223
-0.097012 0.167550 -0.049141 101 149 235
-0.105162 -0.097714 -0.051704 101 136 202
0.053840 -0.118607 0.062445 253 254 254
-0.083393 -0.123380 -0.030887 102 141 213
0.080005 -0.090157 0.021074 252 253 252
0.039938 -0.133604 0.066633 253 253 254
0.069340 -0.101204 0.008630 253 254 253
0.188431 0.019483 0.013518 254 254 253
-0.093928 -0.056618 -0.057080 102 149 233
-0.091475 0.156289 0.046563 102 147 235
0.073021 0.118397 0.050393 253 254 253
-0.086649 -0.063312 -0.086258 133 137 140
-0.104692 -0.200129 -0.019547 100 133 194
-0.096997 0.058892 0.000848 102 147 233
0.098399 0.084687 0.065681 255 255 253
0.087399 -0.092863 0.023580 254 254 253
-0.101547 -0.109552 -0.006858 102 142 217
-0.083976 -0.125390 -0.051756 101 148 233
0.239731 0.077315 0.027463 255 255 255
-0.093070 -0.061602 -0.089038 101 148 234
-0.040285 0.222869 0.028180 253 254 253
-0.099095 0.178984 -0.030923 103 150 235
0.050869 0.131058 0.030060 253 254 253
0.162499 0.019143 0.059126 254 253 255
0.011303 0.174094 0.001191 253 254 253
-0.027666 0.225901 0.010281 253 254 255
-0.097821 -0.179361 0.046938 102 140 209
-0.098598 -0.246591 -0.071759 101 148 235
-0.098197 0.250428 -0.003446 101 147 235
-0.101797 -0.149686 -0.071114 101 149 234
-0.089425 -0.122956 -0.094250 102 149 235
-0.108153 0.094486 -0.002322 102 147 230
-0.089403 -0.267442 0.012943 126 131 135
-0.032789 -0.209965 0.058125 254 255 253
-0.005699 -0.183169 0.026357 254 254 253
0.037801 0.148835 0.061909 253 254 254
-0.074212 0.277040 0.046848 253 255 253
0.122955 -0.038598 0.064574 254 255 255
-0.095125 0.068686 0.026415 101 147 233
-0.083327 0.110107 0.035279 102 145 228
0.125834 0.048731 0.011305 253 255 254
0.160280 -0.003436 0.048618 255 255 255
-0.098941 0.153616 0.024882 103 150 235
-0.098567 -0.175293 -0.021382 103 150 235
0.048767 0.127317 0.059934 254 254 255
0.018960 -0.156724 0.011601 254 253 254
0.167467 -0.004262 0.058560 253 253 254
-0.015315 -0.192514 0.021186 253 254 255
0.082331 0.110042 0.035624 255 255 255
-0.087313 0.073931 -0.082675 101 148 233
0.065148 0.129119 0.016157 253 254 254
-0.086187 0.208870 -0.075588 100 149 235
-0.084658 -0.280483 0.020186 254 254 254
-0.088165 -0.166534 0.025305 102 148 230
-0.086892 0.254547 -0.019416 133 137 138
-0.063679 0.262681 0.014744 253 255 253
0.019853 -0.154463 0.002838 255 255 255
-0.099175 -0.121615 -0.071926 102 147 233
-0.048009 -0.235477 0.041353 255 254 253
-0.082484 0.090168 0.031934 101 142 217
-0.087234 -0.262234 -0.017160 104 134 189
-0.082793 0.126021 -0.020078 99 143 218
-0.101108 0.139897 -0.005185 128 132 135
0.173104 -0.002222 0.050257 255 254 253
-0.011938 -0.203129 -0.006547 253 255 253
-0.100916 0.103520 -0.098784 124 134 141
-0.089481 -0.230691 0.026667 100 143 224
-0.085465 -0.229510 -0.076092 100 145 227
-0.096147 -0.097272 -0.076935 100 136 198
-0.012955 0.209369 0.037008 255 254 253
-0.086153 -0.250808 0.036086 103 139 201
-0.024936 -0.218901 0.031340 255 255 255
0.089443 0.087278 0.054024 254 255 254
0.039927 0.149000 -0.010241 253 254 254
0.147449 0.036791 0.021046 254 254 253
0.102630 0.070375 0.043349 254 255 254
-0.086521 -0.247752 -0.055796 141 145 144
-0.101852 -0.213556 -0.019654 102 143 213
-0.086731 -0.268296 -0.012594 102 149 234
0.014500 -0.175982 0.056356 255 254 255
-0.093104 0.071967 -0.092725 102 144 223
-0.061025 0.246936 0.022617 255 255 255
0.094057 0.083925 0.014028 252 253 253
0.029772 0.152654 0.020547 255 255 253
0.082139 -0.086091 0.014783 253 255 255
0.062410 -0.109341 0.019874 254 255 253
0.259750 -0.064370 0.004378 255 254 253
-0.015514 0.198804 0.005298 255 254 255
-0.085465 0.244578 -0.017062 99 145 223
-0.099272 0.178945 -0.091945 101 146 230
-0.086735 -0.201036 -0.000097 102 149 235
0.018160 0.166321 0.009805 255 255 254
0.223561 0.052039 0.025833 252 254 255
-0.089210 0.076097 -0.072450 100 148 236
-0.085959 0.136095 -0.089481 101 149 235
-0.085318 -0.200904 0.005198 100 147 235
-0.084679 -0.213824 -0.074483 103 149 235
-0.103658 -0.051351 0.022316 100 145 224
-0.101572 0.178169 -0.091051 102 144 218
-0.040625 -0.219067 -0.010363 252 254 254
-0.088317 0.073992 -0.085675 132 136 141
-0.094748 -0.055345 0.025622 100 146 227
0.082041 0.093771 0.048774 254 254 254
0.244475 -0.049067 0.023214 253 253 252
0.174989 0.011210 0.064883 255 254 255
-0.103455 -0.186043 -0.082794 129 133 140
0.010943 0.176649 -0.017030 253 254 254
-0.083297 0.087040 -0.054500 131 132 134
-0.105020 -0.060478 -0.006993 103 147 234
-0.084312 -0.231997 -0.004965 100 149 234
-0.101227 0.262107 0.001127 102 145 222
-0.084306 0.237928 0.009117 128 132 144
0.047511 0.135936 0.008570 255 255 255
-0.086510 0.083395 -0.075603 101 145 225
-0.085192 -0.157535 -0.077956 100 147 233
-0.097873 0.257063 -0.017293 124 131 135
-0.028681 -0.222196 0.030260 255 255 255
-0.089408 -0.072691 -0.094396 102 143 218
0.024241 -0.163086 0.009457 255 254 253
0.156023 -0.022487 0.066929 253 254 254
-0.085702 0.043519 -0.047151 100 147 229
-0.080151 0.258409 -0.000353 199 203 198
-0.100466 0.073843 0.003729 102 148 233
0.134703 -0.041221 0.012281 253 255 253
-0.101973 -0.251592 0.001662 118 126 133
-0.104383 0.257509 -0.062542 102 149 232
-0.085585 0.270840 -0.001469 254 254 253
-0.097098 0.253776 -0.025787 100 143 223
-0.096498 -0.077176 -0.096333 100 145 224
0.205518 0.041121 0.043862 254 253 253
-0.099776 -0.167229 0.012036 101 149 235
0.161476 -0.001340 0.015150 253 254 254
-0.084327 0.223538 -0.074860 128 133 135
-0.087246 -0.065810 -0.078588 101 148 232
-0.087349 -0.238675 -0.045733 109 132 178
-0.098899 0.130380 0.031113 137 140 140
-0.103569 0.151582 -0.063962 102 149 234
-0.098289 -0.129295 -0.073532 101 147 232
-0.093750 0.247929 0.045832 101 148 235
0.114832 0.059879 -0.000741 255 255 255
-0.092317 0.046585 -0.083140 101 148 234
0.142987 -0.026546 0.009242 253 254 254
0.196158 -0.015746 0.008844 254 254 255
-0.021842 -0.205102 -0.002446 253 254 255
0.061370 0.129544 0.014304 253 254 253
-0.099467 -0.043216 -0.072435 103 149 235
0.020762 -0.170700 0.019800 255 255 254
-0.102113 0.054262 -0.082643 101 148 234
-0.103835 -0.095090 -0.010539 102 150 235
-0.085437 0.059695 -0.083703 100 148 231
0.101619 -0.065179 -0.001889 253 254 253
-0.104861 -0.079609 -0.057013 102 149 235
0.053480 -0.118089 0.001859 254 254 254
0.045142 0.137422 0.027124 255 255 254
0.195052 -0.013676 0.015160 253 254 255
-0.085708 -0.242836 -0.058145 100 146 227
-0.086777 0.066725 0.014928 109 125 151
-0.038115 0.235783 0.036789 254 253 254
-0.006462 -0.198670 0.045019 253 254 255
0.091651 0.084407 0.064058 253 254 255
0.025793 -0.163910 0.009880 254 254 254
-0.026452 -0.218875 0.061333 254 255 253
0.148337 -0.012971 0.019127 253 255 253
-0.101933 -0.268080 -0.053540 100 134 194
0.054999 -0.118381 0.036458 254 255 254
-0.100678 0.076815 -0.077763 101 148 233
0.108581 0.064740 0.047343 254 255 253
-0.094383 0.024498 0.015312 133 134 137
0.066923 -0.104942 0.061505 255 254 254
0.010343 -0.166501 0.039995 254 255 254
0.176658 -0.000493 0.035380 255 255 254
0.239564 -0.058009 0.019099 253 255 254
-0.101973 -0.193452 -0.080851 100 147 229
-0.105023 0.066458 -0.060994 103 150 235
-0.086810 -0.224872 -0.062390 104 135 193
-0.062174 -0.251220 -0.022561 255 255 253
0.186304 -0.010514 0.055601 254 255 255
-0.087161 -0.113219 -0.000661 100 149 236
0.016678 0.181232 0.001694 253 254 254
-0.100650 0.272704 -0.010979 101 149 233
0.026818 0.164981 -0.009898 254 254 252
-0.022276 -0.214192 -0.004938 255 255 254
-0.084910 -0.078331 0.024266 131 131 134
-0.081875 0.160763 0.028197 101 148 234
-0.076181 0.275291 0.019987 255 255 253
0.219537 0.047083 0.056318 253 254 255
-0.087247 -0.200567 -0.061121 102 149 235
-0.086067 -0.133391 -0.081813 101 147 233
0.260859 -0.076976 0.043114 254 255 254
-0.105700 -0.117659 -0.085697 101 147 230
0.003609 -0.172329 0.019107 253 254 255
-0.096793 0.119246 0.019281 99 135 202
0.149558 -0.015549 0.062365 255 255 254
-0.099474 0.233436 -0.027132 114 132 163
-0.100983 -0.120538 -0.081300 100 141 217
-0.035644 -0.213966 0.025043 255 255 255
-0.088152 -0.078087 -0.095874 100 142 216
0.140751 0.040382 0.058822 255 253 254
-0.028790 0.212911 0.010930 253 253 254
-0.088203 0.074009 0.027287 125 129 132
0.086463 0.090599 0.060186 253 254 253
-0.028601 -0.219488 0.023744 254 254 254
0.122098 -0.041992 0.032459 253 254 255
0.080586 0.108868 0.055690 254 255 254
0.151591 -0.025278 0.057764 255 255 254
-0.086931 -0.131728 -0.030247 102 149 236
-0.066792 -0.244143 0.033391 254 255 254
-0.087406 0.208318 0.014109 101 148 233
0.122321 -0.057790 0.046978 254 254 253
0.061834 -0.104098 0.026144 254 255 254
-0.006612 -0.183707 0.013139 255 254 253
-0.105420 0.218020 -0.003573 145 148 155
0.159918 0.013976 0.046222 254 254 254
0.138345 -0.034726 0.028870 255 255 254
0.146148 0.041229 0.004340 253 253 255
-0.083411 -0.112937 -0.032639 101 149 235
-0.100399 0.185354 -0.021922 101 149 234
-0.101271 0.137959 0.016658 102 143 220
