ply
format ascii 1.0
element vertex 1187
property float x
property float y
property float z
property uchar red
property uchar green
property uchar blue
end_header
-0.094109 -0.235010 -0.045047 100 141 217
0.021485 -0.200932 0.008947 191 192 189
-0.099947 -0.090718 -0.080426 101 144 228
0.140368 0.090599 0.004702 252 252 253
0.084313 0.151594 0.004756 251 252 252
-0.089980 -0.226046 0.056400 99 138 213
0.096318 0.135253 0.005614 252 253 253
0.258785 0.065464 0.037075 254 254 252
-0.093236 -0.241786 -0.066353 103 149 231
-0.084711 -0.073432 0.031281 99 140 215
-0.078107 -0.213224 -0.014505 94 123 182
-0.090844 0.011036 0.010147 114 118 123
-0.069176 0.259767 -0.034568 206 207 206
0.102912 -0.118663 0.001217 252 253 252
0.011457 -0.209217 -0.008721 251 253 251
-0.058760 -0.258339 -0.007962 252 254 253
-0.099098 -0.152094 0.044598 101 143 222
0.042773 0.194338 0.033903 249 250 249
0.095502 0.121691 0.019990 253 253 253
-0.072532 -0.274783 -0.015634 253 254 252
-0.078443 -0.148080 0.015459 93 124 186
-0.075114 -0.244716 -0.066195 96 134 203
0.057520 -0.168333 0.051676 252 253 251
0.005298 0.205379 0.027840 251 253 251
-0.073562 0.282729 -0.017972 252 252 252
-0.077243 -0.278866 -0.012517 250 250 251
-0.082854 0.262290 -0.060796 100 131 191
-0.078949 -0.155663 0.023935 97 143 220
-0.097748 -0.181344 -0.012775 100 139 211
-0.078863 0.241909 -0.032821 95 132 201
0.150256 0.060542 0.041432 252 252 251
-0.080376 0.161762 0.032252 97 138 215
0.224642 0.006109 -0.003360 252 254 252
-0.091804 -0.179027 -0.083453 113 116 117
-0.083280 -0.139940 -0.016222 99 145 224
0.275602 -0.045925 0.004125 252 252 252
-0.024108 -0.249920 0.026633 252 253 252
0.137966 0.091586 0.026747 253 253 253
0.033092 -0.175847 0.025477 251 252 252
-0.101852 0.093158 -0.087967 92 121 176
-0.088450 -0.271866 0.000010 99 142 220
-0.051806 -0.245173 0.030214 251 251 252
0.241083 -0.013486 0.015712 251 253 252
-0.082521 -0.087437 -0.007204 102 147 231
0.185995 0.046119 0.006775 253 255 254
0.100628 -0.114397 -0.007520 252 252 252
-0.091226 -0.254332 0.030792 96 133 208
0.030873 -0.197206 0.035763 251 253 252
-0.086911 -0.151215 0.032978 110 110 117
-0.036235 0.243508 0.044781 251 251 250
-0.101161 -0.065143 0.024003 94 120 172
-0.075614 -0.222245 -0.028411 100 146 229
-0.101535 -0.081286 -0.075583 123 128 130
0.161376 -0.041364 0.031355 253 254 252
-0.024854 0.251147 -0.017349 253 252 252
0.008144 -0.194928 0.053032 252 253 252
0.025972 0.205600 0.003208 253 254 252
-0.084727 0.095700 -0.034347 101 142 218
-0.101153 0.168152 0.011942 101 136 201
-0.091407 -0.132024 0.047543 92 119 178
-0.074909 -0.173611 0.042440 110 117 118
0.078888 0.155294 0.050654 253 253 252
0.050858 -0.159102 0.026536 252 254 253
0.009742 0.221244 0.010132 253 253 251
0.089322 0.145551 0.036764 251 254 252
-0.066677 0.275723 0.058513 252 252 251
-0.097575 0.168852 -0.059410 95 129 193
-0.081090 0.060329 -0.040674 99 145 227
-0.033185 0.262881 0.015090 251 252 252
-0.086871 -0.106263 -0.090251 99 134 202
-0.065591 -0.277790 0.027007 253 254 254
-0.088152 -0.241788 0.047458 110 117 122
0.013833 0.197698 -0.021208 251 252 253
0.146104 0.075845 -0.000905 248 249 248
0.157562 0.056612 0.046422 254 254 254
-0.092357 -0.252285 -0.050622 95 135 212
-0.095254 0.249747 -0.060578 96 132 204
-0.045322 0.259978 0.058950 252 252 253
0.053826 0.180627 0.012019 251 254 253
-0.083158 0.125466 -0.039102 98 142 223
-0.057703 0.283797 0.035057 253 254 253
-0.054913 0.281823 -0.014823 251 252 252
-0.077613 0.231457 -0.030519 97 107 112
0.080466 0.152440 -0.004183 251 252 252
0.257358 -0.019963 -0.006052 253 254 253
-0.098445 -0.173939 0.004322 92 123 180
-0.018716 -0.240568 0.019591 253 254 253
0.269514 -0.041470 0.005799 252 253 251
-0.080641 -0.138160 0.005451 101 144 225
0.126415 0.101529 0.037789 253 253 252
-0.094008 -0.046750 0.015966 98 138 210
-0.055446 0.261850 0.044740 252 252 251
0.078995 0.156519 0.032426 253 252 253
0.108573 0.125362 -0.001207 250 251 251
-0.101490 -0.054615 0.020571 102 137 198
-0.095242 -0.231927 -0.015074 96 125 178
0.085999 -0.122885 0.059284 253 254 253
-0.076978 -0.241248 0.004057 90 120 180
0.041311 -0.186708 0.032251 204 206 203
-0.076971 -0.114941 0.023351 99 146 229
-0.012309 0.223234 0.060895 251 253 253
0.119237 -0.104613 0.050957 252 254 253
0.122778 -0.084295 0.028438 252 252 252
-0.072123 -0.270300 0.061759 251 252 252
0.126441 -0.081248 0.019789 252 254 253
0.013505 0.197094 0.057791 251 252 251
-0.096722 0.251960 -0.059039 101 140 213
0.030034 -0.180209 -0.001150 253 253 252
-0.018696 -0.223463 -0.012736 252 253 251
-0.081780 0.101441 -0.084394 127 131 131
0.101824 -0.108131 0.020696 252 253 252
0.100267 -0.118618 -0.001526 251 253 252
-0.080044 -0.271216 0.036869 101 112 127
0.204326 -0.000599 0.058966 253 252 252
0.168998 -0.035159 0.012442 252 253 253
-0.075498 0.267626 0.017579 107 93 98
-0.083284 0.066915 -0.037321 97 132 197
-0.076841 -0.136416 0.011958 96 143 222
0.122831 0.109655 0.052520 254 254 254
-0.078665 -0.100735 0.037435 124 130 138
0.035121 -0.176033 0.027666 251 252 253
-0.099619 -0.063621 -0.035775 112 121 127
-0.089164 0.219295 -0.079548 96 131 197
0.022523 -0.199399 0.048468 199 201 197
-0.099271 -0.077904 0.030567 95 132 200
-0.025822 0.235117 -0.013709 251 252 253
-0.096490 -0.131201 -0.070988 101 147 231
-0.084266 0.105971 -0.036661 99 142 219
-0.103809 0.132671 -0.026935 99 130 189
-0.096746 0.219906 -0.067443 101 144 225
-0.031281 0.260196 0.047735 249 250 250
-0.101153 -0.066449 -0.059909 112 118 119
-0.101823 0.032175 -0.039897 122 129 133
-0.076086 0.238674 -0.071505 106 106 109
0.163101 -0.051037 0.019024 251 252 252
0.201352 0.018053 0.021111 250 252 251
0.007089 -0.216195 0.026287 250 251 251
0.002011 0.230476 0.049976 252 252 251
-0.094208 -0.251673 -0.022466 115 117 119
0.114589 0.102122 0.018292 253 253 252
-0.084378 0.090609 -0.018124 92 122 179
0.177082 -0.018755 0.016639 253 254 252
-0.076710 -0.268544 0.052826 252 252 251
-0.076575 -0.163027 0.050486 112 114 118
-0.083118 0.091246 -0.081253 99 132 189
-0.101105 0.143720 -0.013514 98 136 209
-0.092325 -0.259833 0.016321 100 108 115
0.231467 -0.006546 0.044775 252 252 253
-0.084119 0.191358 0.051257 111 122 146
0.027524 -0.195535 0.030816 252 253 253
-0.001788 -0.226410 0.012852 251 252 254
0.243423 0.061167 0.037927 251 253 253
-0.101184 -0.095981 0.015001 98 115 148
-0.041329 -0.242643 0.058111 251 254 253
0.143939 0.083203 0.056058 253 255 253
-0.029596 -0.235951 0.050760 253 254 252
-0.074652 0.244857 -0.068701 96 133 199
-0.082981 -0.226210 0.059224 103 145 219
-0.098031 0.193783 0.012049 100 141 217
-0.092027 0.111974 -0.091348 90 125 198
-0.071472 -0.278707 -0.017799 252 252 251
-0.093878 0.268696 -0.052380 97 128 187
0.039091 0.182007 0.060006 253 254 252
-0.098134 0.210395 -0.004675 94 128 195
-0.076316 0.253958 0.002653 92 127 195
-0.076184 -0.268681 -0.012951 115 116 119
-0.101431 0.076373 -0.004222 97 136 204
-0.051516 0.257366 0.010892 250 251 251
-0.095524 0.254793 -0.022698 96 129 194
-0.099960 0.076953 -0.005370 101 144 224
-0.097127 0.199505 0.008327 97 139 216
-0.077491 0.237608 -0.071728 117 125 133
-0.080974 -0.148114 -0.054459 99 145 228
0.028432 0.181006 0.050800 252 254 253
-0.098101 -0.216955 0.006259 98 131 193
-0.091017 0.113540 -0.091143 102 147 229
-0.083351 -0.066349 -0.019544 95 128 188
-0.078470 -0.189468 0.010306 124 127 131
0.200070 -0.000964 0.052776 252 252 251
-0.078508 0.225383 -0.067093 98 145 226
-0.091282 0.258688 0.044562 89 112 163
-0.079457 0.181143 -0.053758 102 147 232
-0.098798 -0.095468 -0.085079 119 124 124
0.032450 0.207461 0.048345 252 253 253
-0.076016 -0.265067 0.019560 98 126 176
-0.078141 0.239562 -0.016971 92 118 172
0.234484 0.028792 0.022289 254 255 254
0.244722 -0.005047 0.056230 253 255 253
-0.076789 -0.059474 -0.050000 120 125 126
0.062425 0.154411 0.038025 253 254 254
-0.098253 0.085391 0.036682 95 125 183
-0.095810 -0.173331 -0.044701 100 143 218
-0.088440 0.176373 -0.087271 92 120 178
-0.078415 -0.181129 -0.070908 100 143 221
-0.080049 -0.052266 -0.044841 122 128 132
-0.087304 0.218811 0.051259 97 137 213
-0.102084 0.045458 0.030953 118 119 124
-0.080805 -0.262166 0.044457 100 148 228
-0.078327 -0.172080 -0.002819 114 126 131
-0.093132 -0.244204 -0.041162 119 126 125
-0.075036 0.220917 -0.068920 97 143 225
-0.100118 0.129825 0.032344 94 129 195
0.007394 -0.196737 0.059706 253 253 253
-0.082923 -0.050110 -0.012367 98 132 191
-0.081940 0.166842 -0.018884 100 132 191
-0.098514 0.139154 -0.008865 100 134 196
0.304978 -0.066780 0.021731 252 252 252
0.231054 0.029935 0.018904 253 253 252
-0.090622 -0.059573 -0.066324 123 131 141
-0.062081 -0.272155 -0.023196 252 253 251
-0.075028 0.227494 0.050548 95 132 199
-0.073504 0.237081 0.030726 121 125 125
-0.098460 0.158685 0.003043 101 146 230
-0.073550 0.237937 0.036547 110 113 115
-0.078585 0.137688 0.037775 97 144 223
-0.056580 -0.272012 -0.012911 253 254 253
0.182918 -0.019300 0.035833 254 255 253
-0.078469 0.230435 -0.069033 92 120 178
0.165736 -0.037041 0.035904 252 254 252
0.050330 0.163192 0.043705 251 251 250
0.103120 0.114989 0.001274 251 252 253
-0.026276 -0.251438 0.051855 254 255 254
-0.082484 -0.149146 0.053483 106 112 118
-0.099755 0.113124 0.002684 99 138 208
-0.061304 -0.261571 0.020372 253 254 253
-0.058779 0.283006 0.017602 249 250 249
-0.094985 -0.235134 -0.076376 105 137 190
-0.098863 -0.236480 0.028954 102 111 120
-0.095922 -0.230330 -0.054630 96 137 214
-0.097686 0.173322 0.027245 99 145 226
-0.099926 0.131255 -0.021303 97 127 185
-0.093460 -0.259136 -0.043051 90 118 177
0.115643 0.114269 0.030456 253 254 253
-0.092524 0.270956 -0.040679 114 116 119
0.061967 -0.145628 0.046659 250 252 251
-0.086209 -0.242933 0.055171 95 129 184
-0.097473 0.198196 -0.052355 97 139 212
0.103549 0.129738 0.009362 251 252 254
0.109105 -0.102912 0.055082 252 253 251
0.087970 0.145932 -0.000491 252 253 252
-0.103066 0.050718 -0.013186 99 143 224
-0.092694 -0.120768 -0.087225 119 122 121
-0.046428 -0.246012 0.043018 252 254 253
-0.091196 -0.213630 -0.080058 118 121 130
-0.078555 -0.208999 -0.063207 102 149 232
-0.085452 0.194960 0.050282 120 121 125
0.033374 -0.181033 -0.014136 251 253 252
-0.011321 -0.216502 0.029946 252 253 251
-0.027977 0.239937 0.031536 251 253 251
-0.099703 0.127877 -0.077064 100 145 228
-0.100269 -0.081139 -0.035789 100 138 210
0.256368 -0.029393 0.005964 252 254 252
-0.097779 -0.141656 0.039513 93 130 196
-0.005964 0.237056 0.050538 251 252 251
-0.048009 -0.262646 0.016293 253 254 253
-0.077330 -0.267434 0.026761 97 143 223
0.133060 -0.074748 0.034158 251 253 252
0.114465 0.100777 0.033444 253 253 252
0.176965 -0.037299 0.046250 252 254 253
-0.090989 -0.006144 0.014041 108 115 120
-0.074876 0.216398 0.024383 105 111 120
-0.091680 0.213632 0.018761 100 142 221
0.134524 -0.087267 0.056670 254 255 255
-0.081646 0.127406 -0.053152 99 146 228
-0.098000 0.175726 -0.082299 113 114 115
-0.053959 0.281135 0.047001 252 253 252
0.129319 0.101754 0.005388 253 253 253
-0.062278 0.286436 -0.012009 251 252 251
0.127380 0.084290 0.041259 253 254 252
0.139659 0.088823 0.025868 253 253 253
0.083663 0.149320 -0.000388 253 254 251
-0.063717 -0.263351 -0.009739 251 252 250
0.072747 -0.151689 0.020731 205 207 206
0.028779 -0.197364 0.013835 189 192 187
-0.082139 0.119014 -0.046625 101 144 221
0.197242 0.003652 0.024787 253 254 253
-0.079592 0.179919 -0.062177 103 133 186
0.194410 -0.010976 0.030066 252 253 253
-0.077790 0.272440 0.054379 251 252 253
0.135895 0.091099 0.048099 246 245 247
-0.084397 -0.052667 -0.043325 105 138 195
0.005271 -0.208912 0.010370 252 252 251
0.032421 0.192317 -0.019485 253 254 252
-0.095847 0.276696 -0.011021 112 117 124
0.027492 -0.182692 0.027149 251 252 253
-0.019955 0.252106 -0.006386 250 251 251
-0.097281 0.215728 -0.052501 99 137 210
-0.081181 -0.091080 0.031536 99 140 216
-0.075031 0.272212 -0.016426 106 112 122
0.080182 -0.130731 0.053769 253 254 253
-0.084299 -0.056071 0.013299 102 110 122
0.036718 0.199953 0.057395 252 253 253
-0.083650 -0.066837 0.010439 99 130 185
0.176901 0.045015 0.053058 253 254 253
0.228774 0.035069 -0.012165 253 253 254
-0.083294 -0.067972 -0.006443 95 136 213
-0.038730 -0.241084 0.023296 252 253 254
0.257701 0.077533 0.046154 251 252 251
0.239994 0.036176 0.017048 254 255 255
0.019314 -0.186409 0.033442 252 252 252
-0.098586 -0.151306 -0.082934 96 127 185
-0.077107 0.203826 -0.045910 118 122 122
-0.072822 0.285170 0.035236 250 251 251
0.048366 -0.160095 0.015419 251 252 251
-0.004044 -0.208650 -0.006431 253 253 252
-0.029391 0.260072 0.047837 253 254 252
-0.102966 0.080667 -0.070265 99 143 221
-0.072356 0.275134 0.055673 250 251 252
0.075211 -0.138247 0.014248 250 251 251
-0.094783 -0.040781 0.004417 100 129 182
-0.015021 0.244728 -0.016348 250 251 252
-0.082696 0.124189 0.040779 107 116 123
-0.076044 0.269281 -0.025502 98 140 215
-0.091738 -0.254157 0.014146 94 133 202
-0.093647 0.279897 0.012950 97 122 171
-0.100616 0.074185 -0.072540 102 131 183
0.296779 -0.065208 0.012439 251 252 251
-0.078774 0.274099 0.017013 252 253 251
0.117281 0.097735 0.015605 252 252 252
0.011587 0.218312 -0.019129 252 253 252
0.232801 0.005426 0.033317 252 253 252
0.161042 -0.039913 0.029893 251 253 251
-0.063468 -0.257699 -0.004495 253 253 253
0.299598 -0.066893 0.031574 252 254 253
-0.081510 -0.270877 0.015324 253 254 254
-0.077990 -0.124832 -0.089791 102 144 220
0.202016 0.017763 0.036198 254 255 253
0.160701 -0.040365 0.052615 252 252 253
-0.036094 0.241376 -0.003054 252 252 252
-0.064893 -0.274797 -0.009697 205 207 205
0.273998 -0.033970 0.000243 251 253 253
-0.084461 0.119209 -0.058425 101 145 226
0.117877 -0.101370 0.059125 252 253 252
-0.082965 -0.084640 0.002164 91 120 179
-0.007453 0.240178 0.025972 252 252 253
-0.080974 0.042062 0.033475 116 120 123
0.283472 -0.039734 0.007901 253 254 254
-0.080079 0.171172 -0.043804 102 141 210
0.251708 0.074508 0.028622 252 253 252
-0.078958 -0.141116 0.012971 97 141 224
-0.099141 -0.060964 -0.012452 94 130 199
-0.087968 -0.146789 -0.091417 99 130 190
-0.074341 0.272695 -0.016677 252 253 253
-0.079467 -0.247474 -0.067986 116 120 120
-0.099991 -0.043116 0.001510 99 139 214
-0.002717 -0.212549 0.021872 252 254 252
0.140496 -0.076716 0.060563 254 254 253
-0.082858 0.130817 -0.084277 96 133 201
-0.080765 -0.068656 -0.013722 95 128 179
0.093202 0.137500 0.051870 252 253 253
-0.079306 -0.180978 0.004401 96 145 226
-0.096272 0.226865 -0.072947 96 136 205
-0.094219 0.267633 -0.039901 99 122 166
-0.048995 -0.248600 0.036541 251 253 252
0.120048 -0.088751 0.013671 252 253 252
0.057234 0.158305 0.023322 253 254 253
-0.073842 0.211516 0.044239 100 137 204
0.248158 -0.018654 0.007579 253 253 252
-0.103779 0.076363 0.032952 94 110 140
-0.096260 0.245014 -0.057460 122 126 128
0.033889 0.182091 0.035881 252 254 253
-0.089826 -0.237623 0.055726 101 148 230
0.141518 -0.063809 0.031164 251 254 254
0.076080 0.164807 0.014311 253 253 253
-0.056003 -0.253881 -0.003192 251 252 251
0.076246 0.140688 0.027022 252 253 253
-0.098575 -0.066077 0.000999 98 143 226
-0.096206 -0.208311 -0.002234 109 117 129
-0.095741 0.218673 -0.032837 101 143 225
-0.083403 -0.067176 -0.015833 101 143 225
-0.097362 0.205878 -0.018231 99 142 222
-0.082107 -0.059831 -0.021322 96 135 208
-0.039305 -0.260758 0.025328 253 252 252
-0.049124 0.252966 -0.008019 247 248 248
-0.080296 -0.142485 0.031376 105 125 158
-0.077169 0.188802 -0.038524 98 140 215
0.286609 -0.053674 0.042849 254 254 254
-0.098191 0.256856 -0.054804 117 121 122
0.064626 -0.142495 0.043745 251 253 254
-0.083678 0.038557 0.019650 97 138 209
0.280715 -0.051779 0.039913 252 253 253
-0.077164 -0.223368 0.021233 95 137 212
-0.006123 0.221455 -0.021012 249 250 250
0.077937 0.142704 0.053101 253 254 253
-0.032709 0.251292 -0.020760 250 251 252
-0.093186 -0.244618 0.014160 114 148 201
0.001343 -0.224684 0.017598 251 253 252
-0.084358 0.091222 -0.087146 121 126 128
-0.079388 -0.146413 0.029014 107 110 117
-0.084095 -0.273104 0.042791 252 253 252
-0.099168 -0.169818 -0.066094 90 116 173
-0.082733 -0.273079 0.026126 251 252 253
-0.056833 0.287209 0.057708 251 252 252
0.084174 0.132254 -0.006564 253 254 254
-0.085928 0.063589 0.003852 99 145 228
-0.082901 0.075735 -0.058344 125 128 127
-0.061710 -0.251524 0.031637 249 252 250
-0.092723 -0.269490 -0.028113 99 144 224
0.285355 -0.053683 0.003308 253 254 252
0.052945 0.161785 0.012756 251 252 252
-0.076859 0.240344 -0.049796 102 147 233
-0.081173 0.155882 0.016379 99 143 223
-0.091413 -0.142620 -0.088683 130 137 139
0.180204 0.046126 0.059396 253 253 253
-0.094086 0.228370 -0.075381 122 128 128
0.020095 0.211990 -0.008503 251 252 252
0.034723 0.179408 -0.016587 252 254 253
-0.073729 -0.277783 -0.005708 252 254 253
0.239820 0.052101 0.015989 253 253 252
0.027744 0.208281 0.042422 251 252 253
-0.075422 -0.262894 0.043288 249 249 249
0.089082 -0.134899 0.012242 252 252 253
-0.097932 -0.234994 0.022020 94 130 197
-0.092269 0.261575 -0.002020 90 113 164
-0.075822 -0.273100 0.003870 93 119 173
-0.083212 0.066615 -0.037441 97 144 225
0.229476 0.043143 0.037963 253 254 253
0.001418 -0.203541 0.059047 252 253 253
-0.099242 0.148674 -0.074369 112 117 117
0.049499 -0.158026 -0.007032 253 253 253
0.019682 0.212162 0.030920 251 253 252
-0.096583 0.200694 -0.017402 99 143 225
0.197321 -0.007808 0.015480 253 253 253
-0.100894 -0.087243 -0.011584 97 136 205
-0.099248 0.164474 -0.082950 93 123 180
-0.095667 0.231002 0.036353 100 140 210
0.037361 0.157531 0.038598 197 202 196
0.018950 0.193727 0.044501 251 252 251
-0.104270 0.021840 -0.000987 100 142 219
-0.080265 -0.167239 -0.006502 99 135 200
0.101235 -0.126374 0.055189 252 252 253
0.047440 0.176609 0.004013 253 253 253
0.190909 -0.013507 0.007022 251 254 252
0.144393 -0.058297 0.030186 251 252 252
-0.007404 0.238344 0.020180 250 250 251
-0.089613 -0.261601 0.039640 99 142 222
0.038590 -0.193300 0.032578 254 255 255
-0.102687 0.068159 -0.051832 129 142 155
-0.097853 -0.182424 -0.055781 100 139 207
-0.095413 0.225874 0.038099 127 137 153
-0.100613 -0.113686 -0.028503 96 128 187
0.167145 0.047235 0.017047 251 253 253
-0.091149 -0.260322 -0.026967 97 139 217
-0.003334 -0.204784 0.021454 253 254 251
0.300849 -0.067541 0.027718 254 255 253
0.118400 0.107982 -0.004347 252 254 253
-0.076939 0.254865 -0.068585 99 133 198
-0.086026 0.117163 0.040850 95 121 173
0.273013 -0.031134 -0.003527 254 254 254
0.004963 -0.196924 0.008991 252 252 251
0.090431 -0.126571 0.055415 253 254 254
-0.096343 -0.121945 -0.074938 100 146 232
0.168109 -0.032823 0.028917 252 254 253
0.163440 0.069371 0.011225 251 252 253
-0.084279 0.265049 0.040442 98 130 190
0.103358 0.112521 0.043758 253 253 252
0.175870 0.051665 0.056841 251 252 252
0.226493 0.036398 -0.000431 253 253 253
-0.080639 0.282816 0.000188 126 130 131
-0.084731 0.225220 -0.078628 98 134 199
-0.096671 0.238796 0.041776 109 118 127
-0.071090 0.259142 0.035115 103 148 228
0.063758 0.148603 0.055394 252 252 253
-0.081465 -0.131168 -0.016197 96 125 183
-0.102183 0.068591 0.003986 99 134 199
-0.093675 -0.229711 -0.032324 96 137 210
0.057517 -0.173576 0.057630 254 254 254
0.194686 -0.001434 0.054725 251 253 254
-0.080594 -0.277749 0.043077 252 253 253
0.034405 -0.170245 -0.005634 252 253 254
-0.040128 0.262880 0.060195 253 254 253
0.040325 0.188408 0.022409 252 253 253
0.166345 -0.051207 0.032402 253 253 252
-0.015704 0.225167 -0.017558 251 252 251
0.241323 0.041244 -0.004729 252 253 254
-0.075586 0.274695 -0.023286 104 148 230
-0.099768 0.114112 0.012426 99 138 206
-0.044988 -0.246425 -0.013865 253 254 253
-0.079443 -0.162230 0.034126 96 134 201
-0.039784 -0.257436 0.014879 251 252 252
-0.009385 0.224941 -0.016192 250 250 251
-0.089526 -0.086442 -0.083615 117 116 117
0.087320 0.147379 0.019417 249 250 250
-0.055024 0.283810 0.042693 253 252 252
-0.099766 -0.058481 -0.043689 97 129 190
-0.102787 0.071393 0.032334 97 129 186
-0.093664 -0.214179 0.042552 120 129 135
-0.081300 -0.133242 -0.088522 96 129 186
-0.086542 -0.276175 -0.022521 94 130 201
0.084787 -0.123098 0.002621 252 254 253
0.245308 0.051166 0.048852 252 254 252
0.293299 -0.054623 0.049478 252 253 252
-0.083148 0.098413 0.001265 125 130 133
-0.081621 0.213370 -0.081590 100 145 224
-0.101079 -0.048726 -0.040037 101 146 225
0.039723 0.176136 0.036492 252 254 253
-0.076261 0.257501 -0.064524 97 138 220
-0.076762 -0.212605 -0.015253 97 141 220
-0.076389 -0.268203 -0.006443 109 118 130
0.133153 -0.074907 0.013246 253 254 253
-0.071464 -0.276756 0.061261 253 254 252
-0.071491 0.290900 0.025018 253 252 252
-0.095359 0.105326 -0.092034 94 124 184
-0.097517 -0.176398 -0.082433 125 127 128
-0.092292 -0.236927 0.012465 99 146 229
-0.002200 -0.215731 -0.009193 207 206 201
-0.094086 -0.214572 0.040268 94 126 184
-0.079823 0.065994 0.032937 110 112 117
0.144909 0.070306 0.007783 253 255 253
0.053809 0.176079 0.057066 252 253 253
-0.069761 0.270371 0.020063 251 252 251
0.008424 -0.215852 0.047519 253 255 254
0.307142 -0.065070 0.042551 254 255 253
-0.098687 0.186707 -0.060949 101 143 220
0.158299 0.059212 0.009340 251 253 252
0.001394 -0.224501 0.024982 252 253 254
0.209755 0.011814 0.019910 252 254 252
-0.079445 0.158453 -0.048923 94 133 204
-0.078129 0.198468 -0.005529 100 145 230
-0.075861 -0.254537 0.017740 93 120 174
-0.095390 -0.167278 0.052816 130 134 136
0.186095 -0.007512 0.028074 252 253 252
-0.035589 -0.249211 0.053088 252 253 253
0.206566 0.017214 0.031014 253 253 254
-0.085967 0.044052 0.007968 99 139 211
-0.081798 -0.131818 -0.088775 96 136 214
-0.094437 0.272330 -0.003961 98 131 194
-0.092600 -0.248337 0.048244 96 125 183
-0.098116 -0.133454 -0.035200 96 130 196
-0.100674 0.068955 0.024251 100 131 187
-0.078850 -0.274984 -0.024769 106 145 214
0.022204 0.190529 0.009114 251 251 251
-0.087780 0.048814 -0.065765 114 117 119
0.168857 -0.032378 0.053946 252 254 254
-0.092062 0.260759 -0.011531 93 125 185
0.247304 0.049807 0.005201 253 253 255
-0.090696 0.087414 -0.088276 103 145 221
-0.093441 0.221930 0.055311 94 128 194
-0.087702 -0.123900 -0.073226 98 142 223
-0.090607 0.158164 -0.078144 102 142 215
0.241659 0.056028 0.049047 253 253 252
-0.021292 0.230693 0.031658 245 247 246
-0.099531 0.165106 -0.071628 111 118 124
-0.092423 -0.054673 -0.054683 99 145 227
-0.039570 -0.243302 -0.005752 252 253 252
-0.026425 -0.245985 0.007148 251 252 251
0.004074 0.206678 -0.007817 251 251 251
-0.075420 -0.232048 0.013854 97 134 203
0.112718 -0.106610 0.051385 252 255 254
-0.080367 -0.067763 -0.061152 111 117 117
0.020520 0.203341 -0.019402 253 253 252
-0.084529 0.096666 -0.075081 96 136 204
-0.098150 0.173691 -0.080253 99 143 223
0.020185 -0.194387 0.058917 251 253 252
0.108973 0.126372 0.049348 253 252 252
-0.051198 -0.249839 0.033601 252 253 253
-0.035088 0.250679 0.007260 252 253 253
-0.027373 0.239521 0.013451 252 253 252
-0.101164 0.199019 -0.054640 98 126 181
0.175407 -0.021621 0.030189 253 253 252
-0.100522 -0.154612 -0.078421 124 128 135
0.078189 -0.129995 0.033660 249 251 250
-0.029089 0.240479 0.044918 253 253 254
-0.098905 -0.100618 -0.081582 124 133 135
0.280104 -0.047617 0.004774 251 252 252
-0.090563 -0.093080 -0.056347 97 139 217
0.015755 0.193554 0.057099 252 254 252
0.104685 0.125984 -0.000235 251 254 254
-0.096940 -0.222940 -0.064940 98 144 223
0.290710 -0.056083 0.005391 251 252 252
-0.099425 0.209921 0.033383 100 133 198
0.140753 -0.077044 0.007884 250 252 253
-0.072115 -0.268814 0.034905 124 133 138
-0.044082 0.263147 -0.015662 252 253 253
0.003361 -0.218719 0.038715 203 203 202
-0.080013 -0.103579 -0.068679 99 134 198
0.215174 0.023034 0.006177 253 254 254
0.193083 0.033393 0.053586 253 254 253
0.183941 -0.008759 0.005123 252 253 252
-0.077011 -0.099621 -0.024707 96 145 225
-0.082297 -0.165417 -0.083998 105 151 235
0.279751 -0.035228 0.025334 254 253 254
0.103991 -0.105759 0.049324 251 252 252
-0.055684 0.282243 -0.004338 253 254 253
0.195532 -0.002376 0.051918 252 253 253
0.009137 -0.198709 0.059475 250 252 251
0.169275 0.062632 0.010412 251 252 251
-0.014030 0.221923 0.044845 252 253 253
-0.074270 -0.265351 0.026003 100 136 199
-0.080317 0.154764 -0.085883 114 118 122
-0.081236 -0.229259 0.059114 109 119 133
-0.087409 -0.245021 0.054335 99 142 219
0.093088 0.124353 0.010431 252 253 253
-0.099638 -0.048760 0.011602 99 141 215
0.121552 0.110002 0.060677 254 253 254
0.163725 -0.050517 0.017517 250 251 251
-0.074110 0.258729 0.037631 100 145 226
0.192836 -0.011214 0.004983 253 255 254
-0.051528 -0.247111 0.055364 251 252 251
0.049660 -0.163283 0.056322 251 252 252
0.067673 -0.140016 0.039703 250 253 253
-0.074307 0.267415 0.023974 99 104 111
0.083732 -0.125930 0.053035 251 252 251
-0.084688 0.039280 0.005455 98 143 224
0.126792 0.086930 0.046584 251 253 251
-0.089497 -0.262597 0.042299 91 119 169
0.182638 -0.018077 0.011176 253 254 254
-0.080922 -0.142923 -0.090870 120 126 126
0.186198 -0.011239 -0.004469 254 255 254
-0.075103 0.248845 -0.000434 102 145 226
-0.030727 -0.249677 -0.015684 249 250 249
0.040708 -0.164638 0.021277 250 252 252
0.245710 -0.013053 0.049594 254 253 252
-0.101030 -0.194319 -0.057824 98 127 184
-0.080062 -0.143188 0.025474 92 125 184
0.271726 -0.030857 0.053917 253 254 255
0.212189 0.021899 0.019844 254 255 255
0.263919 -0.022281 0.036811 250 251 250
-0.094831 -0.243337 -0.031288 113 131 156
-0.084779 -0.221559 -0.077823 104 113 118
0.105909 -0.103522 0.028813 251 254 253
0.021790 0.212997 -0.009287 251 253 251
-0.062674 -0.263182 0.027544 251 253 253
0.143513 -0.059448 0.052245 251 253 254
-0.075195 0.226195 0.017863 110 121 141
-0.096709 0.246772 -0.056787 101 142 217
-0.076003 0.273297 -0.048986 100 131 184
-0.000824 0.214914 0.042005 249 251 251
0.056243 0.171128 0.039765 253 254 252
-0.083373 -0.072307 0.007595 102 149 233
-0.103844 0.073593 -0.015623 93 127 193
0.060274 0.178180 0.016082 251 252 252
-0.101475 0.064785 -0.063817 124 128 128
0.088516 0.129973 0.012587 252 252 251
-0.100712 -0.057297 0.025929 97 129 188
-0.102267 0.134222 0.024938 115 114 120
0.015703 -0.211638 0.022747 250 251 251
0.244482 -0.016773 0.021699 253 253 254
-0.064712 -0.263174 0.031951 253 254 253
-0.096494 -0.170456 -0.049805 94 132 197
0.255005 -0.027094 0.021431 252 254 254
-0.070893 -0.284613 -0.011372 249 251 250
0.283923 -0.041251 0.025407 251 252 253
0.221569 0.012023 -0.003090 250 251 251
0.001643 -0.203651 0.047880 252 253 252
-0.099983 -0.087005 -0.085572 103 137 199
-0.078887 0.194066 0.020803 99 144 225
-0.082494 0.100308 0.031918 96 143 221
-0.076349 -0.240088 -0.055288 99 139 214
-0.073044 0.282489 0.006183 250 251 251
0.195532 0.019840 0.030732 252 253 253
-0.100002 -0.149756 -0.037168 99 145 226
0.191180 0.027936 0.057667 253 253 253
0.236586 0.046163 0.011486 253 253 252
-0.077986 -0.073527 0.003159 135 140 144
0.032245 0.174939 0.042257 252 254 252
-0.100189 0.101090 -0.020039 97 132 194
-0.008929 0.229080 -0.013848 244 245 244
-0.092986 -0.070400 -0.068761 104 147 231
0.043854 0.187659 0.041802 254 254 253
-0.074305 0.290236 0.060827 254 254 254
0.071319 0.143799 0.043781 252 253 252
-0.089056 0.021660 -0.007449 112 105 109
0.034801 -0.192167 0.029583 249 250 250
0.158377 -0.044973 0.036322 252 255 254
-0.091012 -0.246181 0.036912 96 129 186
0.130725 -0.080771 -0.002628 253 253 253
-0.081901 0.277645 -0.010819 252 252 252
-0.099672 -0.080490 -0.014415 92 120 176
-0.083104 -0.102876 0.039772 97 139 213
-0.082516 -0.098384 -0.035222 97 141 215
0.045831 0.189559 0.019036 252 252 253
-0.082612 0.101043 -0.065237 99 145 230
0.150595 0.079425 0.041108 253 254 253
-0.099034 0.217917 -0.026968 102 144 224
0.196521 -0.008240 0.004174 252 253 254
-0.102907 0.078155 -0.059673 101 137 204
0.000188 -0.204200 0.042069 249 250 250
0.207869 0.016955 0.046628 252 253 254
-0.096669 -0.160653 -0.054030 95 132 195
0.050141 -0.168477 0.059773 253 254 254
-0.059121 -0.258894 0.059886 252 253 254
-0.034164 -0.254976 0.018559 250 251 251
-0.101626 0.104192 0.001036 99 137 206
0.030008 0.205615 0.032834 251 252 251
-0.096559 -0.172323 0.040383 97 135 203
-0.076383 0.246641 0.001965 104 148 231
-0.019441 -0.222046 0.040220 251 252 252
-0.080400 -0.276645 0.062984 254 255 254
-0.094845 -0.205977 -0.026062 99 140 215
-0.098508 -0.152447 0.046584 99 139 211
-0.083466 0.131295 -0.003678 94 125 188
-0.000049 -0.205802 -0.005956 252 252 253
0.179859 -0.035219 0.047693 253 253 252
-0.091947 0.018627 -0.008610 90 120 178
0.294257 -0.057706 0.046393 254 255 254
0.078101 -0.125006 0.002604 251 253 253
-0.094164 0.239249 -0.058836 99 145 225
0.082954 -0.131435 -0.010499 253 253 252
-0.012474 0.233038 -0.010978 252 252 252
-0.081447 0.050829 -0.057346 129 135 137
-0.020536 -0.222817 0.055260 252 254 252
-0.100093 0.129159 -0.082346 95 123 178
-0.094200 -0.221002 0.029677 101 148 231
-0.075870 0.262130 -0.047340 112 116 121
0.273458 -0.042960 0.031144 254 254 254
-0.094177 0.255663 -0.018375 98 142 219
0.218569 0.009078 -0.008687 253 254 252
0.119164 -0.088965 0.010696 253 254 252
0.029642 0.184152 -0.009144 251 252 251
-0.077868 0.227549 0.006651 98 132 194
0.084424 -0.137316 0.036084 253 255 253
-0.078466 -0.159311 -0.046035 101 147 229
-0.079208 0.273555 0.007134 251 253 252
-0.100680 0.061190 -0.011419 99 133 195
-0.031720 0.243122 0.040052 252 252 251
-0.077078 -0.167387 0.053074 98 139 212
-0.092213 0.044499 -0.059498 120 128 128
0.071814 -0.140309 0.023319 251 252 252
-0.023336 -0.232186 0.010888 252 253 252
-0.099240 -0.133920 0.007661 106 116 125
0.172308 -0.022832 0.020591 251 253 252
0.141744 0.087904 0.025709 254 255 253
-0.025750 -0.224180 0.025965 253 253 254
0.198062 0.001137 0.028899 252 253 253
0.018325 0.219002 0.058082 249 250 250
0.086467 0.145011 0.031016 252 253 252
-0.078082 0.186443 0.029892 98 144 227
0.228870 0.036452 0.005677 252 253 252
0.188678 -0.017400 0.001794 251 253 253
-0.101183 0.126928 0.036052 92 118 170
-0.101487 0.032334 -0.020142 126 132 137
-0.090161 0.110056 -0.087969 98 143 228
0.037056 0.207010 0.040141 252 252 252
0.056830 -0.149385 0.006074 253 254 252
0.008676 0.222353 0.043496 196 197 193
0.033060 0.178313 0.047291 252 253 252
-0.096213 -0.246268 0.005816 94 125 185
0.011230 0.220038 0.021017 252 253 252
0.100656 -0.108290 -0.003882 252 253 252
-0.096007 0.224634 0.004718 98 139 215
-0.001715 -0.207733 -0.004390 251 254 252
0.231891 -0.006006 0.041249 253 252 253
0.062791 0.156665 -0.009142 253 253 252
0.245350 0.064359 0.025515 254 254 254
-0.102327 0.102297 0.036550 110 118 126
-0.100246 -0.167664 0.029995 98 142 218
-0.085270 -0.266582 -0.054554 112 120 126
0.105664 -0.101094 0.021514 252 253 252
-0.097857 0.109996 0.040481 97 135 202
-0.097764 0.180562 0.041256 99 139 215
-0.078936 -0.231275 -0.054696 101 138 200
-0.096041 -0.222307 -0.020605 96 138 214
-0.099483 -0.111990 -0.050906 98 142 220
-0.098115 0.165180 0.026820 94 129 196
-0.077890 -0.244168 0.032452 101 148 232
-0.081736 -0.048867 -0.023772 97 140 216
-0.081975 -0.082118 -0.036413 99 137 210
0.046476 -0.163267 0.026211 252 252 253
-0.018657 -0.222157 -0.012548 251 252 250
-0.061910 -0.252712 0.061136 250 252 252
0.077864 -0.130697 0.049218 253 254 253
-0.085057 -0.056205 0.004687 90 115 168
-0.009418 0.237591 -0.018912 253 253 253
-0.076700 0.207993 0.034748 110 115 121
-0.095157 -0.267854 -0.038304 99 139 213
-0.099647 -0.183046 -0.030359 90 118 177
-0.087215 0.142483 0.044578 123 127 127
-0.079911 -0.124639 -0.010179 99 146 228
0.255450 0.059704 0.038318 251 252 251
-0.035782 -0.233497 0.011120 249 250 251
-0.078193 -0.189114 0.031726 113 116 117
-0.099015 -0.111566 -0.022166 100 142 224
-0.102392 0.036114 -0.027042 101 144 224
-0.090822 -0.114146 -0.090817 121 129 129
-0.023633 -0.243453 -0.007637 253 254 254
-0.059522 -0.259090 0.003054 252 252 251
-0.098436 -0.120406 -0.019825 98 128 179
-0.004627 -0.210802 0.014517 252 254 254
0.102650 0.130096 0.019076 253 254 253
-0.077085 -0.211858 -0.071986 100 143 220
0.011016 0.222544 0.016752 253 254 252
-0.080219 0.155873 0.000636 97 137 208
-0.097322 -0.161590 0.039097 98 140 212
0.020325 0.193170 -0.002940 252 253 253
-0.089106 0.084323 0.031223 99 143 221
0.027813 0.183862 0.054713 252 254 253
-0.074184 0.282757 0.003630 252 253 252
0.204468 0.005469 0.040352 253 254 254
0.038279 -0.170418 0.027255 251 253 253
0.012810 -0.190557 0.046672 252 254 251
-0.083479 0.155761 -0.073001 99 139 215
0.054029 0.162795 0.014556 252 254 253
0.122518 0.092293 0.023933 253 254 252
-0.098113 0.174441 -0.083136 115 117 122
-0.091018 -0.264983 -0.004231 102 148 229
-0.092020 -0.050934 -0.024489 124 127 128
-0.052698 -0.268849 0.043726 250 250 250
0.193202 -0.012894 0.048370 253 252 252
0.142221 -0.076997 0.031994 253 253 253
-0.100618 -0.079537 -0.005218 101 138 208
0.132598 0.094894 0.040367 251 252 251
0.105234 -0.103085 0.013242 251 252 252
-0.096451 0.194658 0.026194 98 144 227
-0.096477 -0.162983 -0.070789 115 121 121
-0.075983 -0.221615 0.001306 110 126 148
-0.062312 0.267329 -0.009661 250 251 250
0.016113 -0.191672 0.042686 250 252 251
0.127237 0.101314 0.039791 251 253 254
0.151721 -0.051949 0.032949 252 252 252
-0.100177 0.113594 0.039202 104 149 229
0.172528 -0.027248 0.004013 252 253 253
-0.037889 -0.254319 0.019781 251 253 252
-0.077099 -0.235469 -0.053061 93 124 181
-0.098345 0.163266 -0.073335 99 134 199
-0.078466 -0.196544 0.007944 99 144 225
-0.081569 -0.097208 0.002888 96 140 218
-0.101392 0.031535 0.000342 98 134 200
-0.095558 -0.187753 0.053679 96 131 195
-0.087321 0.226521 0.051273 87 111 167
-0.093927 -0.208785 0.047226 88 116 176
0.054108 0.163983 0.057129 252 254 254
0.064324 0.149345 0.042236 252 253 252
-0.063363 -0.278945 0.014584 252 254 252
-0.082406 -0.057504 0.016283 127 131 133
-0.058857 0.268360 0.036879 251 253 251
-0.095780 0.214612 -0.011923 99 136 206
0.042404 -0.182944 -0.007757 249 251 251
0.231241 0.025580 0.023671 252 253 252
-0.099695 -0.141372 -0.053231 98 138 213
-0.101839 0.058102 -0.063275 121 132 137
0.070544 -0.140419 0.015692 252 253 252
-0.092715 0.038275 0.032939 115 119 122
0.286024 -0.055135 0.004365 253 253 254
0.149778 0.066521 0.014108 253 253 252
-0.101862 0.088946 -0.071598 98 142 219
0.024068 -0.201963 0.049791 192 195 193
0.169410 -0.031999 0.044665 250 252 251
-0.081614 0.093394 0.035895 108 115 121
-0.081528 0.145062 -0.019724 91 122 178
-0.080766 0.097364 0.038749 93 124 180
0.023318 -0.185491 0.006023 251 253 251
0.089156 -0.130096 -0.008006 252 252 251
0.093166 -0.124588 -0.007796 250 252 251
0.004737 -0.218672 0.016406 252 252 253
-0.096980 -0.144465 0.025669 109 123 140
-0.062922 -0.262430 0.026937 252 253 253
-0.078078 -0.275563 -0.010394 94 120 170
-0.102311 0.033073 0.007194 101 139 215
-0.091703 0.131140 -0.033152 115 121 128
0.122185 0.111823 0.019633 253 254 254
-0.098184 -0.129437 0.027953 107 111 116
0.099587 0.115979 -0.008279 254 254 253
-0.078795 -0.199065 -0.007215 91 125 188
-0.076672 -0.261090 0.036738 88 117 179
-0.070485 -0.282462 0.012101 253 254 253
0.068223 -0.141886 0.044731 251 254 253
-0.094756 0.239944 -0.008696 100 145 227
-0.076615 0.204595 -0.045331 99 144 228
0.254759 0.065231 -0.000196 251 251 250
-0.081621 0.145877 -0.086852 95 133 205
-0.101509 0.069343 0.013232 100 145 229
-0.101824 0.055222 -0.053418 114 114 117
-0.094193 -0.101853 -0.091746 97 138 217
-0.016199 -0.238838 0.005737 253 254 254
-0.083605 0.112897 0.005720 101 143 223
-0.099586 0.136964 0.006642 94 128 194
0.111120 0.100921 0.045900 253 254 254
-0.101901 0.082401 -0.080313 116 124 130
-0.084030 0.094801 -0.040270 110 135 173
0.132810 -0.071447 0.041046 252 253 251
-0.074029 -0.214777 0.015609 101 142 220
-0.085504 0.288929 0.010980 104 105 113
0.226812 -0.002012 0.038381 255 255 255
0.010342 0.213239 0.046867 198 202 196
-0.085560 -0.269471 0.032053 95 132 195
-0.097882 0.229376 -0.039759 100 144 225
-0.038221 0.244501 0.055575 253 253 253
0.208902 0.003662 0.034275 252 255 252
-0.012664 0.245737 0.054892 254 254 254
0.252382 0.061124 0.027028 253 254 252
-0.096696 -0.172927 -0.057903 101 147 232
-0.096441 -0.191747 0.027159 95 135 208
-0.075655 -0.217121 0.051379 95 134 203
-0.093890 0.254895 0.025214 101 144 222
-0.005036 -0.212646 -0.004548 254 255 253
-0.075680 -0.209233 0.018666 102 139 204
-0.083826 0.122109 -0.077074 93 124 187
-0.075967 0.273271 -0.042232 112 154 235
0.047945 -0.175594 0.004087 252 253 252
-0.074778 -0.259730 -0.063436 97 117 152
-0.034098 0.263933 0.044920 252 253 253
0.004194 0.205834 0.007675 251 252 251
-0.101309 0.078161 -0.067469 99 138 209
0.187879 -0.005554 0.012014 252 253 253
0.167121 -0.042621 -0.000309 252 253 253
-0.101261 -0.045532 -0.016411 118 123 127
-0.011328 0.215732 -0.010204 252 253 252
-0.079264 0.226619 -0.010659 98 136 201
-0.048020 -0.267679 -0.021071 252 252 252
0.037505 0.176847 0.039448 250 251 250
-0.070672 0.256018 0.033944 101 140 215
-0.099941 -0.102062 -0.083002 97 137 211
-0.078563 0.168016 0.000230 99 139 212
-0.083703 -0.039807 0.001508 96 139 219
-0.097374 -0.104456 -0.078485 101 144 224
0.069879 -0.146009 0.009492 252 253 251
-0.077579 0.242105 -0.028032 127 133 138
-0.100016 -0.160861 0.042123 99 141 221
-0.075390 -0.254570 0.032962 90 114 161
-0.100049 -0.057122 -0.050795 120 123 125
-0.071909 -0.272260 -0.025467 95 134 208
0.121518 0.091613 0.024424 253 254 254
0.100606 -0.105257 0.049517 249 250 250
-0.096905 0.230354 -0.070914 101 146 228
-0.043175 0.273738 0.055695 249 251 250
0.209813 0.008316 0.048958 253 254 252
-0.076539 -0.260697 0.022804 101 144 224
-0.042540 -0.237753 0.032665 253 253 254
0.105322 0.109531 0.033230 253 254 252
-0.082777 -0.281407 0.027766 251 252 253
-0.093143 -0.251737 -0.065865 93 126 186
-0.083552 0.071195 -0.060536 99 133 194
-0.078654 0.134400 0.030511 105 112 123
0.055331 0.164762 -0.011363 252 254 252
0.252348 -0.009828 0.014578 253 253 254
0.097371 0.119761 0.007043 252 253 251
-0.079748 -0.278525 0.000925 252 253 254
-0.060555 -0.266369 -0.002141 250 251 250
0.060926 0.175953 0.047244 253 253 251
0.119895 0.089097 0.062074 252 253 252
0.102420 0.114337 0.027242 253 254 252
-0.096905 0.212438 -0.050256 96 132 201
0.202939 0.020064 0.027900 251 253 253
0.046984 -0.181744 0.038524 207 206 205
0.148979 0.065729 0.009881 251 253 251
-0.081993 0.171952 -0.086817 96 141 223
-0.101441 0.032424 -0.033536 109 121 135
0.221617 0.002296 0.038871 252 254 252
-0.061965 -0.262328 -0.005700 253 254 253
0.064509 0.168173 -0.010320 253 254 253
-0.049390 -0.252365 0.013243 251 252 251
-0.101837 0.090484 -0.076494 113 117 119
-0.095338 -0.203605 -0.040108 101 144 222
0.113362 -0.097535 -0.006004 251 253 252
0.040672 -0.187674 0.023836 250 252 251
-0.084311 0.059291 0.008824 97 138 213
-0.078520 -0.196869 0.023908 97 132 192
0.028786 0.198340 -0.015896 252 254 253
0.002851 -0.208213 -0.016830 250 252 254
-0.054434 -0.273994 0.057531 250 250 250
0.167634 -0.046045 0.002886 250 252 252
-0.082689 0.116804 0.023765 100 142 223
-0.089692 0.225464 -0.074929 111 120 125
-0.095327 0.231124 -0.026582 88 113 170
0.244205 0.054344 0.007945 252 252 254
0.079939 0.137224 0.039652 252 252 252
-0.074851 -0.232740 -0.030736 97 144 227
0.098055 0.118422 -0.004225 251 252 252
-0.094336 -0.233498 0.014262 97 133 196
0.005977 0.207417 -0.016649 251 252 251
-0.007207 -0.213225 0.038766 250 251 253
-0.099602 -0.099818 -0.030190 96 137 210
0.156826 0.069889 0.056890 253 255 253
0.216686 0.006519 0.027430 253 253 253
-0.099769 0.025004 0.020558 104 149 233
-0.080119 -0.064119 -0.058463 100 147 232
-0.014978 -0.220561 -0.012745 249 251 251
0.098708 0.119121 0.011928 250 251 250
0.020967 0.193222 -0.007385 252 252 251
0.198650 -0.004543 0.046340 251 252 253
-0.091542 -0.214817 0.008564 99 137 208
-0.049915 -0.269134 -0.017041 249 250 251
-0.028650 0.237661 0.006026 252 252 251
-0.078339 -0.160548 -0.003240 97 145 227
-0.082249 -0.281436 -0.006057 157 162 163
-0.064072 0.268034 0.013871 251 252 252
-0.073391 -0.261376 0.025343 99 133 194
-0.079138 -0.121530 -0.092121 112 119 127
-0.102159 0.045082 -0.045463 99 143 222
-0.082911 -0.063303 -0.041607 102 144 225
-0.080917 -0.133165 -0.060151 107 130 165
0.180795 -0.021185 0.057890 250 252 252
-0.097258 -0.230735 -0.020654 97 134 202
-0.084274 -0.097845 -0.042349 98 144 226
-0.021136 0.228650 0.038598 253 254 252
-0.085458 0.071613 -0.047651 98 141 218
-0.089957 0.103216 0.040134 106 128 167
0.024553 -0.182613 -0.005690 251 252 252
-0.075507 -0.237006 -0.019140 112 105 108
0.031371 -0.184061 -0.001237 201 203 200
-0.082016 -0.272184 0.038939 253 254 253
0.008892 -0.211887 0.035552 253 254 254
0.051367 -0.175470 0.016540 252 253 251
0.074148 0.161390 0.004119 252 254 252
-0.079654 -0.144133 -0.085288 95 133 205
-0.083829 0.105185 -0.074395 98 145 225
-0.104065 0.114566 -0.015862 100 135 201
-0.070165 0.215233 0.039147 108 113 117
-0.082915 -0.144522 0.048657 94 130 201
-0.093933 -0.201705 -0.069926 100 146 231
-0.101941 0.192226 -0.021026 111 114 117
-0.077017 -0.195139 0.035121 91 115 165
-0.097699 -0.225707 0.053479 97 133 197
-0.034675 0.245585 0.037576 252 253 253
0.238871 -0.015162 0.036149 253 254 254
0.046018 -0.158919 0.034398 251 254 253
-0.096473 -0.216611 0.029867 95 133 198
0.158148 0.072403 0.032142 254 255 254
-0.097897 0.122111 0.040289 123 127 133
-0.095508 0.224962 -0.004454 96 129 185
0.011754 0.221501 0.048190 202 206 201
0.200356 0.031628 0.026818 253 253 253
-0.059954 -0.279834 0.042507 249 249 249
0.004449 0.211010 0.057701 252 252 253
-0.104374 0.037297 -0.033234 93 123 186
-0.097035 -0.131444 -0.067645 94 124 182
0.235440 0.037874 0.059502 253 254 253
-0.078369 0.211859 -0.065616 94 128 188
-0.093429 0.267947 -0.043748 106 114 116
0.094110 0.121139 0.048241 253 254 252
-0.076014 -0.116115 0.038433 132 138 143
0.040128 0.193808 -0.009348 251 252 252
-0.044189 -0.256658 0.054840 250 251 251
-0.062257 0.266078 0.029294 251 252 252
-0.009503 -0.215209 -0.020674 251 252 251
-0.083515 0.089228 -0.004258 97 137 211
0.286582 -0.048125 -0.000409 251 253 253
-0.100870 0.139167 -0.052434 99 142 223
-0.097780 0.185829 -0.089977 94 124 181
0.019307 -0.190318 0.006608 251 253 253
-0.032012 0.264747 -0.014851 253 253 252
0.024476 0.189354 0.011211 252 253 252
-0.099563 0.141392 -0.059481 96 130 188
0.070761 -0.159467 -0.007022 251 252 253
-0.087232 0.070802 -0.079108 100 141 216
0.008981 0.203833 0.049731 252 253 253
-0.092909 -0.266362 -0.041039 96 135 207
-0.081907 -0.099674 -0.073760 95 137 208
-0.093482 -0.049279 -0.039441 140 173 235
0.089729 0.127822 0.054746 253 254 252
0.153570 0.062407 0.057714 254 253 253
-0.099345 0.139250 0.019504 97 136 209
-0.099436 0.025955 0.011226 97 133 205
-0.099733 0.095833 -0.072066 96 130 191
-0.098151 -0.151294 -0.085338 97 131 193
-0.095910 -0.045217 -0.031377 102 147 231
-0.031368 0.269498 0.048743 251 252 250
-0.051880 -0.268641 -0.010197 251 252 251
-0.084407 0.025426 -0.007448 99 139 209
-0.088942 0.138873 -0.089224 99 137 207
-0.093467 0.240391 0.047706 100 137 204
-0.079333 0.192051 -0.077717 99 136 205
-0.060972 -0.259193 -0.011948 252 252 253
-0.087922 0.277252 -0.035776 103 146 224
0.062253 0.153569 0.014589 252 253 252
-0.097113 -0.066802 -0.053385 99 137 207
0.254690 0.066462 0.010145 252 252 253
-0.098988 -0.081699 -0.055464 97 139 216
-0.097081 0.191965 0.042880 111 118 126
0.111875 -0.096879 0.047744 253 254 253
0.033929 0.194703 0.002808 252 254 253
-0.093766 -0.221990 -0.036305 100 140 211
-0.079991 -0.147858 -0.052101 97 142 222
0.259819 -0.019557 0.052551 250 251 251
-0.099106 -0.195821 0.001713 100 146 225
-0.101182 -0.105428 -0.079492 95 129 190
-0.101426 -0.183876 0.022596 96 130 189
-0.080469 -0.273320 0.007300 252 254 254
-0.080331 0.279422 -0.032965 94 128 190
-0.071452 -0.277932 -0.023145 253 254 252
-0.097141 -0.162183 -0.031464 96 134 201
0.127348 0.082319 0.044941 253 255 253
0.186908 -0.019609 0.037296 253 254 253
0.189738 -0.017529 0.034359 251 252 252
0.195568 0.029358 0.007462 253 253 252
0.230005 0.046899 0.032189 251 251 252
-0.077159 0.245832 0.014054 95 133 202
-0.070480 0.233349 0.049988 96 139 219
-0.059692 -0.270297 0.061261 254 254 253
-0.098937 -0.138432 -0.081480 95 124 180
-0.097540 0.180840 0.040309 95 130 199
-0.083357 0.131530 -0.082383 103 136 191
-0.095664 -0.204730 0.009239 99 137 205
0.007488 -0.195601 0.052452 250 252 252
-0.090152 -0.111298 -0.090069 95 117 159
-0.095812 -0.251696 -0.068372 114 120 123
0.149634 0.065296 0.019603 253 253 253
-0.097276 0.026651 -0.025055 118 130 144
-0.002822 0.229711 -0.015598 253 253 253
-0.070513 0.294159 0.038163 252 253 251
-0.079468 0.136947 0.032388 115 119 126
0.073540 -0.130651 -0.005968 250 251 252
-0.022952 0.228756 0.053510 251 252 252
-0.077918 0.238692 -0.071069 101 145 228
-0.080814 -0.273503 0.042321 251 251 252
-0.066396 -0.279483 0.033693 250 252 252
0.173814 0.053847 0.050820 252 254 253
0.148120 0.066200 0.013282 251 252 251
0.213112 0.016432 0.008630 252 254 254
-0.079572 -0.083017 -0.074575 117 116 119
0.283703 -0.044524 0.052514 252 254 255
-0.016656 0.246858 -0.007634 251 251 252
-0.078432 0.192900 0.011070 112 124 136
-0.066649 -0.265742 0.030974 251 251 250
-0.020303 -0.230830 -0.023967 252 254 252
0.104129 -0.119510 0.057445 251 253 252
-0.101576 0.134928 0.025918 93 121 178
-0.085444 0.061747 -0.049936 104 149 233
0.264225 -0.032210 0.043817 253 255 253
-0.082319 0.281449 -0.022534 95 105 114
-0.081155 -0.084136 0.021238 96 132 201
-0.083917 0.106450 0.038196 98 142 223
-0.090585 -0.196156 0.048373 98 143 219
-0.096865 0.197324 -0.047824 99 139 217
-0.094729 0.224550 -0.050684 97 141 218
0.011394 0.204833 0.022452 251 252 252
0.101289 -0.103316 0.005186 251 253 254
-0.100149 -0.076678 0.024361 99 147 229
0.201103 0.020397 0.028198 254 253 253
-0.097921 0.203683 -0.044090 95 122 170
-0.096443 0.225688 -0.031712 90 113 164
-0.095454 0.211722 -0.063690 99 144 226
0.227157 0.005254 0.006952 253 254 254
0.111235 -0.111897 0.009148 251 252 251
-0.084383 0.277843 0.023300 251 252 253
-0.008024 0.236443 -0.009278 253 253 253
0.236512 -0.002254 0.045618 251 251 252
0.253440 -0.024534 0.023209 254 254 252
0.035523 -0.174764 0.017885 252 253 252
-0.100015 0.140844 -0.036459 95 129 193
0.081302 0.155536 0.008942 253 253 252
0.169048 -0.048317 0.058686 250 251 251
-0.000239 0.217548 -0.003264 253 253 252
0.157253 0.071219 0.033433 252 252 253
-0.077067 0.272301 0.031006 100 142 222
-0.080530 0.277062 -0.027681 95 125 178
0.077098 -0.128633 0.057320 252 253 253
-0.039876 0.261543 -0.013353 248 249 249
0.042131 -0.166779 0.018303 251 252 252
0.005098 0.209446 0.007685 251 252 252
0.081726 -0.138804 0.025853 252 253 253
-0.088696 0.049322 -0.062868 119 127 131
-0.078549 -0.188849 -0.000731 113 130 152
0.011470 -0.193073 -0.013362 250 250 250
-0.082737 0.098970 -0.056728 88 114 169
-0.089647 0.224235 0.053512 94 122 170
-0.082562 0.205487 -0.080815 93 120 175
0.307581 -0.074326 0.031894 253 253 254
-0.089299 0.256978 0.031363 105 148 232
-0.042393 0.274247 0.006871 250 250 251
-0.103087 0.063110 -0.073634 104 148 228
-0.079951 0.166126 -0.027977 97 131 192
-0.077121 -0.177525 0.019450 113 116 120
-0.058430 0.281547 0.011814 250 251 250
-0.078727 -0.272492 0.001312 247 248 249
-0.083501 -0.068138 0.025482 94 134 204
-0.090605 0.151647 0.045727 106 113 118
-0.008344 -0.229519 0.022210 251 252 252
-0.088606 -0.270269 -0.015827 97 125 177
-0.100470 0.073940 0.021013 92 125 192
-0.082993 0.057499 0.006117 99 139 210
-0.076051 -0.267014 -0.008142 99 133 195
-0.079714 0.266539 0.039900 97 118 150
0.100758 -0.109139 0.028679 252 254 254
-0.023415 0.234419 0.024764 252 254 252
-0.083518 -0.040532 -0.017227 119 126 131
-0.080855 0.041247 -0.045057 113 118 121
-0.077456 -0.227479 -0.022015 115 123 124
0.065481 -0.159319 -0.006763 251 253 253
-0.099329 0.136555 0.033662 98 137 208
-0.050974 -0.274224 0.050388 254 254 253
0.087645 0.129277 0.003492 253 254 253
-0.076907 -0.247481 -0.002685 94 128 194
-0.088770 -0.223100 -0.076587 93 124 184
-0.079249 -0.045872 -0.005615 110 118 118
-0.068472 -0.265946 0.036080 251 252 251
0.136605 -0.082965 0.025428 253 254 253
0.068752 0.162712 0.045151 253 253 253
-0.098348 -0.161918 -0.055650 93 122 178
-0.098593 -0.065116 -0.047539 100 145 229
-0.074540 0.276821 0.014048 251 252 251
-0.096943 -0.157478 -0.067804 96 140 220
-0.101010 0.059851 -0.017082 97 136 208
-0.085172 0.056364 -0.002807 101 147 230
-0.079156 -0.143046 -0.050148 95 131 194
-0.073075 -0.206701 -0.081238 123 129 134
