ply
format ascii 1.0
element vertex 1221
property float x
property float y
property float z
property uchar red
property uchar green
property uchar blue
end_header
-0.039424 0.294414 -0.072879 25 26 26
0.345065 0.048800 -0.029727 253 253 251
-0.105075 -0.184835 -0.045473 26 25 115
-0.093331 -0.204042 -0.080141 25 25 103
-0.101304 0.146737 -0.106812 29 29 27
-0.044421 -0.280761 0.036886 24 41 132
-0.109105 0.121509 -0.083804 159 158 153
-0.010362 0.318091 -0.011021 32 27 28
0.220090 -0.136983 -0.019383 253 254 252
-0.037719 -0.300519 0.020484 32 45 138
0.265776 -0.076934 -0.048163 249 251 250
-0.125177 0.023829 -0.024582 32 31 32
-0.024931 0.302776 0.032346 30 32 38
-0.131484 -0.051306 0.004951 29 29 31
-0.109350 -0.155951 -0.030625 25 26 114
0.279240 0.082189 -0.000576 254 254 254
-0.095285 -0.202809 -0.091606 228 228 227
0.241174 0.148613 0.009372 252 254 253
0.211072 0.159925 -0.018608 252 253 251
0.374540 -0.044357 -0.039137 25 24 28
0.195464 0.169783 0.018104 26 32 82
-0.088248 0.171257 0.046099 27 33 100
-0.111474 0.086030 -0.059880 58 77 146
-0.117142 0.125756 -0.022850 23 26 95
0.148574 0.232137 -0.018597 167 168 170
0.004528 -0.330535 0.050759 50 73 166
-0.084975 -0.202076 0.021254 29 35 120
-0.111722 0.141837 0.016825 25 28 111
-0.076279 0.209235 0.080382 33 42 105
-0.085672 0.158021 0.087522 31 29 27
0.256270 0.123887 -0.027351 253 253 252
-0.106013 -0.201055 -0.104211 32 32 33
-0.120317 0.092214 0.030362 27 32 103
-0.093901 -0.198191 0.012207 36 45 140
0.326320 -0.006689 -0.042790 250 252 252
-0.032094 -0.293359 -0.070662 75 92 152
0.035812 -0.355895 0.033711 226 228 227
0.059842 -0.353724 0.004773 194 195 193
-0.056246 -0.249394 0.040480 21 31 98
0.020109 0.328493 -0.014412 209 210 210
0.222837 0.151613 0.001313 253 254 252
-0.092360 0.211352 -0.104306 161 161 162
-0.100505 0.171937 0.078425 22 26 100
0.321180 0.034639 0.005431 253 254 254
-0.130548 -0.041276 0.059439 32 35 32
-0.062769 -0.289101 -0.085472 230 229 229
-0.013383 -0.331137 -0.035841 232 233 232
0.291825 0.089134 0.001185 253 254 253
-0.123821 -0.102572 0.028720 21 26 117
0.156590 -0.240769 -0.007650 248 249 248
0.368220 -0.022716 -0.022752 25 23 27
0.290876 0.090335 0.004332 22 24 53
-0.110622 -0.144273 0.008139 25 32 131
0.205671 0.179638 0.043644 253 254 254
-0.068150 -0.239828 0.005388 25 33 133
0.056644 0.347652 0.011754 247 247 248
-0.098347 0.183826 -0.009082 22 25 86
-0.064412 -0.246787 0.094836 235 235 236
0.126033 0.276564 -0.027064 251 252 251
-0.049577 -0.263395 -0.021128 22 30 126
-0.130773 0.117280 -0.084627 28 31 30
-0.014390 0.287300 -0.071907 27 29 30
-0.101676 0.115248 0.083004 195 195 193
-0.053688 -0.260614 -0.055250 27 36 106
-0.050267 -0.268597 -0.100513 219 219 219
-0.042866 -0.289102 0.080554 37 55 139
-0.110033 0.100199 0.070505 36 47 116
0.113554 -0.285347 0.015288 196 195 196
0.255364 0.123340 -0.009501 24 28 79
0.251629 -0.109232 -0.052524 254 253 253
-0.064643 -0.234930 -0.099143 33 34 31
0.013762 0.307591 -0.037456 26 27 28
-0.126777 0.050777 -0.004061 50 65 142
-0.113551 0.148558 -0.065283 26 27 91
-0.087873 -0.217976 -0.034754 19 23 126
0.267565 0.106817 -0.033316 25 24 27
-0.115931 -0.096133 -0.025159 23 26 107
0.185110 0.218438 -0.021223 167 168 169
0.310636 -0.020695 -0.026146 23 24 40
-0.120508 0.102409 -0.009246 28 32 102
-0.109955 0.137661 0.075832 20 23 111
-0.087935 0.205000 0.046936 35 43 115
0.073518 -0.355009 0.030580 250 252 251
-0.116460 0.077063 0.003105 25 29 101
-0.111523 0.138446 0.033884 25 28 105
0.106914 -0.306543 0.049963 150 151 150
0.050867 0.328121 0.063321 22 21 25
-0.089000 -0.220290 -0.082393 31 32 129
-0.109743 -0.117399 -0.068552 28 25 26
-0.077588 -0.247097 0.086349 47 49 58
0.314028 0.038606 0.022984 251 251 251
-0.112147 0.096455 -0.009201 24 31 117
-0.125805 0.079409 -0.053359 30 27 31
0.358836 0.060394 -0.064805 251 253 253
0.114271 0.283781 0.010927 217 218 216
-0.088899 0.194719 0.059492 27 27 95
0.111378 -0.283445 -0.027431 205 206 206
-0.066789 -0.245930 0.004981 23 30 122
-0.064014 0.201017 0.081125 31 32 34
-0.093626 -0.192079 -0.093329 235 236 236
-0.001800 0.318037 0.068655 29 26 30
-0.072739 0.246868 0.039563 34 38 79
0.265583 0.114042 -0.032613 24 26 28
0.025742 0.339488 -0.005479 253 254 254
0.011949 -0.318060 0.048571 40 64 144
0.330100 0.017887 -0.029503 251 251 251
-0.112751 -0.053574 0.000541 239 240 240
-0.102465 0.161038 0.056964 32 40 117
-0.048414 0.261596 0.009454 25 29 65
-0.092895 -0.187559 -0.027843 31 39 127
0.028553 0.325230 -0.019034 253 254 253
-0.101382 -0.162535 -0.098434 32 30 31
-0.118437 0.071064 -0.038712 21 25 106
0.253262 0.140526 0.026680 252 252 251
-0.117468 0.090990 0.092666 29 28 31
0.185428 0.187185 -0.004591 251 253 252
-0.077289 0.227132 0.046443 17 22 102
0.166688 0.239544 -0.016184 251 252 250
0.127286 -0.260717 0.014585 170 171 170
-0.084411 -0.209537 -0.061400 22 28 121
-0.059942 -0.272233 0.093212 222 222 221
-0.124282 0.074440 0.009651 31 37 116
-0.018092 -0.303569 -0.041844 25 32 136
-0.062863 -0.234896 0.093001 29 28 34
-0.101991 -0.173544 0.071035 27 34 98
0.012852 0.314996 0.069626 28 30 32
0.383761 -0.051896 -0.007289 250 251 251
-0.123225 -0.086994 0.014910 17 20 111
0.157418 -0.230509 -0.027023 150 149 151
-0.127906 -0.032374 0.071555 34 35 37
-0.033174 0.273890 0.064764 28 28 30
-0.115481 -0.071944 0.061878 41 56 142
-0.086175 -0.250402 0.080916 32 32 36
0.334282 0.029931 -0.058670 254 254 254
-0.130523 0.044672 -0.029510 18 22 100
0.150775 0.265403 0.037272 250 250 249
0.342061 0.026907 -0.046000 24 23 27
0.247475 0.139545 0.012135 252 252 252
0.087728 0.337365 0.001773 250 250 250
0.175417 0.225847 0.002709 252 252 252
-0.058477 0.263108 0.087424 31 31 34
-0.097354 -0.189800 -0.106007 28 28 54
0.144350 -0.245046 -0.037057 179 181 181
-0.113260 0.032940 -0.037531 29 31 31
-0.061921 -0.265598 0.033103 39 54 135
0.031388 0.324392 -0.013708 200 201 201
-0.130246 0.027702 0.059993 224 224 223
-0.024385 -0.310088 -0.064162 29 31 31
0.196159 -0.192834 -0.037311 245 247 246
0.137870 -0.248301 -0.036599 249 251 249
-0.123376 0.043239 0.043102 22 27 113
-0.105955 -0.127458 -0.069260 240 240 240
-0.074847 -0.206455 0.073006 42 58 142
-0.072432 -0.226019 -0.069961 32 33 120
-0.116095 0.013806 0.081491 250 251 251
0.122442 0.275490 -0.028764 253 253 253
-0.129428 -0.076977 0.020571 24 25 111
-0.102980 -0.168071 -0.068459 23 27 120
-0.113920 0.142023 -0.056393 27 29 86
-0.114975 0.103016 0.064604 20 27 118
0.097508 -0.342211 0.056100 138 139 136
-0.128328 0.018478 0.079687 228 228 226
0.292014 0.075137 -0.015422 253 252 253
0.042560 -0.348067 0.016710 248 249 248
-0.096115 -0.175217 -0.015865 18 25 114
0.252937 -0.088920 -0.008348 252 253 252
-0.107902 -0.061753 0.057802 234 236 235
-0.098260 0.156696 0.068470 21 25 105
-0.127652 0.022499 -0.022096 224 225 224
-0.097988 0.139708 -0.104327 29 26 25
0.152170 -0.246028 -0.035026 252 252 251
-0.078603 -0.258546 -0.101422 222 222 223
0.128230 -0.278640 -0.004114 246 247 247
-0.129660 -0.000951 -0.004248 241 242 243
-0.112485 -0.069792 0.006332 53 67 153
0.292556 0.066152 0.029505 253 254 252
0.163091 -0.211931 -0.043512 250 253 252
-0.083121 -0.233325 -0.104129 233 234 234
-0.028234 -0.310692 -0.020536 27 41 133
-0.076646 -0.218093 0.033018 44 60 154
-0.078374 0.232674 -0.101947 163 164 164
0.366231 -0.032526 0.001191 23 26 69
0.319203 0.055652 -0.007799 248 249 249
-0.001419 0.300229 -0.024918 28 30 28
0.043474 0.333661 0.055946 249 250 249
-0.117304 0.095662 0.081934 28 35 121
0.195628 -0.190829 -0.021977 198 200 199
-0.011522 -0.314035 0.061503 39 61 145
-0.102079 -0.153394 -0.086719 31 32 31
-0.061935 0.227610 -0.105494 37 34 35
-0.073195 0.263173 0.082264 28 28 28
-0.114163 -0.178015 -0.089281 240 240 241
-0.034705 -0.306039 0.057744 28 28 31
0.041322 -0.332604 0.026317 25 26 26
-0.111333 -0.139955 0.020023 27 31 123
0.060677 0.342207 0.028783 245 246 246
-0.067497 -0.240261 -0.052391 26 33 132
0.000386 -0.333491 0.027113 29 32 34
-0.056062 0.266463 -0.098637 175 176 175
-0.121663 0.049045 0.028392 18 23 110
-0.108726 0.136598 0.080813 29 30 32
-0.008811 -0.326630 0.020055 47 67 152
0.251268 -0.112240 -0.055477 27 26 32
0.183982 -0.178364 -0.016529 24 30 77
0.091929 0.335740 0.006184 246 247 247
-0.116046 0.065972 0.018154 27 29 126
0.010594 0.319084 0.054694 250 253 253
-0.131650 0.042216 0.017080 17 19 109
0.259876 0.130098 0.033685 251 251 251
0.031196 0.328372 0.017188 235 235 236
0.158496 0.251433 0.013046 252 253 251
0.077916 -0.332446 0.007371 31 30 28
-0.083615 -0.237711 -0.065362 21 25 120
-0.110875 -0.011208 0.030154 29 28 30
-0.038409 0.258070 -0.090269 174 172 172
0.326243 0.039462 0.023024 253 254 254
0.290835 0.093156 -0.000468 254 254 254
0.187843 0.185753 0.013479 251 253 252
-0.117207 -0.158012 -0.103083 30 28 29
0.353521 -0.020024 -0.010069 254 255 254
0.154239 0.242652 -0.023190 177 178 177
-0.083858 -0.216513 -0.045093 27 26 110
-0.067418 -0.247798 -0.006943 26 36 119
0.013200 -0.322858 -0.003882 44 64 145
-0.069107 -0.243157 -0.077843 26 29 134
0.203562 0.189156 0.043294 252 253 252
-0.110219 0.095968 -0.086385 30 30 29
0.198801 0.180631 0.009474 207 208 206
-0.120672 -0.095394 0.002951 36 47 141
0.354898 -0.024378 0.004184 253 253 252
0.076103 -0.345970 0.039864 253 255 254
-0.014647 -0.307180 0.027983 25 36 127
-0.085023 -0.186105 0.083133 27 30 33
0.090439 0.317698 -0.018795 250 250 250
-0.124237 0.068920 0.039673 22 24 116
-0.130294 -0.069986 0.003586 249 251 250
0.046266 0.324473 0.018989 195 194 194
0.058291 -0.335305 -0.009876 27 30 30
-0.118070 0.063320 0.047192 31 34 129
0.105736 -0.309410 0.045810 219 221 220
0.169048 -0.227732 -0.031855 251 253 251
-0.000133 0.300585 0.028561 18 25 91
0.127344 0.266442 -0.007141 250 251 250
-0.102637 -0.190004 0.097187 235 236 236
-0.010721 -0.313773 -0.019154 29 37 120
-0.007556 -0.305971 0.022534 36 55 136
0.330085 0.018952 -0.013871 24 25 28
0.089628 0.332685 -0.000430 233 234 234
-0.055097 -0.247175 0.080587 41 58 135
-0.111538 -0.045313 0.028230 28 30 30
-0.025227 -0.284169 0.077311 34 54 128
-0.114832 0.107495 0.000891 18 22 111
0.005766 -0.334046 0.032197 213 216 215
-0.129964 -0.066935 -0.022188 245 246 245
-0.023145 -0.291510 0.013889 48 65 153
0.220161 -0.156459 -0.032436 253 254 253
0.010770 0.329524 -0.001487 235 235 236
-0.011728 0.299907 0.078490 29 25 29
-0.096906 0.177851 0.035566 22 24 96
0.119531 0.305421 0.016138 252 253 251
-0.122372 0.092998 0.006829 27 29 110
-0.124208 0.090485 0.085052 29 29 31
-0.024940 -0.293267 -0.089401 28 28 29
0.072113 0.323655 0.041517 29 23 27
0.137201 -0.271343 -0.015049 254 254 253
-0.057243 0.214436 0.090081 31 27 29
0.224925 -0.136330 -0.034484 251 251 251
-0.120426 -0.115041 0.059362 20 25 121
0.368001 -0.029794 -0.030802 252 252 251
-0.034374 -0.293934 -0.025401 22 30 124
-0.121270 0.012213 0.004577 28 30 30
-0.077707 0.231232 -0.102743 34 34 37
0.082229 -0.341037 0.045673 122 125 127
-0.126126 0.121292 -0.089678 28 32 32
-0.133169 0.000823 0.046286 225 226 226
-0.128333 -0.011986 0.043926 29 30 30
0.011254 -0.333906 -0.014556 208 208 207
-0.051451 -0.266097 -0.056248 21 30 136
-0.130590 0.048587 -0.014042 206 207 209
0.241033 0.148058 -0.011381 252 253 251
0.146493 0.263951 -0.027935 251 253 251
0.038400 0.345207 0.056955 252 253 253
-0.007771 -0.277952 0.083934 27 28 30
0.170245 0.229468 0.027221 193 191 191
-0.132104 0.022766 0.062191 223 224 223
-0.032217 -0.283620 0.055319 37 54 135
-0.067153 0.258302 0.080957 183 183 183
-0.012892 -0.297952 0.036108 39 57 142
-0.123305 -0.129792 0.079182 29 31 32
0.098542 0.317579 0.058328 201 201 199
0.022786 0.338083 0.011441 105 107 114
0.068522 -0.337716 0.011894 243 244 244
0.127833 -0.283493 -0.004543 209 210 210
-0.107654 -0.165327 -0.083554 21 21 116
0.242405 -0.109838 -0.034625 253 253 252
-0.114486 0.108207 -0.051014 21 26 103
0.032989 -0.342951 0.065445 113 126 160
0.333553 0.016574 -0.054597 27 26 30
0.244001 0.131749 -0.020451 25 24 27
0.298321 0.065282 0.007255 253 254 254
0.061661 0.328281 0.056801 192 193 192
0.152190 0.245349 -0.026303 169 170 171
-0.112355 -0.103707 -0.044151 24 29 75
0.186966 0.215141 0.010148 251 252 250
0.339756 0.031531 -0.058879 24 24 27
-0.067416 0.265781 0.072624 31 27 30
-0.073013 -0.239580 -0.081072 59 77 145
0.097330 -0.300556 0.026627 252 254 253
0.275565 -0.086765 0.008043 251 251 251
0.048993 -0.350284 0.054600 236 237 237
-0.107486 0.174596 0.094795 28 28 31
0.305621 -0.025285 -0.023197 251 252 252
-0.109959 0.113377 -0.079758 74 92 153
-0.100535 0.115280 0.083794 196 197 194
0.213989 0.159550 -0.030844 28 29 32
0.371143 -0.039984 0.001180 253 254 253
0.009060 -0.320926 0.058094 30 50 143
-0.051037 -0.275180 -0.081125 21 26 123
-0.113238 -0.003276 0.009858 238 240 240
-0.089347 -0.209230 -0.087594 19 21 125
0.044891 -0.325689 0.051190 28 31 29
0.077743 0.314215 -0.003620 251 252 251
-0.094123 -0.149515 0.094131 252 253 251
0.034846 0.334349 0.012440 240 240 241
0.058882 -0.342013 -0.006942 26 27 27
-0.113371 -0.140269 0.069060 31 30 36
-0.127624 -0.049377 0.021882 31 32 31
-0.023722 -0.288304 0.093743 213 215 215
-0.086400 -0.226502 0.025669 24 30 126
0.072777 0.341546 0.028046 245 246 246
-0.102530 0.174896 0.070758 21 27 107
0.295879 -0.035758 -0.026295 250 251 251
-0.029235 0.287088 0.060530 22 30 58
0.195450 -0.194258 0.011613 220 221 221
-0.081559 -0.210497 -0.100797 240 240 239
0.234012 -0.135515 -0.022177 23 22 27
0.342986 0.003263 0.009882 253 254 252
-0.098040 0.174043 0.056388 19 27 101
0.326978 0.001642 -0.052850 24 24 41
-0.101836 0.169013 0.082090 18 23 106
0.185055 -0.212930 0.027557 184 185 185
0.270775 -0.074646 -0.001229 251 253 253
0.083696 0.342062 0.049050 248 249 249
-0.077729 -0.209368 0.029997 25 37 125
-0.027459 0.307411 0.044852 30 29 32
-0.096636 -0.196810 -0.010387 19 25 122
-0.117643 0.097747 -0.005112 19 25 104
0.022821 -0.340051 0.006824 31 47 126
0.381105 -0.042972 0.005731 250 252 251
-0.131048 0.003980 0.003910 240 241 241
-0.122046 0.089120 -0.014205 29 34 112
0.266199 0.118179 0.000209 253 253 252
-0.088003 0.187456 -0.093296 33 39 46
-0.106358 0.070586 0.073448 30 29 31
-0.083199 -0.221725 0.013614 21 28 118
-0.116979 0.099757 -0.009038 22 26 90
0.166546 -0.222624 0.036428 250 251 251
0.173334 -0.225255 0.033692 253 254 253
0.253769 -0.108263 0.016186 253 253 253
0.129109 -0.288270 0.006039 206 207 205
-0.116762 -0.172640 -0.092097 48 51 50
-0.104735 -0.058613 0.068116 45 49 48
0.154187 -0.240598 -0.032647 190 191 190
-0.021489 -0.302918 -0.009815 29 42 134
-0.060719 -0.209963 0.096028 224 223 222
0.078320 -0.340259 -0.009250 252 253 254
-0.032348 0.267717 0.089559 173 172 172
-0.109051 0.123733 0.080376 30 37 115
0.198163 0.182057 -0.025534 175 177 176
0.093201 -0.332707 0.055740 247 248 247
-0.030559 0.264600 0.086847 173 173 173
-0.084953 -0.215056 -0.081623 29 34 115
0.231962 0.145784 -0.008856 27 22 27
-0.040992 0.261467 0.076584 27 29 31
0.176191 -0.191440 -0.040165 253 254 253
0.218664 -0.150356 -0.049447 253 254 253
0.303646 -0.036695 -0.050326 25 23 27
0.153999 0.226714 0.020826 251 252 251
-0.108983 -0.165560 -0.094838 27 27 29
0.218806 0.166057 -0.025950 25 24 29
-0.097145 -0.181037 0.034448 18 25 117
-0.080813 0.180820 0.097515 28 28 32
0.064765 -0.332493 0.037387 229 229 229
-0.027013 -0.314703 -0.069953 27 29 29
-0.126807 -0.107553 -0.078104 28 28 28
0.338799 0.048928 -0.048341 25 24 28
-0.101659 0.121372 0.091967 195 196 196
0.152528 0.236481 0.007658 253 253 252
-0.094303 -0.210382 -0.098673 26 27 125
-0.013229 -0.291852 0.071895 33 58 145
0.094655 -0.305153 0.025296 207 209 209
-0.110384 -0.147520 0.098355 246 247 247
-0.123720 0.126070 -0.103106 30 32 29
0.149963 -0.228981 -0.005640 249 251 251
-0.125624 0.026786 0.080620 250 251 251
-0.130607 -0.027017 0.008695 246 246 245
-0.088012 -0.220047 0.056726 20 28 117
0.179004 -0.213235 -0.034721 252 253 252
-0.052219 0.244563 0.089721 25 26 28
0.062817 -0.333139 0.017137 250 254 252
0.203722 -0.179979 -0.012051 250 252 252
0.168927 -0.205127 -0.019870 251 254 252
0.301141 0.061067 -0.026247 253 254 253
0.153850 0.256190 0.002326 168 168 170
-0.098450 -0.200334 -0.011204 25 31 125
0.220989 0.146380 -0.021365 250 252 251
-0.118341 0.076268 0.013376 19 28 98
0.084446 0.341226 0.038093 229 231 229
0.093923 0.331487 -0.005194 226 227 226
-0.099774 -0.103676 0.073332 235 235 236
-0.110228 0.138146 0.074531 23 28 111
0.035446 0.342622 0.009383 24 28 24
0.046548 -0.329821 0.063874 27 25 28
-0.114647 0.099090 0.087512 207 208 207
-0.129805 0.026373 0.018765 29 28 29
-0.050145 -0.253582 0.074409 33 31 36
0.122817 0.295726 0.037051 202 202 200
-0.065094 -0.260261 0.081519 40 57 148
0.334433 0.048166 -0.030224 253 254 253
0.164795 -0.218438 -0.017463 178 178 180
-0.112169 0.119065 -0.020146 19 23 101
-0.041674 -0.298467 -0.089516 54 57 62
0.281762 -0.070009 0.006585 252 254 251
-0.085966 -0.195169 -0.092298 32 33 33
-0.121918 -0.140734 -0.067976 29 36 85
-0.107476 0.022558 0.011788 221 221 222
-0.127581 0.058124 0.067750 30 34 33
0.215123 0.173017 -0.026846 174 175 175
-0.112377 0.183457 -0.091919 160 161 163
0.315842 -0.024590 -0.019772 19 21 57
0.166494 0.236020 0.010457 250 252 250
0.052591 0.320142 0.039985 23 24 24
0.150549 -0.256928 -0.020674 249 251 249
-0.020243 -0.321495 -0.067692 207 208 206
-0.113968 0.141597 -0.080033 28 24 86
0.052034 0.336755 -0.006845 247 248 248
-0.112079 0.005594 0.012040 30 31 32
-0.113701 0.162563 -0.092301 193 194 194
-0.041595 -0.298578 0.065347 216 215 215
0.248497 0.113935 -0.016260 253 252 253
0.040801 0.328221 -0.002796 236 237 237
-0.116745 -0.138196 -0.004303 26 30 131
0.018121 -0.329434 0.071665 241 243 242
0.049938 0.349440 -0.008389 246 247 247
0.309554 0.055342 0.008565 52 35 42
0.043618 -0.336517 -0.012042 27 25 27
0.211596 -0.155243 0.015241 252 254 252
0.139955 -0.256252 0.009460 249 250 249
-0.107947 -0.059225 -0.001525 247 248 248
-0.109416 -0.035870 0.030761 249 250 252
0.273430 0.112970 0.009791 252 253 252
0.051150 0.344568 0.002304 251 253 252
-0.062806 -0.261452 0.043622 22 32 121
0.067379 -0.353199 0.030850 254 255 255
0.062828 0.319309 -0.005061 166 165 168
-0.122960 0.063361 -0.052663 22 23 93
0.010514 0.308629 0.058178 203 202 201
-0.031406 -0.315345 -0.073710 39 33 36
0.306427 -0.027206 -0.005764 254 254 253
0.127294 -0.294456 0.037536 221 223 222
-0.110526 -0.148275 0.074664 32 31 35
0.061976 0.330458 -0.007499 251 252 250
0.201763 0.181892 -0.027568 251 253 252
-0.077253 -0.216303 -0.099697 227 227 225
-0.071936 0.197563 0.094346 29 26 27
0.130151 -0.248855 -0.014109 173 174 175
0.045342 0.345594 0.011248 230 231 230
-0.074255 -0.243537 0.063896 29 41 124
0.088491 -0.315567 0.021565 249 250 249
0.181645 0.215354 -0.015763 251 252 252
0.375798 -0.049822 -0.001965 252 254 254
0.103660 -0.321414 0.050917 145 146 143
0.003191 0.312956 -0.049494 31 29 25
-0.108067 -0.112605 -0.073209 32 34 33
0.199112 -0.175382 -0.040400 251 252 251
0.160019 -0.234049 -0.039115 253 254 253
-0.029860 -0.298952 0.017377 26 40 126
0.236050 -0.137331 -0.034987 237 237 237
0.352486 0.044160 -0.040838 253 254 252
-0.105621 -0.153689 0.095393 31 29 33
-0.002668 -0.337199 0.027381 32 32 35
0.149974 0.250790 -0.022796 182 184 183
0.015174 -0.315083 0.071524 33 63 146
-0.009147 -0.309423 -0.007770 41 60 141
0.025909 -0.332278 -0.013983 127 134 148
-0.106870 0.142920 0.065919 21 27 110
-0.111596 0.131142 -0.060451 32 36 86
0.197288 0.180026 0.028383 201 199 198
-0.110778 -0.028903 0.014793 30 29 30
-0.112498 0.119410 -0.037042 18 22 104
-0.105175 0.143998 -0.103998 29 28 29
0.243911 -0.109260 -0.021090 250 251 251
-0.112850 0.140274 -0.065212 24 26 94
0.150973 0.251727 0.043502 176 175 175
0.015185 -0.326190 0.003571 36 59 146
0.153958 0.246437 0.037592 183 184 183
-0.128948 0.047115 -0.030897 27 25 26
-0.044389 -0.307885 -0.075066 30 29 32
-0.042268 -0.277359 0.015546 26 36 121
-0.093210 0.136954 0.080708 29 32 32
-0.068063 0.223888 0.072552 21 27 105
-0.109883 0.010104 0.030042 223 223 221
0.006989 -0.331560 0.072465 28 31 32
-0.074620 -0.244768 0.008258 21 27 125
0.099648 0.317234 0.035059 252 254 253
0.346790 0.015814 0.015537 252 254 251
0.034632 0.331587 0.065895 207 211 214
-0.005012 0.277886 0.061519 32 26 23
0.135498 0.252632 -0.013096 250 251 251
-0.126233 0.106385 -0.091508 32 31 29
-0.087101 -0.215147 0.065617 19 28 123
-0.067925 0.260073 0.081663 26 27 29
-0.118491 0.065973 0.042197 18 25 111
0.187040 0.201281 -0.004135 28 25 58
-0.111565 -0.144339 0.049592 28 39 132
-0.111332 -0.085987 -0.037439 29 31 32
-0.054498 -0.271690 0.090461 251 251 252
0.305630 -0.023570 -0.012177 253 255 253
0.229106 -0.120585 -0.017319 252 254 253
0.279529 -0.059008 -0.045095 249 250 249
-0.075089 -0.238517 -0.023412 34 44 144
0.344098 0.041295 -0.049898 253 254 252
0.150727 0.257013 -0.005462 193 194 194
0.122437 0.299690 0.009784 252 254 253
0.135568 0.250000 -0.022575 180 181 183
0.159838 0.216614 -0.026406 176 177 177
0.028996 -0.337902 0.027038 42 67 149
0.055984 -0.326666 -0.021717 249 249 248
0.330503 0.032838 0.024889 252 253 253
-0.040085 0.264842 -0.088823 30 30 31
0.193028 -0.189717 -0.016022 177 178 179
-0.079940 0.249893 -0.102725 37 28 29
0.033404 -0.346374 0.028039 94 112 153
0.323258 0.052939 -0.011068 253 255 254
0.150815 0.255974 -0.025067 250 251 250
0.167334 0.225603 -0.025738 250 251 251
-0.116362 0.018060 -0.010492 42 44 44
-0.099476 0.173582 0.062729 20 25 102
-0.118898 0.122795 -0.075656 23 26 75
-0.113960 -0.012648 0.080789 250 251 251
-0.125335 -0.026130 0.066487 249 252 252
0.369852 -0.032158 -0.036563 25 24 28
0.074133 -0.353258 0.043628 245 246 247
-0.088121 0.210565 -0.002551 27 32 95
-0.067415 -0.232377 -0.026853 27 34 120
-0.123405 -0.090564 -0.059436 249 250 250
-0.111565 0.163229 0.023076 27 31 106
-0.028348 -0.316436 0.074706 209 209 209
-0.076750 0.248117 0.080880 169 170 170
0.220998 -0.157175 -0.026941 220 223 221
-0.099066 0.209804 -0.100117 29 29 31
-0.091609 -0.240802 -0.104388 225 226 225
-0.043750 0.260921 0.038901 18 20 91
-0.125440 -0.065199 0.036516 29 28 31
-0.107369 -0.207925 -0.097279 232 233 232
-0.062804 -0.233186 0.098846 227 229 227
-0.021768 0.286572 -0.087991 178 178 177
0.248071 -0.102796 -0.021992 251 252 251
-0.101793 0.173751 -0.106138 159 160 160
-0.019765 -0.318677 0.072180 202 203 201
-0.076585 0.245668 0.083311 173 173 173
0.006368 -0.325597 0.024380 23 38 139
0.336211 0.030266 0.018592 253 253 253
-0.107794 -0.132657 -0.081264 31 32 30
0.228771 -0.131585 -0.051878 25 27 31
-0.093523 -0.179988 -0.051496 19 23 130
0.311180 0.070673 -0.008866 252 254 252
-0.080320 -0.234829 -0.067592 23 25 126
-0.026424 0.310762 -0.021152 29 24 26
-0.127942 0.065147 -0.017066 30 37 111
-0.114774 0.121360 -0.009088 25 29 113
0.054907 -0.353163 0.023131 247 248 247
-0.091892 -0.207551 -0.102390 19 22 130
-0.130945 -0.005614 0.022633 229 229 229
0.339602 0.049771 -0.044070 23 22 26
-0.034578 -0.281329 0.044423 29 44 118
-0.102216 0.142517 0.054002 26 29 107
0.386127 -0.057380 -0.013486 251 252 251
0.067980 -0.343833 0.055776 28 27 29
-0.087310 0.219512 -0.093395 24 25 30
-0.093101 -0.212116 0.073154 23 32 122
0.138402 -0.243545 -0.029900 250 251 250
0.107386 0.283805 0.034410 253 253 254
0.243287 0.146323 0.001144 251 252 251
0.336591 0.009012 -0.029363 252 253 253
0.124458 -0.284514 0.044761 197 198 199
-0.134348 0.037960 0.040020 29 31 33
-0.108666 0.048228 0.063012 210 211 208
0.173843 0.234847 0.023022 248 249 249
-0.125833 0.016793 -0.012487 40 38 41
-0.054459 -0.272156 0.094528 219 219 221
0.359134 -0.005523 0.015476 249 250 250
-0.119950 0.074849 0.008013 41 53 133
0.306195 0.079425 -0.032370 249 251 251
-0.115872 0.114868 0.080051 32 33 36
-0.035424 -0.304170 -0.005531 39 51 72
0.016080 -0.321472 0.052633 36 58 135
0.242948 0.126723 -0.023121 253 252 254
-0.112372 -0.065481 -0.021248 239 240 240
0.068184 -0.345635 -0.003574 253 255 253
-0.106917 -0.158397 -0.039696 21 27 125
-0.063374 -0.267819 0.017718 26 34 123
-0.127555 -0.030743 0.041575 251 252 252
0.035634 -0.340354 0.046261 50 76 144
0.188026 0.205092 -0.002712 177 176 174
-0.127916 -0.094599 0.086432 240 241 241
-0.018816 -0.318552 0.066967 43 65 147
-0.011099 -0.294203 0.090530 32 33 37
-0.087435 -0.242109 -0.106708 229 230 230
-0.114247 0.131200 -0.012666 31 36 105
0.364429 -0.016364 -0.028963 253 254 253
-0.123465 -0.090829 0.007914 21 23 118
-0.097328 0.183280 0.046851 23 31 88
0.101713 -0.311538 -0.024977 253 253 253
-0.118826 0.048162 0.024727 37 45 130
0.007021 0.301561 0.076383 23 24 26
0.070072 0.356575 0.024868 252 252 253
0.007554 -0.304263 0.074949 26 26 29
0.112687 0.283911 -0.013882 174 174 175
0.063344 0.266575 0.027795 36 50 113
0.011897 -0.331524 0.026544 32 51 135
-0.100307 -0.165547 -0.087599 243 243 243
-0.104293 0.212906 -0.105774 29 28 31
0.093027 -0.326860 -0.017282 251 252 251
0.047383 -0.349968 0.041059 112 125 150
0.348703 0.020748 0.002848 252 253 252
0.049636 -0.325920 -0.011194 249 252 252
-0.131673 0.001757 0.021418 214 215 214
0.242174 0.145277 0.019301 252 254 253
0.325377 -0.010763 -0.025090 252 254 252
-0.089889 -0.167175 0.095158 34 32 40
-0.073790 -0.219929 0.103590 228 227 227
-0.118362 -0.177141 -0.086405 234 234 233
0.161349 0.222753 0.000614 252 253 252
0.360543 -0.002104 0.005303 253 254 253
-0.093396 -0.201206 0.022776 22 28 122
-0.113300 -0.064567 0.003478 236 237 237
0.069275 -0.349544 0.020662 249 250 248
-0.109663 0.140074 0.095822 159 161 159
0.139910 -0.263761 0.040034 188 189 188
0.090494 -0.345428 0.007789 127 130 130
0.261219 0.123230 -0.012085 21 25 65
0.073655 -0.357500 0.024804 171 171 168
-0.116796 0.054565 -0.062743 40 36 36
-0.066211 0.235350 0.013342 20 25 90
0.209524 -0.156697 -0.042534 24 23 28
-0.112853 0.147875 0.017398 31 39 104
0.199069 -0.170812 0.026333 249 250 250
0.004264 0.289484 0.051722 24 26 89
0.051581 -0.348229 -0.019356 95 97 84
0.102219 0.301526 -0.018203 221 222 222
0.096668 -0.315532 0.060800 253 253 255
0.109686 -0.304136 -0.011327 239 240 240
0.261044 0.120577 -0.002654 251 251 251
0.350619 0.047874 -0.029229 250 251 251
-0.117852 0.090956 -0.007637 30 32 113
-0.115383 0.136585 0.067924 22 25 114
0.101185 -0.329126 0.038108 193 194 193
-0.127313 -0.011988 0.058039 234 234 234
-0.018694 -0.312085 -0.014747 30 32 34
-0.100456 0.180777 0.084025 26 33 85
0.013697 0.297358 0.064266 29 24 22
0.085745 -0.320127 -0.013723 216 217 216
-0.067319 0.228981 -0.100871 28 28 30
-0.120133 -0.097885 0.012408 21 27 122
-0.135601 -0.056258 -0.021013 30 30 31
0.127033 0.259094 0.032224 253 254 252
-0.122457 0.091678 -0.020747 18 19 95
-0.127609 0.019437 -0.038693 238 238 239
0.021072 -0.337209 -0.029242 206 206 205
-0.124642 -0.071656 0.060758 19 22 117
-0.097302 -0.168690 0.068607 27 36 133
0.313997 0.046430 0.031003 252 253 252
-0.063224 -0.229824 0.084619 226 228 227
-0.110392 0.146537 0.027050 21 27 107
0.186034 -0.207418 0.010634 251 253 253
0.062106 0.330558 0.041440 248 248 248
0.056260 0.326655 -0.002931 246 246 246
0.080222 -0.319790 0.002590 253 254 253
0.209629 -0.151870 -0.039092 252 254 251
0.093667 -0.330929 0.032010 250 253 251
-0.087250 0.161652 0.088656 27 31 32
0.262901 0.124627 -0.022207 24 24 29
-0.050652 -0.240331 0.085948 216 219 219
0.119220 0.269073 -0.017212 251 252 251
0.036797 -0.353403 -0.013626 251 254 254
-0.027361 0.260310 0.073611 30 32 35
-0.071683 -0.239291 -0.098689 30 28 30
-0.118691 -0.142531 -0.023540 20 25 116
-0.122740 0.094237 -0.013866 20 23 99
-0.042346 -0.279066 0.087401 233 235 234
0.365557 -0.035284 0.002318 252 253 252
-0.118459 0.006887 0.007697 31 28 31
0.311851 0.052495 0.019554 249 249 249
-0.062066 -0.267787 -0.093362 24 26 130
0.317051 -0.012275 -0.056451 26 26 28
-0.091843 -0.212026 0.054256 30 39 130
0.143022 0.263572 -0.018973 186 188 187
0.201096 -0.163849 -0.033683 220 221 221
0.246659 0.131366 -0.028194 252 254 253
-0.026257 -0.298244 -0.061690 29 35 127
-0.115363 0.130239 0.081929 26 29 30
0.091473 0.309084 0.025949 251 253 253
0.267655 -0.102697 0.012369 254 255 253
-0.118638 -0.167617 -0.086389 27 28 28
0.186403 0.207753 -0.016259 175 176 177
-0.041790 -0.268807 -0.016454 26 39 134
0.086997 0.308996 0.015365 253 254 253
-0.027641 -0.302662 -0.015735 25 33 135
0.131459 0.258930 0.044953 252 254 253
0.002158 -0.307567 0.076158 43 70 150
-0.075173 -0.210633 0.073997 30 33 37
0.136725 -0.271490 0.015634 214 214 215
0.315587 0.046314 0.001481 252 254 252
-0.036013 0.293428 0.068528 189 189 189
0.009355 0.319719 -0.034554 27 28 29
0.042081 0.328022 -0.021295 31 26 28
0.328724 0.042578 -0.012364 25 24 28
0.172691 0.220682 -0.024298 190 188 189
0.035878 -0.339420 0.025699 36 65 156
0.117515 -0.272296 -0.019534 188 189 188
0.109105 0.292975 -0.002863 167 166 167
0.199247 -0.188862 0.033049 254 253 254
-0.110317 0.054350 0.069915 28 27 30
0.083020 0.334176 0.052601 252 254 253
-0.109873 0.156627 -0.075345 24 28 76
-0.130749 0.023265 -0.021163 236 237 238
-0.124158 0.069310 0.002371 21 23 108
-0.126847 0.002009 0.069068 29 32 32
-0.130372 -0.031139 0.037327 31 31 33
0.043915 0.314700 0.015841 27 28 30
0.176995 -0.218120 0.011224 252 253 252
0.064410 0.363120 -0.013810 252 253 253
0.215956 -0.159428 -0.042907 25 25 28
0.143408 0.265465 0.022308 252 253 252
-0.028692 -0.313928 -0.071872 209 211 209
-0.037031 -0.277205 0.000540 42 56 139
-0.111128 -0.132919 0.006923 24 29 118
0.324659 0.013882 -0.053356 24 27 28
0.066150 -0.346536 0.059406 252 254 254
0.339336 -0.009855 -0.007402 252 252 252
-0.126723 0.068823 -0.046051 203 203 202
0.041861 0.306172 0.065387 21 20 27
-0.047634 -0.266304 -0.087600 32 34 129
0.157776 -0.220607 0.038041 22 28 76
-0.077041 -0.274928 -0.097956 211 213 214
-0.113208 -0.076845 0.051046 240 240 240
-0.073601 -0.242772 0.053322 20 30 120
0.204038 0.173315 0.013970 251 252 252
-0.127242 0.036286 0.002336 29 31 32
-0.115622 -0.120529 0.007709 28 31 116
-0.027681 0.280134 -0.087229 29 26 28
-0.103096 -0.209572 -0.097322 27 29 30
-0.113956 0.094744 0.073041 26 27 28
0.372141 -0.043188 -0.034047 250 251 250
-0.095746 0.180991 0.071419 18 23 102
-0.059032 0.250239 -0.037016 28 32 55
-0.109141 0.130703 -0.041713 35 49 95
-0.083882 -0.219984 -0.004389 23 29 119
-0.110441 -0.163390 -0.086382 252 253 253
0.180456 0.198880 0.025451 170 171 171
0.164294 0.239098 0.037551 253 253 252
-0.093609 -0.227873 -0.107303 35 36 33
-0.107326 -0.070038 0.038435 231 232 233
-0.105034 0.163599 0.069037 21 27 108
-0.001762 -0.295541 0.087745 29 26 33
0.375924 -0.050847 -0.019984 252 252 252
-0.115835 -0.117954 0.043897 22 27 119
0.240316 0.132848 0.036083 252 253 252
-0.112774 0.131227 0.005362 21 28 101
-0.124284 0.056546 0.057551 33 40 124
-0.116212 0.042855 0.001311 33 42 129
-0.047305 -0.283728 0.091656 26 27 30
-0.083536 -0.218311 0.024123 20 29 126
0.183223 0.196156 0.011039 249 250 250
0.252473 -0.098187 -0.010753 250 252 251
-0.049068 0.278432 0.070251 177 177 176
-0.094728 -0.189456 0.017051 20 30 121
0.138221 0.253040 0.021118 204 206 204
0.050082 0.339692 0.049825 29 21 21
-0.060149 0.252688 0.035302 23 29 73
-0.067429 0.237215 -0.061295 23 30 49
0.108377 -0.301907 -0.027930 250 253 250
0.345748 0.051919 -0.064244 26 26 26
-0.110532 0.137066 0.054631 30 37 106
-0.111931 -0.035102 0.026445 28 29 31
0.219503 0.160727 0.043901 254 253 253
0.093697 -0.340259 0.033288 34 30 30
-0.066047 -0.227727 -0.106852 225 225 226
0.120852 -0.297683 0.032806 203 204 204
0.151910 -0.239172 -0.025988 153 153 155
0.095268 0.333535 0.053266 252 252 252
-0.120579 0.055256 0.002725 22 27 115
0.009456 0.291187 0.055948 31 29 30
0.110618 0.298796 0.001076 253 253 253
0.071753 -0.350290 0.046850 105 120 149
0.065298 -0.334493 0.025289 249 251 250
-0.120633 0.150623 -0.092633 30 31 33
0.233000 0.139841 -0.003836 28 24 29
-0.118128 -0.081186 0.035390 19 27 117
-0.121015 -0.101419 0.008080 30 33 132
-0.124487 0.087377 -0.086612 28 27 27
0.177645 0.226567 0.005239 250 252 252
0.211682 0.167176 -0.030703 28 27 30
-0.082871 0.202029 0.097712 170 171 170
-0.038620 0.275740 0.008184 23 30 56
-0.001253 -0.332234 0.029079 41 61 144
0.287856 0.078106 -0.017289 252 254 253
0.083209 -0.315892 -0.017081 251 254 251
0.127781 -0.296791 0.020133 230 232 231
0.173174 -0.231940 0.026832 215 216 214
-0.092280 0.193836 0.040594 20 29 92
0.264955 -0.077314 -0.026367 252 252 251
-0.103364 0.152099 0.096531 29 26 30
-0.061407 0.227765 0.094745 32 26 29
0.073177 -0.337471 0.015099 252 253 251
0.040378 -0.339644 0.013431 70 91 161
-0.057506 0.260917 -0.024181 25 33 51
-0.048018 -0.279619 -0.008343 22 31 137
0.397799 -0.065185 -0.006919 251 252 251
0.243470 -0.127723 0.018456 254 253 252
-0.133397 0.020755 -0.005975 251 253 252
-0.081529 0.243960 -0.105293 32 28 30
-0.119085 0.086469 0.076165 19 23 110
-0.062201 0.242211 0.062405 26 28 106
-0.112382 0.186279 -0.097340 176 175 175
-0.129611 0.014362 0.055646 27 27 29
-0.130992 0.065864 0.083688 211 213 212
0.005238 0.310990 -0.042475 191 190 189
-0.114671 -0.082469 -0.045370 29 29 30
0.136334 -0.225601 0.009729 25 33 92
-0.095824 0.177834 0.083097 19 24 102
-0.118758 -0.141879 -0.075932 31 33 117
-0.109797 -0.131272 -0.044043 36 49 97
-0.115924 0.072683 0.089707 32 32 33
-0.106210 -0.165773 0.098066 28 30 32
-0.113366 -0.020369 0.020792 232 233 234
0.143790 -0.248771 -0.039452 251 251 252
-0.120250 0.106226 -0.011422 19 24 90
-0.077902 -0.232771 -0.074810 22 27 118
-0.110912 0.037032 0.032322 28 30 31
-0.112561 -0.116400 0.000126 25 29 116
-0.101338 -0.169474 -0.028381 32 37 125
-0.002301 -0.306285 0.071233 41 65 146
-0.003311 0.295591 -0.007864 27 28 31
-0.087811 -0.201753 -0.106843 32 34 34
-0.105273 0.210382 -0.105112 29 31 33
0.029786 -0.352245 0.020713 95 110 134
-0.116215 -0.155256 0.091035 225 224 225
0.086420 0.326597 -0.026817 246 247 245
0.127134 0.262390 0.030254 250 251 252
0.075684 -0.332873 0.028807 202 203 200
0.150822 -0.255075 0.021484 226 227 226
-0.032357 -0.309128 0.066477 208 212 210
0.318066 -0.006978 -0.054704 249 249 250
0.021997 -0.320483 0.064082 35 62 133
-0.013332 -0.317589 0.009256 26 36 132
-0.127268 -0.072473 0.078688 34 33 36
-0.104429 0.109172 0.094079 27 28 30
0.138752 0.262785 -0.033645 249 249 248
0.051941 -0.322061 -0.024232 29 28 31
0.007344 -0.324762 0.010831 36 57 153
-0.112956 0.143957 0.010786 22 28 89
-0.089842 -0.220346 0.065323 20 27 116
0.174013 -0.202088 -0.034110 250 251 250
-0.046442 -0.283458 0.024207 35 50 134
0.033734 0.313618 0.055758 24 26 26
-0.125261 0.135566 -0.081046 33 36 36
0.181723 -0.218272 0.036826 250 250 250
0.050777 -0.339581 -0.001235 27 29 30
0.081403 -0.305774 0.035163 208 208 207
-0.116849 -0.112155 -0.029241 22 25 106
0.116428 0.286247 0.052335 118 120 116
-0.100342 0.170038 0.000675 22 28 86
-0.118577 0.103589 0.014933 20 21 94
-0.112773 0.141368 0.080964 40 44 45
-0.084314 -0.251170 -0.088196 31 29 32
0.280209 0.087130 0.010491 253 253 254
0.005347 -0.335967 -0.015026 34 47 137
0.154920 0.261216 -0.012133 248 249 249
-0.089709 -0.182556 0.073518 33 46 139
0.064600 -0.346945 0.062885 248 249 249
0.127781 0.284510 0.046814 216 215 215
-0.050973 -0.278894 0.024790 36 51 153
0.245239 -0.118240 -0.050316 252 253 252
0.014437 0.307493 0.038574 23 26 26
-0.048667 0.279036 -0.088896 31 33 34
-0.105458 0.139471 0.081634 20 28 98
0.026629 0.341399 -0.019386 254 255 254
-0.113076 0.133656 0.005592 22 28 112
0.285526 0.091292 -0.013746 252 253 251
-0.111058 -0.203736 -0.099137 30 34 31
-0.101908 -0.183709 0.057683 34 47 133
0.048782 -0.351779 0.046925 251 253 250
-0.114425 -0.175682 0.081958 30 31 35
-0.121713 0.104109 -0.013870 28 31 97
-0.066181 -0.243109 -0.101100 23 22 118
0.191166 -0.178730 -0.046622 254 254 254
0.249460 -0.098818 -0.042040 25 24 29
-0.125600 -0.061878 0.072634 251 252 251
-0.123618 0.082338 -0.073289 207 206 206
0.279539 0.104550 -0.006803 253 254 253
-0.031585 -0.300936 -0.045914 22 32 128
0.194979 -0.172395 -0.001024 249 250 249
0.119726 0.281734 -0.026363 252 253 251
-0.045882 0.260052 -0.000425 23 32 66
0.040989 -0.340387 0.053202 47 78 159
-0.125951 -0.070458 0.017363 20 21 97
0.346445 -0.006840 0.002568 25 26 29
-0.090719 -0.208999 -0.054064 30 34 124
-0.037305 0.294416 -0.085500 181 180 180
0.148026 -0.263878 -0.001505 252 253 253
0.244320 -0.109685 -0.034864 252 252 251
0.211084 0.160284 0.007975 252 254 251
0.109127 0.311319 0.024251 251 252 251
0.272010 0.108275 0.031106 249 250 249
-0.029729 -0.302909 -0.013481 39 53 146
-0.097144 -0.165288 -0.094742 36 32 33
0.329711 0.011006 -0.053543 25 24 28
-0.039947 -0.278842 0.005525 20 30 123
-0.123240 -0.043050 0.080865 30 31 33
0.192664 0.193322 -0.007841 24 24 65
0.110783 -0.316627 0.019616 245 245 245
0.201223 -0.187980 -0.027223 249 250 250
-0.112443 -0.124629 0.077182 250 250 248
-0.105766 -0.110037 0.075169 28 27 29
-0.113343 0.042043 -0.049058 29 32 31
0.045092 0.338577 -0.001250 30 25 27
0.184587 0.190573 -0.009989 252 254 252
0.168959 0.244919 0.025503 202 202 202
0.020591 0.300033 0.072426 188 186 187
0.145903 -0.246227 0.004337 175 175 176
0.177004 -0.220924 -0.014196 252 253 253
-0.061559 -0.245884 -0.081936 36 40 130
0.000319 -0.313367 0.032678 35 56 140
-0.040066 -0.272936 0.099295 223 224 222
-0.075591 -0.217891 0.079788 25 27 28
-0.079602 -0.210356 -0.096581 29 29 32
-0.058514 -0.271282 -0.041618 23 28 128
-0.110891 -0.101726 0.091964 250 250 251
0.046628 -0.357672 0.015996 247 249 248
0.303686 -0.039330 -0.032598 251 252 252
0.173461 0.214847 -0.026915 169 169 170
0.090116 0.334678 0.042142 251 252 251
0.018441 0.314195 0.020595 28 30 31
-0.116387 -0.119544 0.001499 18 22 114
0.171667 -0.209870 -0.033278 183 183 184
-0.102860 0.189415 -0.069788 19 22 65
0.001519 -0.328986 -0.049829 207 209 208
0.250616 -0.092084 -0.016913 252 253 254
-0.018778 -0.287258 0.078364 41 61 139
0.036866 -0.339804 0.017906 217 218 218
-0.086169 0.225717 -0.044532 23 32 60
0.143444 -0.242565 -0.023149 207 208 207
-0.109344 0.027021 0.065987 29 30 32
-0.002066 -0.319337 0.001000 33 53 149
0.133457 -0.237195 0.030508 26 27 28
0.168945 -0.228642 0.002572 217 220 219
-0.095050 0.188355 0.064006 30 37 103
0.146758 -0.258197 0.046120 199 199 199
-0.131806 -0.064467 -0.015015 242 242 242
-0.108727 0.134366 0.069416 19 25 110
0.009495 -0.329545 0.057197 27 29 30
-0.021973 0.298741 0.010701 26 32 50
-0.056183 -0.283536 -0.099770 27 27 26
0.065139 0.335439 -0.010719 31 30 28
-0.126993 -0.095580 -0.069160 252 251 251
0.131060 0.175118 0.004329 31 42 106
-0.067126 0.248372 0.066082 27 32 102
0.163400 -0.212550 -0.026484 188 188 188
0.118361 0.290307 0.046604 248 249 249
-0.046898 -0.288558 0.043859 29 42 127
0.017290 -0.316068 0.033251 58 80 156
-0.109869 0.167632 0.022286 31 39 97
-0.007735 0.281526 0.079220 26 26 37
0.172195 0.227549 0.038352 252 253 251
-0.113371 -0.065945 0.030389 251 253 253
0.064891 -0.346680 -0.009865 249 251 251
-0.112181 -0.088016 -0.023748 244 246 247
-0.119854 0.054447 -0.038200 29 31 32
-0.071448 0.219406 0.073792 37 51 119
-0.083783 -0.228179 0.048800 21 29 124
0.002167 -0.311851 0.069401 28 54 143
0.152309 -0.260525 0.031932 212 212 212
0.218475 -0.163405 0.000204 215 216 215
-0.013654 0.305547 -0.041401 31 30 30
-0.106763 -0.176573 0.074300 29 30 32
-0.103848 0.139509 0.090191 51 69 132
0.211225 0.163921 0.014448 252 253 254
0.345966 0.015008 -0.031128 25 23 26
-0.110814 -0.070849 0.045322 29 30 31
0.073193 0.356333 0.013231 250 250 250
0.106212 0.316085 -0.007973 252 252 251
-0.114707 0.139919 -0.026346 19 22 104
-0.128368 0.095539 -0.071959 30 30 32
-0.036422 -0.278516 0.044507 41 59 144
-0.105977 0.172210 0.070603 25 32 89
0.188106 0.213196 -0.001310 249 250 250
0.102599 0.329840 0.029513 199 197 197
0.297426 -0.052540 -0.009858 251 253 251
-0.126904 0.060614 -0.034882 29 27 29
-0.034363 0.248348 0.085387 25 27 26
0.092909 -0.314394 -0.000639 235 236 235
0.158367 0.233695 0.040632 252 254 253
0.342237 0.042447 -0.050173 253 254 253
-0.111278 -0.161914 -0.012090 23 27 121
-0.134185 0.034818 0.019614 212 212 212
0.303758 0.077449 0.000922 251 252 253
-0.061521 -0.271058 -0.099884 224 225 225
-0.116434 0.101913 -0.045666 52 67 137
-0.115667 -0.045093 -0.003581 234 235 236
0.281196 -0.070886 0.005689 252 253 252
-0.091658 -0.178374 0.070185 19 29 132
-0.095702 0.203755 -0.113250 31 31 24
-0.126455 0.121277 -0.095876 35 31 30
-0.075943 0.222070 -0.073020 24 31 54
0.197296 -0.190270 -0.031350 251 252 252
0.167344 -0.200217 -0.006348 253 255 253
-0.083296 -0.218845 -0.049597 29 34 120
0.110357 -0.312939 -0.008074 243 244 244
0.202334 0.184491 0.046672 252 253 252
-0.055387 -0.269068 -0.101119 29 31 33
-0.109189 0.117164 -0.089938 193 191 191
-0.129791 -0.052823 0.024752 238 238 237
0.090972 0.297572 -0.021041 150 151 154
-0.085243 0.195360 0.068183 18 25 96
0.019943 0.327242 0.064581 28 24 24
-0.108078 0.037690 -0.005518 27 30 30
0.020239 0.335883 0.063923 208 209 207
-0.032193 0.285392 0.080472 169 171 170
0.025002 0.315268 0.050902 190 190 188
0.127411 -0.271813 0.039777 187 190 189
0.055535 0.337620 -0.009231 207 207 207
-0.072417 -0.227538 0.077922 35 48 131
-0.109266 0.130806 0.046660 27 32 105
0.125317 -0.288441 -0.019637 204 203 202
0.020031 0.327939 0.068330 202 203 202
-0.064502 -0.236218 -0.105107 34 33 34
-0.049983 0.268404 -0.095139 176 176 174
-0.127247 0.031077 0.029086 19 21 112
-0.037406 0.275031 -0.091912 33 27 24
-0.120360 -0.119987 -0.021933 26 30 118
0.086917 -0.305755 -0.007643 252 254 253
-0.116383 -0.147160 0.081213 242 244 244
0.194315 -0.190493 -0.032648 247 248 248
0.261765 -0.101020 -0.007504 251 252 253
0.106404 -0.318533 0.015108 253 255 255
-0.108766 0.123115 0.036895 17 24 106
0.102116 -0.296718 -0.016535 231 232 230
0.073378 0.335277 0.017154 218 217 217
-0.026649 0.307586 -0.038788 181 181 180
0.340131 0.028625 -0.056268 25 25 28
-0.021188 -0.306036 0.057138 27 46 127
-0.065694 -0.254290 0.049382 23 34 120
0.092151 -0.305612 -0.006498 252 253 253
0.238237 0.152170 -0.014320 251 253 252
-0.063963 -0.262175 0.057954 33 47 135
-0.118602 0.022869 -0.014662 221 223 221
-0.005163 -0.324486 -0.013453 39 55 99
-0.039781 -0.306646 -0.073505 206 207 204
-0.131743 0.033577 0.064008 32 29 34
-0.056555 0.246448 -0.015926 24 29 57
0.328114 0.016176 -0.048289 26 26 30
-0.058079 -0.227335 0.085027 218 218 217
-0.077356 0.226493 0.074978 18 24 97
0.008565 0.317278 -0.039683 196 195 196
-0.116553 0.123984 0.066008 29 35 114
-0.101095 -0.180487 0.052933 27 37 128
0.334957 0.007768 -0.035360 26 25 28
0.043861 0.348022 -0.011547 245 246 246
-0.104957 0.147809 -0.104121 27 30 28
0.007343 -0.310669 -0.040555 218 218 216
0.078250 0.316267 -0.022633 217 218 219
-0.113403 -0.130500 0.076534 28 41 135
0.110653 0.288306 0.011182 250 252 250
0.096882 0.320367 0.008519 230 230 230
0.236659 -0.134612 0.019746 253 254 252
-0.107586 0.104172 -0.081529 36 32 33
-0.045890 -0.271433 -0.101395 219 219 219
-0.104409 0.193468 -0.108561 33 36 34
0.072764 -0.347911 0.019911 254 255 254
0.078680 0.347795 0.008839 221 222 220
-0.091406 0.209102 0.093802 159 161 159
-0.109158 -0.161494 0.016343 19 25 117
-0.131779 -0.003792 0.014873 233 234 232
0.263614 0.127222 0.026001 253 253 252
-0.129862 -0.006817 0.030790 234 236 235
-0.102430 -0.148579 0.096712 238 241 242
-0.113257 -0.016590 0.030808 224 225 224
0.274009 -0.065838 -0.048080 254 255 253
0.029286 0.320262 0.000984 193 193 192
0.008034 -0.326157 0.005020 53 73 156
0.237261 0.133156 0.024853 251 253 252
-0.039237 -0.290714 0.067715 34 52 136
0.134871 0.281164 -0.014918 252 253 251
-0.077029 -0.218864 -0.047575 34 41 126
-0.076263 -0.223703 -0.036657 21 29 129
-0.113667 -0.074388 0.002412 30 35 32
-0.076840 -0.237460 0.002938 35 48 139
-0.131123 -0.062266 0.027893 252 254 253
-0.084598 0.178192 0.083151 35 47 120
-0.109214 0.140198 0.019251 20 27 99
0.097477 -0.310050 0.013279 252 253 252
-0.024366 0.288768 0.081350 30 25 25
0.183605 0.219510 0.009404 248 249 249
0.135164 -0.269719 -0.008309 194 195 194
-0.107229 -0.036166 0.074857 230 230 232
-0.091931 -0.149596 0.095735 246 245 245
-0.108652 0.116391 0.075472 39 51 125
0.062692 -0.346892 0.052501 250 253 251
0.073541 -0.346912 0.020057 253 255 254
0.052509 -0.338505 0.036813 205 206 205
0.200139 0.173780 -0.012786 252 252 253
0.118697 0.291194 0.052002 252 253 251
0.105561 -0.325039 0.050184 27 25 29
0.312596 0.067804 -0.005894 254 255 253
0.001469 0.302528 -0.011956 24 24 27
0.193189 0.198118 0.040256 252 253 252
0.054512 0.350324 0.003135 247 249 247
-0.111629 0.173968 -0.102864 54 46 49
-0.096985 -0.192019 0.039818 19 24 114
0.143472 0.274643 0.020826 249 250 250
-0.121752 0.063683 -0.074175 33 34 33
0.287059 0.078539 -0.021941 252 253 253
-0.118658 0.025079 0.011703 220 222 222
0.250169 0.140727 0.010034 250 252 252
0.272358 0.108338 -0.012800 23 27 71
-0.071873 -0.224918 0.099798 225 226 227
-0.107986 0.137245 0.056822 23 26 111
-0.123000 -0.111311 -0.036486 19 22 123
0.245314 0.124752 0.014212 20 24 67
-0.001378 -0.320337 0.057318 32 59 144
0.138477 0.277776 0.029059 251 252 252
-0.134354 -0.081038 -0.039018 241 242 243
0.119361 -0.287447 -0.020140 191 192 192
0.154314 0.247339 0.010599 217 217 215
-0.036390 -0.283242 0.074460 83 90 98
-0.107058 0.130017 0.024242 17 20 84
0.034969 -0.349090 -0.013824 196 197 196
0.228296 0.157947 -0.030327 253 254 251
0.320788 0.001032 -0.031241 254 255 253
-0.136181 0.014962 0.010091 31 31 34
0.057668 -0.348947 0.032594 251 252 252
-0.115097 0.031262 0.062231 232 234 234
-0.066188 0.242801 0.030994 29 25 79
0.048474 0.336469 0.050059 251 253 251
-0.097472 0.159790 0.080945 29 32 33
0.012234 0.335543 -0.023809 28 26 28
-0.123478 0.079314 0.039137 23 29 87
-0.052482 -0.293853 0.080392 212 215 213
-0.125734 0.042045 -0.014079 29 30 110
-0.121545 0.110132 0.079860 31 34 35
-0.118215 -0.028804 0.078450 34 32 36
-0.022047 0.270697 0.062928 28 23 29
-0.035322 -0.297853 0.073208 34 53 143
-0.050234 0.284312 -0.074712 29 32 39
0.180071 0.224889 0.045427 247 248 250
0.231049 0.136264 0.041478 255 255 254
-0.116197 -0.140326 -0.021808 21 23 126
0.209339 0.191973 0.003032 252 252 250
-0.132295 0.047633 0.076299 217 218 216
-0.127558 -0.101671 -0.070311 43 32 39
0.033549 0.336659 -0.020083 29 26 27
-0.093810 0.191851 -0.096882 29 30 32
0.007748 0.298984 0.072941 29 27 28
-0.094651 0.171052 -0.106899 28 24 26
0.315452 0.055704 -0.009791 252 253 253
0.131636 -0.259827 0.022193 220 221 221
0.014273 -0.340412 0.041082 49 76 159
0.018654 -0.330577 0.000389 32 48 130
-0.118774 0.085515 -0.042032 26 30 109
0.073901 -0.329645 0.041735 26 26 27
-0.012666 -0.302245 0.062186 52 74 156
0.027148 -0.353865 -0.018267 76 83 76
0.203809 0.199129 0.021672 251 252 253
-0.128174 -0.149293 -0.094322 31 34 32
0.134354 0.257342 0.016042 252 254 252
-0.115794 -0.087309 0.063739 238 239 240
0.143642 0.271104 -0.009905 246 248 248
-0.107496 -0.156123 -0.080126 248 249 248
-0.107868 -0.100151 0.081833 26 27 30
0.022398 -0.342105 0.025327 239 240 239
0.220959 0.151410 -0.030108 252 254 252
0.009316 -0.319860 -0.013247 27 42 127
-0.103472 -0.186505 0.019379 28 34 126
-0.072795 0.244897 -0.049623 26 27 61
0.089983 -0.339972 0.053821 163 164 162
0.346735 0.044728 -0.055742 252 254 254
-0.085686 0.202212 0.065743 20 23 84
-0.120499 0.140838 0.088129 29 30 31
-0.073272 -0.246874 -0.002708 21 28 119
-0.089405 0.190589 -0.102324 27 27 30
0.346550 0.035245 -0.033217 253 254 253
0.100183 -0.292320 0.040749 253 255 253
0.163646 0.225164 0.033914 173 173 174
0.361580 -0.014995 -0.030877 254 255 254
-0.028658 -0.297059 0.082454 224 225 224
-0.014668 -0.310102 -0.036890 28 35 136
0.136446 -0.261002 0.030369 252 254 252
0.128778 0.248767 0.032131 20 28 77
0.040526 0.349010 0.025812 253 253 252
0.132199 -0.268130 -0.036481 188 189 189
-0.115258 -0.068483 -0.027758 28 28 28
-0.123846 -0.103934 0.002944 22 24 116
0.361842 -0.027051 -0.020262 253 253 252
-0.045567 -0.263969 -0.095985 216 215 215
-0.021369 -0.296557 0.070996 33 31 36
-0.025922 0.275742 0.066202 170 171 170
-0.006464 -0.321414 -0.037792 204 203 203
-0.046364 -0.264090 0.045472 29 45 118
-0.099093 0.206003 0.080496 32 34 34
-0.031628 -0.293973 -0.077702 19 23 128
-0.026002 0.279286 0.062839 29 26 28
0.040192 0.333848 0.062035 235 236 236
0.352802 -0.006332 -0.035305 25 24 28
-0.114589 -0.154175 -0.075383 20 21 112
-0.124575 -0.109153 -0.036174 24 25 114
-0.021563 0.305309 0.050604 27 30 32
0.093052 0.311720 -0.019012 159 160 162
-0.054346 -0.239666 0.092936 27 27 30
0.245955 -0.117413 -0.016932 252 254 253
