ply
format ascii 1.0
element vertex 1235
property float x
property float y
property float z
property uchar red
property uchar green
property uchar blue
end_header
0.278234 0.181194 -0.027863 11 10 15
0.148490 -0.392939 0.039170 12 13 13
0.303115 0.135165 0.006191 255 254 255
0.353040 0.012901 -0.071917 6 5 49
0.365572 0.044216 -0.041944 4 5 54
0.015280 0.351630 0.091472 14 12 12
-0.088801 -0.226518 0.081187 11 13 128
-0.103082 -0.211780 0.001364 8 9 119
-0.125600 -0.175278 0.091448 237 237 237
-0.140200 -0.067034 0.100338 233 235 234
-0.113042 0.186996 -0.073908 8 15 40
-0.028247 0.322315 -0.100552 12 13 13
-0.007500 -0.343805 0.101350 12 13 14
-0.009894 0.320498 0.086418 13 13 14
-0.034679 0.325654 -0.114955 166 166 166
0.276852 0.145578 0.014467 254 254 255
0.042435 -0.356022 0.035849 11 29 129
-0.118742 -0.149608 -0.100779 14 15 13
-0.118054 -0.189399 -0.098898 11 9 122
-0.105033 -0.173434 0.106310 232 233 233
-0.079933 -0.238262 0.098986 6 18 122
0.336700 0.017348 -0.067881 6 7 50
0.012711 -0.348281 -0.088606 13 15 16
-0.140030 0.088192 0.022301 9 10 94
0.059561 -0.375131 0.086503 193 195 195
0.145540 -0.386795 -0.019831 221 219 221
-0.100648 -0.216938 0.120569 224 223 224
0.149478 -0.403867 0.042541 181 181 180
0.063713 0.366705 0.049798 13 14 13
0.345694 0.024455 -0.032210 6 6 53
0.162308 0.375177 0.061584 251 251 250
0.170455 -0.341445 0.036489 215 217 216
-0.143200 0.062096 -0.003912 12 12 13
-0.122725 -0.165124 0.006784 8 8 119
-0.114025 0.184452 0.052336 9 11 78
0.152511 -0.363731 0.025496 255 255 253
-0.142365 0.136529 0.100079 13 13 15
-0.040109 0.297365 -0.113586 10 11 12
-0.127428 -0.181665 -0.102026 9 9 118
-0.129916 0.107105 -0.027628 7 15 55
0.039455 -0.360397 0.000811 7 22 124
-0.126109 -0.163708 -0.052786 10 9 121
0.170196 0.348439 -0.026833 203 205 204
-0.132024 -0.043607 0.003291 13 12 13
-0.123785 0.161942 0.006938 11 16 75
0.246259 -0.172056 -0.047377 254 255 254
-0.130627 0.184896 0.109175 167 167 167
-0.063149 -0.269535 -0.114855 13 14 14
-0.042362 0.283422 0.011282 8 14 41
-0.150545 0.080230 -0.032458 6 10 84
-0.145421 0.059411 -0.006492 14 14 15
-0.099045 -0.226581 -0.059990 11 11 121
0.082388 0.393191 -0.011279 13 13 12
0.239761 0.217949 0.035430 254 255 253
0.162723 0.367852 0.056018 251 252 252
-0.121300 0.173243 0.098412 15 14 15
0.241494 -0.186151 -0.014921 7 6 52
0.004449 -0.339500 0.081191 14 13 15
-0.111673 -0.227364 0.097421 12 13 14
-0.158223 -0.074248 -0.015473 239 240 238
0.000186 -0.336942 -0.046137 6 13 123
0.355154 0.023021 -0.028060 254 255 255
0.232481 -0.205708 0.014237 18 21 68
-0.100596 0.211497 -0.044520 5 14 40
-0.051660 0.269617 0.069849 7 16 53
0.239428 -0.149298 -0.017871 7 9 52
-0.110402 0.167266 0.111470 14 15 15
0.154639 -0.385026 0.028823 119 121 118
0.334004 0.034641 -0.055696 12 13 17
-0.071776 -0.262233 -0.013437 8 14 124
0.125726 -0.384411 0.015287 13 14 14
-0.109679 0.189081 0.096796 174 174 174
-0.146555 0.104848 0.094662 14 14 14
-0.134649 0.152313 -0.038764 12 19 70
-0.135207 0.166217 0.094502 177 178 176
-0.120102 0.008082 0.090233 217 217 217
0.134853 -0.397065 -0.000964 13 13 13
0.271262 -0.124119 -0.038986 252 253 253
0.117554 0.392673 -0.019616 13 13 12
0.185445 0.326052 -0.027725 204 203 204
0.232464 0.253508 0.022130 154 155 155
-0.080046 -0.261307 -0.083090 12 11 123
-0.147946 0.027295 0.081939 13 13 15
-0.136541 0.090613 0.045527 6 6 102
-0.127489 -0.168075 -0.086375 12 7 116
0.080995 0.378432 -0.009743 12 12 13
0.064363 -0.360068 0.091789 12 12 13
-0.050360 0.300692 -0.123279 158 159 160
0.252290 0.186649 0.015406 253 254 254
-0.005554 0.340035 -0.089631 170 171 172
-0.141164 0.115975 -0.080770 10 18 58
0.141619 0.369445 -0.023667 224 225 224
0.154604 0.373375 0.045296 255 255 255
0.076787 0.378538 0.026970 180 179 180
0.111029 0.393968 0.065552 13 11 12
0.010197 -0.321923 0.077426 11 13 12
-0.071744 0.229370 0.098636 12 14 13
-0.056159 -0.304230 0.106009 204 205 203
0.318902 0.061077 -0.068075 253 252 254
0.132844 0.401862 0.044370 13 12 13
0.067452 0.363130 -0.021713 176 176 177
0.238512 -0.164334 0.004953 253 254 254
0.259706 0.207661 0.005474 5 5 53
0.184287 -0.312046 0.006631 180 180 180
0.178926 -0.379808 0.035512 15 14 13
0.225400 -0.228936 0.003076 215 216 215
-0.138787 -0.165868 0.110221 227 227 227
0.022703 0.345474 -0.064882 10 12 13
-0.133826 -0.006761 0.010496 222 222 223
-0.137968 -0.176509 -0.107633 229 227 229
0.136616 0.379535 -0.023451 208 207 208
0.092534 0.395004 0.029224 11 12 13
0.077264 0.368275 0.045234 13 12 13
0.022949 -0.346401 0.070952 9 32 124
-0.087248 0.232511 -0.039936 5 11 34
-0.103660 -0.214557 -0.125200 15 12 14
0.325814 0.006385 -0.083348 253 252 254
-0.075433 -0.272949 -0.128281 14 13 15
0.313385 0.081936 -0.019203 255 253 254
-0.100848 0.215859 0.099764 12 13 14
0.172499 -0.280026 -0.058653 255 255 255
0.305172 -0.038845 -0.037336 253 253 253
-0.134167 -0.033073 0.096804 248 249 249
-0.143104 0.077538 0.067919 8 9 105
0.224106 -0.233790 -0.054208 159 158 158
0.371437 0.036716 -0.072687 252 252 253
-0.140010 -0.105851 0.080437 13 14 14
0.232724 -0.216993 -0.031235 254 255 255
0.206272 0.299495 0.000845 208 209 209
-0.122589 0.154131 -0.002393 10 14 77
-0.148090 -0.088618 -0.046642 13 13 14
-0.104039 -0.241353 -0.131463 219 219 220
0.142587 -0.355070 0.016474 214 214 214
0.184359 0.327815 0.043590 196 196 196
-0.028188 -0.327037 0.083491 201 205 203
0.233703 0.260016 0.015090 252 253 253
-0.098928 0.207419 -0.110776 14 13 12
-0.009140 -0.328852 -0.097523 13 15 16
-0.096588 -0.226500 0.043318 7 11 120
0.305313 -0.039225 0.002225 253 252 251
0.073347 0.379283 0.002301 13 13 12
-0.127297 0.152017 -0.111132 14 12 15
0.009431 0.329995 -0.028941 8 10 18
0.066636 0.381681 0.038030 185 186 186
0.151159 -0.380465 0.034230 189 189 188
-0.110143 -0.230894 0.112468 14 14 15
0.214362 -0.204343 -0.033311 7 7 52
0.456254 -0.136866 -0.050914 254 254 255
0.223357 -0.234899 0.004340 254 255 254
-0.146483 0.062620 0.048293 6 5 101
0.027784 0.353190 0.067315 12 12 12
-0.079151 0.222214 0.089220 8 10 87
0.203432 0.261787 -0.009141 253 254 254
-0.106161 -0.214898 -0.082753 7 7 122
0.039064 -0.359071 -0.011497 7 22 127
0.047825 -0.355896 0.071598 197 197 198
0.297396 0.116146 -0.015073 6 5 55
0.202219 0.301655 -0.009298 184 183 185
-0.025340 -0.315352 -0.024126 6 17 124
0.020408 -0.350929 0.001312 10 22 125
-0.148510 0.065461 0.001829 6 10 81
-0.149299 0.070940 0.074146 15 13 15
-0.021119 0.304243 -0.112708 15 14 13
-0.123515 -0.029151 0.048294 222 222 223
0.039027 -0.370660 0.055413 195 195 195
-0.125467 0.157441 0.091348 10 14 97
0.386972 -0.033102 -0.015368 252 253 253
-0.116000 0.179643 -0.029644 8 14 55
0.459554 -0.154794 -0.023987 255 255 255
-0.050951 -0.283595 0.035066 10 20 125
0.260052 -0.151520 0.003051 254 254 254
-0.128914 0.146094 -0.002396 9 13 75
0.095170 0.370308 -0.022567 178 178 178
-0.049679 -0.296094 0.095924 12 15 13
-0.132162 -0.036132 -0.022434 16 14 15
0.181655 -0.334893 0.014267 169 170 169
0.180291 0.376092 0.050952 187 185 186
-0.146921 -0.077479 0.033773 7 9 121
0.001243 0.334122 0.100626 167 168 168
-0.041184 -0.275469 0.109227 14 12 16
0.027091 0.356515 0.046054 17 9 13
0.010274 -0.337786 0.019503 10 22 129
-0.120411 -0.196676 0.097357 14 14 16
0.039938 0.371040 -0.024256 178 179 178
-0.130231 0.069687 -0.042729 202 202 203
-0.117058 -0.150956 -0.101312 13 14 15
0.105901 0.388755 -0.017526 182 182 182
0.231140 -0.209431 -0.050462 246 247 247
0.125509 -0.407990 0.041886 188 188 189
0.160804 -0.393150 0.061823 182 182 181
-0.067992 -0.273944 -0.109623 10 10 127
0.249518 0.225803 -0.042468 5 5 51
-0.128780 0.095304 -0.085794 12 12 12
0.148422 0.356163 0.009344 253 252 253
-0.151129 -0.024704 0.084889 15 15 15
0.129144 0.383649 0.009079 227 227 227
0.047366 -0.370172 -0.032342 13 13 14
0.002129 -0.338792 0.082071 13 12 15
0.297060 0.152150 -0.010459 254 255 254
0.284145 -0.105280 -0.045084 254 255 254
-0.069527 -0.294386 0.108551 209 210 209
-0.066153 -0.263324 0.084474 7 21 122
0.042399 -0.346587 0.094397 12 15 14
-0.086038 0.220869 -0.115224 161 161 162
0.292225 0.160532 0.006995 252 254 253
0.381240 0.074359 -0.031499 250 251 251
0.344366 0.063390 -0.009854 253 253 253
-0.125024 -0.138490 0.114840 240 240 239
0.272743 0.181311 -0.045048 255 254 254
0.326130 -0.029057 -0.040951 6 6 50
-0.143414 -0.060726 0.052701 7 6 119
-0.015829 -0.319635 0.052222 9 23 126
-0.121826 0.116729 -0.066797 184 184 184
-0.114804 -0.164108 -0.108538 12 12 13
0.328854 0.012427 -0.048990 253 252 253
0.245601 0.221544 -0.014982 12 11 15
0.280023 0.176091 -0.009378 253 253 253
-0.024970 0.318883 -0.094137 13 12 15
0.209324 0.296044 0.008033 178 178 179
-0.050173 -0.325567 -0.108193 202 201 202
-0.073558 0.257574 -0.114923 13 14 14
0.425623 -0.082831 -0.039870 255 255 254
-0.078445 0.230618 -0.125996 12 13 12
0.026294 -0.364044 0.072536 193 194 193
-0.097601 0.206543 0.087679 6 15 73
0.136224 -0.368566 0.057742 228 229 227
-0.154428 -0.058099 0.006372 13 14 14
-0.102864 0.235989 -0.118358 13 12 14
-0.155291 -0.016333 0.014693 220 221 222
-0.090771 -0.240407 -0.042089 11 13 125
0.105378 0.368927 0.041804 183 184 184
0.057427 -0.381270 -0.021136 12 14 14
-0.099974 0.209736 0.076714 9 13 71
0.174035 -0.313058 0.022129 148 152 149
-0.147078 -0.094737 0.091469 13 16 15
-0.153946 0.051344 0.017477 16 17 17
0.192248 -0.310183 0.043738 254 253 255
-0.013230 -0.344606 0.089813 202 203 202
-0.044484 -0.288596 0.068141 8 23 129
-0.001014 -0.352652 0.094170 12 13 13
0.040706 -0.363856 -0.000840 12 26 130
-0.107353 0.201779 0.034395 11 17 68
-0.082204 -0.251210 -0.019140 7 10 123
-0.117087 -0.125727 0.107163 14 11 13
-0.117910 -0.218309 -0.117590 227 228 227
0.182448 -0.303658 -0.042561 254 255 254
0.365657 0.026403 -0.026292 253 254 253
-0.109003 -0.203573 -0.007463 7 10 125
0.298301 0.111303 -0.046729 13 14 17
0.073447 -0.375550 0.031781 11 12 12
-0.017260 0.303070 0.071354 5 14 42
0.063842 0.358503 -0.023597 173 173 172
0.217987 0.235129 -0.001894 253 255 253
0.240726 -0.154790 -0.055480 251 252 252
-0.130530 -0.091330 -0.056550 12 13 13
-0.032536 0.304898 -0.087490 12 12 15
0.239094 0.242312 -0.037032 160 163 161
-0.053575 0.269193 0.049373 7 14 46
0.090113 -0.381098 0.014817 12 12 13
-0.134677 -0.098726 0.103278 14 16 16
-0.107945 0.187254 0.040814 6 14 77
0.136000 -0.416420 0.004076 253 253 253
0.055220 0.368108 -0.017759 9 10 12
0.142942 -0.379028 0.060885 236 237 238
0.411053 0.113178 -0.089705 6 8 54
-0.143197 0.051036 -0.002482 8 7 107
0.200491 0.281108 -0.041757 253 254 255
-0.126512 -0.218262 -0.112859 226 226 226
-0.065035 -0.271729 0.090413 9 20 128
0.104439 0.399603 -0.007956 193 192 193
-0.133473 0.110330 0.077490 8 8 102
0.252237 0.181868 -0.047314 4 5 51
-0.051497 0.274809 -0.022916 7 12 34
-0.144462 -0.080094 0.083304 239 239 239
-0.114310 0.170733 0.081330 7 12 86
-0.037408 0.317868 -0.116069 165 166 166
0.179325 -0.273926 -0.013901 253 255 253
-0.096095 -0.226886 -0.025161 9 11 124
0.307465 0.136413 0.005330 255 253 254
0.295876 -0.066112 -0.078662 11 12 13
0.154339 -0.399007 0.057203 13 13 14
0.077950 0.390545 0.019282 13 13 12
0.268440 0.192731 -0.020486 254 254 252
-0.145303 -0.087615 -0.038230 13 12 13
-0.156534 0.048186 -0.028936 206 207 208
0.377107 -0.021386 -0.022108 6 8 50
-0.059311 0.250038 0.097211 155 155 155
0.220121 -0.232055 -0.027700 212 211 211
0.060922 0.356115 0.013194 5 10 13
0.242724 -0.142820 -0.067421 255 254 254
-0.101145 0.212171 -0.016067 7 10 46
-0.055730 -0.283127 0.017379 8 18 125
-0.093751 -0.223042 0.116291 12 14 14
0.064695 0.369501 0.090966 177 178 177
0.015170 0.348210 0.076365 10 10 13
-0.126548 -0.083645 0.084375 13 13 14
-0.132711 -0.125633 0.075275 8 10 121
0.156624 -0.366936 -0.031092 210 210 210
0.001328 -0.330316 0.038121 9 28 134
0.140355 -0.411418 -0.000673 171 172 171
-0.130587 0.139207 0.036052 8 11 90
-0.068424 0.271333 -0.107971 12 11 13
0.350141 0.041925 -0.069469 12 13 13
0.234357 -0.157965 -0.010722 254 254 254
0.239111 0.200947 0.010947 6 8 54
-0.130630 -0.173338 0.109106 229 231 230
0.147049 -0.350348 0.013386 255 255 255
0.151448 0.408802 0.036175 12 10 11
0.240447 -0.200119 -0.026478 172 174 173
-0.075655 0.247947 0.017748 6 11 53
-0.148475 0.036697 -0.019069 12 12 12
-0.094296 -0.239804 -0.104549 8 7 122
-0.143496 0.083133 -0.032090 7 11 80
-0.123794 -0.206711 -0.106740 226 226 226
0.330300 0.050672 -0.030300 252 252 251
-0.048612 -0.292740 -0.037545 12 17 127
-0.081251 -0.255169 -0.045370 12 15 123
0.039995 -0.340412 0.095633 203 204 203
0.170905 -0.294225 -0.030761 172 172 174
-0.089271 -0.222523 0.073276 6 16 123
0.323790 0.061967 -0.052844 254 253 253
0.234354 -0.166948 -0.069766 252 252 252
0.183673 0.284638 -0.029677 253 253 253
-0.141204 0.112770 0.088633 11 13 13
0.048655 0.350033 0.035656 10 14 20
0.099867 -0.376573 0.054585 13 13 14
-0.132368 -0.181179 -0.118400 14 13 14
0.176504 -0.317342 -0.043958 253 254 255
0.259767 -0.150121 -0.036060 254 255 255
0.178700 0.300535 0.030094 254 254 253
0.250561 -0.162652 -0.062695 255 255 253
0.039584 -0.360044 0.066280 199 197 198
-0.126708 -0.035505 0.039494 13 14 15
0.163312 0.407256 0.021383 12 10 11
-0.087415 0.226951 -0.123956 153 154 151
0.419140 0.120481 -0.088865 253 252 253
-0.120686 -0.182562 -0.094709 7 6 120
-0.093783 0.218272 0.053335 9 16 64
0.122155 -0.369694 -0.023595 255 255 254
-0.056209 -0.279531 -0.112446 14 13 14
-0.132414 -0.112687 0.110388 12 13 14
-0.122069 0.203586 -0.113527 16 12 15
0.183679 0.334573 0.049182 253 254 255
0.173791 0.349147 -0.015446 203 203 203
0.221524 -0.244070 -0.034054 181 181 182
-0.050642 0.272611 0.080598 8 15 55
0.319642 -0.001564 -0.043764 5 5 50
0.435929 -0.102380 -0.033661 255 253 252
0.352866 0.048778 -0.061457 7 7 51
-0.139126 0.110301 -0.026530 7 13 68
-0.029388 -0.337228 -0.109974 199 200 201
-0.142992 0.051277 0.052671 206 204 204
-0.126556 0.039344 0.069365 14 14 15
-0.148319 0.076560 -0.005921 6 10 90
-0.126973 -0.036439 0.043782 13 14 14
0.378285 0.067641 -0.049589 11 12 14
-0.124508 0.130498 0.087548 12 14 14
-0.086980 -0.224991 -0.119182 222 219 222
0.125672 0.390318 -0.014772 247 248 247
0.010212 -0.342098 -0.005950 9 21 126
0.123940 -0.396090 -0.008241 12 13 14
0.120996 -0.378531 0.070519 14 13 14
0.053429 0.370977 0.030021 12 12 12
-0.042922 -0.334728 -0.100335 205 202 205
-0.135780 0.125178 -0.054765 9 11 63
0.309510 0.101514 -0.048552 253 254 254
0.055033 -0.378873 -0.029402 12 13 14
-0.147411 -0.121196 -0.066202 234 233 235
-0.105893 0.183003 0.095800 16 16 17
0.065743 -0.379238 0.059133 16 44 127
0.154450 0.383331 0.023800 170 168 170
0.026755 0.360197 -0.057274 10 12 12
-0.122075 0.167844 -0.084808 7 11 42
-0.014619 -0.336110 0.085526 15 14 16
-0.082015 0.225229 0.115955 13 13 12
0.182224 -0.252795 -0.061193 10 9 55
0.309577 -0.045933 -0.076799 12 12 14
0.182029 -0.281040 0.035200 254 254 252
0.114278 -0.397032 0.039384 12 13 12
0.088796 0.370822 0.017065 9 11 12
-0.133801 0.059486 -0.032432 202 203 201
-0.123258 -0.168619 0.063466 7 11 120
-0.075726 -0.306597 -0.107364 209 207 208
0.212141 0.278416 -0.032417 255 253 255
-0.026561 -0.332739 0.087669 201 202 202
0.247857 0.232166 0.011924 10 11 58
-0.129678 -0.195089 0.099101 14 15 16
0.465589 -0.162204 -0.038495 253 255 255
0.159431 0.388041 0.061066 221 219 220
-0.055282 0.266233 0.021769 8 14 50
0.231856 0.257675 0.043080 254 254 254
0.002417 0.321680 0.106698 165 163 164
-0.109723 -0.211583 -0.043577 7 8 119
0.167785 0.375228 0.060167 12 11 13
0.113350 0.394894 0.010487 255 255 254
-0.100834 0.224262 0.117847 14 14 14
-0.021863 -0.335202 -0.109166 200 200 201
0.320109 0.112933 0.016958 255 253 253
-0.120760 -0.214745 0.105742 223 225 224
0.107093 0.401501 -0.008433 255 255 255
0.366009 -0.001945 -0.001343 255 255 254
0.298424 0.117066 0.025963 255 255 255
-0.136810 -0.106367 -0.024248 10 9 115
0.242262 -0.136944 -0.041699 8 9 58
0.426303 0.142911 -0.090784 253 252 253
0.399246 -0.036977 -0.002603 250 251 251
0.361040 0.041841 -0.015269 8 9 54
-0.149577 -0.064943 0.038048 238 239 237
-0.124739 0.014371 0.033789 207 208 207
-0.015451 -0.337713 0.095087 200 201 199
-0.063587 0.274701 -0.120548 13 12 13
0.144115 0.359903 -0.005119 254 253 255
-0.093831 -0.232291 -0.128543 218 217 218
0.096925 0.385625 -0.025196 14 13 14
0.217224 0.244325 -0.018578 164 166 165
-0.151503 -0.027853 0.075861 225 225 224
-0.122077 -0.172011 -0.078037 10 9 121
-0.035329 -0.327332 -0.097233 204 204 205
-0.130573 -0.142400 -0.038765 8 9 120
0.311981 0.097202 -0.048302 14 14 17
-0.138597 0.110328 -0.032500 8 11 69
0.216033 -0.231117 -0.059433 251 251 252
-0.068665 -0.263941 0.096236 15 31 127
0.337987 0.047592 -0.024623 6 6 54
0.191817 0.285081 -0.021663 255 255 255
-0.102279 0.203847 0.040948 6 13 66
0.073507 0.374543 0.034832 181 180 181
-0.126770 0.125175 0.093654 9 13 103
-0.127824 -0.056424 0.002317 233 234 234
-0.147946 0.053822 0.069420 200 200 200
0.069220 -0.396503 -0.004826 13 14 12
0.224488 0.242856 0.029506 253 255 254
-0.127192 0.064226 0.098146 12 11 13
-0.122241 0.043519 0.078007 13 13 15
0.332511 0.001021 -0.077469 11 11 13
-0.085908 0.250243 0.115251 14 14 15
0.159947 0.376812 0.055061 205 203 204
-0.059815 -0.314467 -0.112357 204 203 203
-0.129745 0.107170 0.062752 6 13 84
0.328423 0.060431 -0.023166 6 5 53
-0.140744 0.088050 -0.010944 6 8 81
0.174457 -0.320121 -0.036363 253 255 253
-0.141709 -0.089994 -0.004053 8 6 115
0.333165 0.057286 0.012956 255 254 255
0.249266 0.189926 0.015306 8 9 52
-0.152069 0.045370 0.043207 16 16 17
-0.073873 0.236403 -0.107051 157 157 157
0.224121 -0.180090 -0.062037 252 254 253
-0.061335 -0.274281 0.001917 10 14 128
0.216938 -0.248609 0.006259 172 174 173
0.129738 -0.415140 -0.006730 178 179 179
-0.009568 -0.327692 0.000529 11 20 126
-0.119185 0.172293 0.037903 9 14 79
0.101808 -0.409738 -0.012278 173 173 172
0.258773 -0.152989 0.008991 254 255 255
-0.126026 -0.175996 -0.081717 10 5 116
0.129739 0.374999 -0.011308 254 252 253
0.166530 0.353113 0.054372 212 211 212
-0.144427 0.082588 -0.032371 6 12 75
0.144958 0.388677 -0.019832 230 231 231
-0.090367 -0.266470 0.115356 14 16 17
-0.146435 -0.012373 0.081995 255 255 255
-0.114513 0.166160 0.097523 14 13 15
0.206689 -0.257133 0.026598 254 254 252
0.210699 -0.287238 0.020956 182 183 183
0.367105 0.056904 -0.082024 10 10 11
0.402746 -0.027405 -0.037690 14 12 15
-0.137058 0.168466 -0.114053 13 13 13
-0.114715 -0.223910 -0.113849 224 223 221
-0.124687 0.109070 0.086359 13 13 14
-0.140540 0.082605 0.042145 7 9 102
-0.006932 0.322008 -0.072147 11 12 13
-0.113130 0.177493 0.048963 7 12 77
0.214192 -0.219905 -0.037111 254 255 255
-0.060953 -0.270205 -0.114341 220 219 220
-0.099373 -0.230558 0.119055 13 14 14
-0.111796 0.225030 -0.112636 158 159 160
0.200945 -0.280764 -0.021659 125 123 112
-0.144961 -0.070185 -0.023752 11 7 101
0.171904 -0.289272 -0.022549 255 254 254
-0.072502 0.245662 0.046340 8 13 60
-0.034451 0.312961 -0.117603 13 12 11
0.204697 -0.274435 -0.032097 253 253 253
0.170962 0.317963 0.026266 252 255 252
0.122453 -0.395055 0.067175 16 14 17
-0.125716 -0.138234 -0.085974 16 16 17
0.217846 -0.245553 0.012545 15 13 54
0.195780 -0.242102 -0.005522 6 8 53
-0.110732 -0.242304 -0.116317 221 221 220
-0.131154 -0.150118 -0.049310 6 7 117
-0.120917 0.097041 0.096106 195 195 197
-0.061011 0.281803 -0.103759 13 14 15
0.319517 0.082127 -0.050120 253 253 252
0.267278 -0.128295 0.007188 254 254 253
-0.148833 0.005360 0.081230 219 217 218
0.255605 -0.161356 -0.072403 252 253 252
0.139746 0.396076 0.026690 254 255 254
-0.151091 -0.121197 -0.076845 240 241 240
-0.149886 0.069974 -0.033954 8 14 77
-0.076864 0.255392 0.116489 12 14 12
-0.070662 -0.268772 -0.093377 10 12 127
-0.083951 0.223063 0.074397 9 17 88
0.184345 0.331164 0.004760 205 205 204
0.177739 -0.336460 -0.030981 196 195 195
0.232205 0.250229 -0.008313 6 6 52
-0.040970 -0.297545 0.028340 9 21 124
-0.108306 0.216929 -0.121330 160 162 162
-0.124481 -0.090011 0.083860 236 236 235
0.241082 -0.164930 -0.067051 6 5 52
-0.125896 0.039607 0.092526 198 200 201
0.157005 0.391380 0.027233 218 218 220
0.150807 0.384448 0.056655 198 198 197
-0.103802 -0.207876 0.067431 6 10 119
0.186282 -0.299926 0.022374 192 192 193
0.285880 0.141669 0.009202 255 255 253
-0.133346 -0.184718 -0.114978 13 15 14
0.199313 0.276851 0.021773 178 177 177
-0.118556 -0.173621 0.052320 9 11 122
0.213194 -0.196029 -0.058201 252 252 253
-0.033932 -0.302874 -0.049734 10 14 124
-0.134274 -0.089108 0.101984 247 249 247
-0.119122 -0.114064 0.095427 240 239 240
0.341878 0.072186 -0.017965 252 253 253
0.036478 0.357754 -0.057736 9 10 11
-0.144817 0.078856 0.022615 4 7 100
0.211806 -0.214094 0.000826 8 7 52
-0.050145 -0.288690 0.002733 7 14 123
0.226684 0.244209 0.017477 161 162 163
-0.047870 -0.279145 0.113463 12 14 15
0.461239 -0.147841 -0.060041 255 253 253
0.308582 0.086654 -0.038263 12 10 15
-0.056881 -0.301646 0.096035 207 208 208
0.226121 -0.174697 -0.065329 252 254 254
0.227284 -0.205014 -0.058453 253 254 253
0.141730 -0.387248 0.062961 255 255 255
0.141161 0.355665 0.003703 252 253 253
-0.130867 -0.135664 0.066674 6 9 120
-0.150209 0.116451 -0.090031 14 13 13
-0.002972 -0.332566 -0.101939 204 204 205
0.000401 -0.329125 0.043908 13 29 130
0.070029 -0.363086 0.059776 12 11 14
0.192453 0.278095 0.018329 173 174 173
-0.042980 -0.297345 -0.035712 12 19 131
-0.059350 -0.277384 -0.124107 209 210 211
-0.135907 0.120667 0.037774 7 10 92
0.331794 0.043573 -0.000250 254 255 254
-0.139331 -0.099335 0.026096 7 8 119
-0.146083 0.067384 -0.001326 14 14 15
0.099550 -0.408867 0.025724 180 183 181
0.139971 -0.365627 -0.027270 212 211 213
0.385230 0.095921 -0.069190 5 6 47
0.118822 -0.399316 0.033419 236 236 236
-0.053517 -0.295928 -0.108541 14 12 16
0.356709 0.037217 -0.036000 7 7 49
-0.110918 0.142398 0.094128 13 13 13
0.367714 0.051425 -0.079683 12 11 14
0.085385 -0.399103 0.061606 185 186 184
0.001981 0.305029 0.092867 163 165 162
-0.122969 0.167824 0.004347 12 17 73
0.166655 0.324402 0.007970 197 197 197
0.198958 0.273653 0.031362 254 255 255
0.220305 -0.243256 -0.011753 151 152 152
-0.142288 0.065333 0.035658 7 13 97
0.259687 0.208434 -0.021963 254 253 252
0.381743 0.059242 -0.045973 7 6 47
-0.124038 -0.176678 -0.083440 9 9 118
-0.101810 -0.230952 -0.056956 9 11 124
-0.140981 0.058199 -0.008578 211 211 209
0.165191 0.364966 0.045220 232 233 233
-0.127356 0.018379 0.009099 15 14 15
-0.069407 -0.261586 -0.115846 13 13 14
-0.124291 -0.051032 0.095660 229 230 230
-0.142384 0.057252 0.007202 14 15 15
-0.075964 0.245362 0.076652 4 9 70
0.370274 0.046266 -0.034827 253 253 254
0.083597 0.389707 0.019016 187 188 188
-0.126625 0.058478 0.019148 203 202 202
-0.129282 -0.052807 0.037209 13 11 12
-0.124083 0.116119 -0.074016 184 184 185
-0.094986 0.224408 -0.057881 8 14 32
0.048636 -0.370805 -0.036388 190 190 191
-0.043668 0.309486 -0.105688 164 164 165
0.111652 -0.396619 0.002648 14 12 13
0.285047 0.122581 -0.039804 252 252 251
-0.125778 0.138207 0.089169 7 7 98
-0.116830 0.167627 0.013066 8 10 71
0.023864 -0.363831 0.088927 196 196 197
-0.141355 0.100215 -0.043948 10 12 70
0.098545 0.372028 0.046510 12 13 13
0.286671 0.156163 0.001292 6 7 52
0.053040 0.369140 -0.019926 8 9 10
0.142659 -0.369562 0.043740 220 220 220
0.302646 0.147619 0.022318 253 254 254
0.089512 -0.400130 0.018837 12 13 13
0.360756 0.000717 -0.060253 11 12 13
0.291098 0.120723 -0.018006 255 254 254
0.046401 0.369014 0.083864 13 13 12
0.302408 -0.050765 -0.074407 255 255 254
-0.112862 0.221131 0.111529 13 15 15
-0.144187 0.072591 0.073493 201 201 200
-0.086748 0.252669 0.108731 152 153 151
-0.124094 0.154005 0.067467 4 7 92
0.223550 -0.223611 -0.055546 154 153 156
-0.067579 -0.266477 0.075026 8 17 122
0.413158 0.119878 -0.087340 13 11 14
-0.012700 -0.329458 -0.039485 8 16 126
0.047974 0.357963 0.057918 13 11 13
0.035881 0.354179 -0.031137 9 10 12
-0.072883 0.280583 -0.115994 14 13 13
0.365932 0.036712 -0.076917 11 11 13
-0.106441 -0.210518 -0.028832 7 8 120
0.018049 -0.351130 -0.019989 9 22 119
0.437314 -0.127186 -0.053223 254 255 255
-0.130204 0.142087 -0.104833 176 177 177
0.159122 -0.335527 0.035361 252 253 252
0.378113 -0.019099 0.005287 7 6 53
0.215841 -0.242325 -0.016128 208 208 208
0.214534 0.249997 -0.036592 156 156 157
-0.058338 0.242478 0.102191 11 13 14
0.361846 0.040763 -0.012469 5 7 52
-0.095038 0.192235 0.109142 167 167 168
-0.030387 0.285423 0.067901 5 11 48
-0.150686 0.095134 -0.043727 14 14 15
0.037043 0.331912 0.092482 167 168 167
-0.146179 -0.008988 0.076084 134 134 135
0.052408 0.369706 -0.047030 180 178 179
-0.082516 -0.257434 -0.114099 13 7 129
-0.074811 -0.264544 -0.066608 12 12 123
0.130037 -0.401604 0.023897 237 236 237
0.184961 -0.303397 -0.024328 253 254 254
0.160499 0.377362 0.018736 222 222 223
0.140614 0.370232 0.024490 227 227 227
-0.098080 -0.206569 0.102682 8 18 122
-0.006374 -0.305150 0.096626 12 14 14
-0.025259 -0.317808 -0.064942 7 12 128
0.207290 0.247652 -0.039227 255 254 253
-0.004658 0.319804 -0.075719 10 11 14
0.106391 -0.374151 0.048028 198 198 197
-0.148250 -0.087890 0.077345 244 246 243
0.057312 -0.388878 0.023402 189 191 190
0.050522 -0.370120 -0.028094 6 18 124
-0.060302 0.261210 0.121640 12 12 14
0.090333 -0.398705 0.054398 13 12 14
0.168503 0.314291 -0.023383 254 254 253
-0.091371 -0.204746 0.092284 24 34 75
0.358608 0.040877 -0.008520 254 252 253
-0.133812 -0.057335 0.009289 232 233 231
-0.145619 0.161066 -0.081850 14 15 18
0.014684 0.308182 0.087710 11 13 15
-0.146676 -0.091265 0.097136 15 14 16
-0.001123 0.333719 -0.082388 9 10 12
-0.013295 -0.335849 -0.085062 205 203 207
0.257319 0.180261 -0.007594 254 253 254
-0.072613 -0.264537 -0.001542 6 13 122
0.176425 0.330855 0.050322 199 199 198
0.350965 0.052122 -0.008320 13 12 27
0.195440 -0.263021 -0.040125 149 151 151
-0.028541 0.288832 0.097367 13 13 15
0.318143 0.116073 -0.018720 253 252 252
0.311386 0.088229 -0.017567 255 254 253
-0.047475 0.289912 -0.121474 17 12 14
0.271762 -0.122126 -0.035800 6 6 50
-0.063155 -0.267891 -0.032530 13 14 129
-0.065291 -0.276349 0.096843 215 216 217
0.151139 -0.387547 -0.002187 253 255 254
-0.130285 0.043901 0.033561 13 13 15
-0.018210 0.317141 -0.086472 13 12 14
-0.069755 0.270535 -0.103349 11 11 13
-0.016953 0.313322 -0.020123 8 13 29
0.116883 0.385184 -0.015739 10 11 11
0.040080 -0.354435 0.028031 13 32 133
0.049723 0.355784 -0.012003 4 10 16
0.273874 -0.090492 -0.048331 253 253 253
0.048703 0.356406 -0.044518 173 172 172
-0.149977 0.027460 0.034854 8 10 102
-0.139961 0.081717 0.080282 10 7 110
-0.063053 0.242465 0.101164 150 153 152
0.210655 -0.211744 0.001591 5 6 53
0.221738 -0.178072 -0.029476 6 6 51
0.202603 -0.280778 -0.008150 253 252 254
-0.140424 -0.081555 0.033447 10 15 126
0.389764 -0.007821 0.005926 255 254 254
0.152616 -0.343176 0.011009 255 255 255
0.213392 0.240131 -0.018649 154 155 155
-0.138464 -0.065162 0.101510 14 15 13
-0.051658 -0.285955 -0.056189 9 12 127
0.152678 -0.405640 0.027149 189 189 189
-0.146779 0.078331 -0.060931 198 197 198
-0.124846 0.149161 -0.111766 174 174 174
0.136502 -0.392216 0.026755 254 255 255
0.143252 0.363713 -0.009457 253 254 255
-0.147230 -0.113767 0.095537 239 240 239
0.206897 0.298528 0.019707 254 254 253
-0.147035 0.038514 0.077127 14 13 15
0.170118 0.355605 -0.015779 206 205 207
0.116648 -0.401271 0.045669 251 254 255
0.076716 -0.382883 -0.029948 189 189 188
0.322395 -0.023288 -0.055429 254 255 255
-0.127407 -0.161057 -0.008144 6 5 116
-0.142160 0.095382 -0.057382 6 15 70
0.128439 -0.378158 -0.021223 234 234 233
-0.098787 -0.223175 -0.013307 6 9 125
0.012670 -0.358051 -0.083587 193 194 195
-0.110412 -0.200987 -0.031665 11 12 125
0.145225 0.387538 -0.016177 255 255 255
0.310959 0.089862 -0.027937 6 8 50
-0.010067 -0.323950 -0.061998 9 14 124
-0.119498 0.165150 0.040686 8 10 78
-0.098276 -0.223956 -0.010033 7 9 125
-0.014091 0.312516 -0.060415 9 13 25
0.128221 0.390849 0.015518 230 229 230
0.150103 -0.377740 0.040126 242 244 245
0.099195 0.398252 0.030539 14 14 12
0.175390 -0.308362 0.028546 215 216 217
0.167674 -0.316334 -0.015014 228 229 229
0.370924 -0.016071 -0.061312 8 8 50
-0.106616 -0.157448 0.101548 14 12 14
0.073493 0.391679 -0.022135 14 14 14
0.151790 0.341084 0.004262 254 255 255
0.054514 0.353721 0.077371 11 12 13
0.357369 0.006201 -0.033018 255 255 255
0.159550 -0.406072 0.058187 181 182 182
-0.068293 -0.235606 0.109043 14 14 16
0.416573 -0.067615 -0.011627 252 254 254
0.387335 0.097303 -0.049788 6 7 51
0.037945 -0.357018 -0.025699 10 15 118
0.231584 0.218867 -0.009249 153 154 155
-0.075231 0.251548 0.115214 13 14 15
0.466327 -0.163497 -0.034214 253 254 252
-0.035988 -0.330447 -0.110759 203 201 202
0.150754 -0.318705 -0.037182 253 255 254
0.063699 -0.369396 -0.006082 13 32 136
-0.023422 -0.303527 0.110400 217 219 220
0.341883 0.016506 -0.041996 253 255 254
0.377939 0.046286 -0.055331 255 255 255
0.178077 -0.328445 -0.014560 172 172 172
0.116286 -0.377381 -0.029087 252 252 250
0.109330 0.375060 0.061928 179 178 178
-0.013920 -0.352448 -0.095807 13 13 14
-0.113145 0.184461 0.005654 7 13 61
0.312846 -0.023979 -0.046848 254 253 253
0.003636 0.307080 0.100880 12 14 14
0.186098 -0.284525 -0.037164 161 161 161
0.030692 0.349541 -0.080661 15 13 13
-0.017008 0.304743 0.040340 7 13 39
0.234323 0.238842 -0.045028 255 254 254
0.232210 0.249693 -0.011477 153 155 154
0.200455 -0.260278 0.008138 164 168 167
-0.064873 0.287734 -0.123432 13 12 13
0.249699 -0.170031 -0.019276 253 255 253
-0.097139 -0.229283 0.067927 6 12 122
0.258286 -0.122413 -0.014772 254 254 253
-0.144280 0.075864 -0.068190 198 199 199
-0.055512 0.262412 0.089609 11 13 58
0.195664 0.263526 -0.017369 254 254 253
0.034062 -0.365347 -0.054966 195 194 193
-0.134599 0.116133 -0.056572 7 13 68
0.039278 -0.377099 0.074278 193 195 195
-0.128966 0.097934 -0.077011 13 12 13
-0.130686 -0.150358 0.065038 7 10 125
0.247089 0.219156 0.016285 6 6 52
-0.122824 -0.162551 0.035392 7 10 119
-0.140598 -0.109975 -0.015029 7 6 115
-0.090933 -0.225285 0.089154 7 16 125
0.400858 0.091154 -0.068997 7 7 52
-0.123894 0.045911 0.081509 210 209 210
0.209618 -0.261437 -0.030740 181 181 181
0.275067 0.190866 -0.043891 15 14 13
-0.031786 0.294984 -0.070293 8 11 18
0.174565 -0.288996 -0.029307 176 176 177
-0.055531 -0.289389 -0.066450 9 9 127
-0.108150 -0.147082 0.117478 14 11 12
-0.098094 -0.216009 0.078116 7 13 124
-0.117602 -0.181298 -0.008418 8 8 123
0.119865 -0.385724 0.030720 13 14 14
-0.147831 0.003526 0.084459 219 219 219
-0.089319 -0.251173 0.100365 13 16 16
-0.096879 0.216323 0.071287 8 11 72
0.124573 -0.418964 0.018735 252 253 252
-0.059476 -0.280764 -0.110760 8 8 124
-0.029679 -0.306025 0.064741 9 23 129
0.152803 0.375409 0.024160 224 224 224
-0.103180 -0.204138 0.067009 6 12 122
-0.130512 0.174049 0.109962 13 12 13
-0.028635 -0.309551 -0.075760 8 13 130
-0.075969 -0.284558 -0.117375 209 209 208
0.431149 -0.120008 -0.060410 252 254 254
-0.027730 -0.310398 0.039639 8 23 124
0.050867 0.353150 0.066088 171 171 170
-0.077906 -0.258986 -0.083529 14 10 104
0.213131 -0.198053 0.009158 7 9 62
-0.023232 -0.310768 0.055521 9 26 124
-0.016291 0.324950 -0.108635 14 13 12
-0.090572 -0.211379 0.119020 222 222 221
0.421150 0.143813 -0.084523 253 252 254
0.052609 -0.390666 0.065290 190 192 191
0.050658 0.377378 -0.025695 10 11 12
-0.129227 0.151148 0.092851 9 12 97
0.271175 -0.121418 -0.070426 10 11 58
0.241510 -0.148561 -0.017840 253 254 254
-0.132946 -0.102048 -0.061466 249 251 250
-0.121179 0.160754 0.056904 11 13 82
-0.138586 0.129498 0.083763 13 16 17
0.057225 -0.382328 0.026493 12 15 14
0.309082 -0.054523 -0.053612 255 254 254
0.173036 0.344294 0.056716 212 210 211
-0.146270 0.069140 -0.025709 4 9 86
-0.029363 -0.320711 -0.096056 12 12 15
0.114657 -0.394802 0.003268 13 12 14
0.073817 -0.395627 -0.007694 13 13 12
0.169523 0.361412 -0.015003 215 216 215
0.262553 -0.106765 -0.036873 7 6 53
-0.053402 -0.319098 -0.113297 203 203 202
0.152694 0.387545 0.025945 226 227 226
0.207554 -0.261974 0.025229 145 141 148
-0.133091 0.151863 0.105129 14 14 15
0.336335 0.000635 -0.077834 252 254 253
-0.044082 0.317532 -0.106586 18 10 14
-0.149819 -0.063069 0.065609 234 234 233
-0.133470 0.135786 -0.103546 181 182 182
-0.006064 -0.329478 0.030879 8 24 127
-0.131488 -0.044475 0.018814 225 223 225
-0.039056 -0.302500 0.109082 209 209 210
-0.115936 -0.221380 0.099516 222 223 223
0.219872 -0.241523 0.024106 252 252 252
-0.085122 -0.251463 -0.005848 7 12 122
0.025749 -0.354072 0.019755 18 32 132
-0.100312 0.213906 0.055289 10 16 66
0.052678 0.348782 0.084578 172 171 172
-0.141169 0.113834 -0.011654 11 16 81
0.088308 -0.371918 0.083660 11 14 14
-0.135177 0.072564 -0.027982 14 15 15
0.133396 0.392517 0.016587 188 190 189
-0.014725 -0.320213 -0.099436 203 205 204
-0.036474 -0.303625 -0.018824 10 18 125
0.013497 -0.342651 -0.086171 13 13 14
0.202587 -0.282147 0.030022 161 161 163
0.322655 -0.012289 -0.079065 5 5 52
-0.011232 -0.343375 -0.100305 15 15 16
0.254762 -0.126954 0.004076 6 8 51
-0.110850 0.167863 0.093643 174 174 173
0.192492 -0.251784 -0.020420 232 234 235
0.240585 -0.200209 0.011306 254 252 255
0.069108 0.387809 0.016139 12 12 12
-0.126693 0.111777 -0.069719 14 12 14
0.280778 0.157844 -0.045146 12 11 16
0.408874 -0.072661 -0.020942 255 255 254
-0.058284 0.279858 0.096528 12 14 13
-0.140230 -0.098385 -0.009405 6 9 116
0.009205 0.331855 0.099085 13 13 12
-0.067488 -0.285962 0.113864 215 215 215
-0.062719 -0.272887 -0.106104 13 7 123
0.044014 0.374251 0.077238 11 12 11
0.205368 0.294857 -0.014010 120 123 121
0.115670 0.409767 0.014261 253 255 252
0.444673 -0.136196 -0.044736 254 255 255
0.060668 -0.380838 0.033133 13 12 13
-0.140075 -0.112897 -0.029564 9 10 119
-0.130836 -0.111647 0.079498 238 238 238
0.043390 0.375060 -0.033053 180 180 180
0.273858 -0.111368 -0.073677 12 12 12
-0.126171 -0.152577 0.052783 7 7 123
-0.125640 0.117245 -0.096284 13 12 12
-0.106662 0.220669 0.099160 156 155 157
-0.042552 -0.292865 0.043183 11 22 124
-0.004959 0.318503 0.025165 9 15 31
-0.146314 0.140644 -0.089844 179 180 181
-0.081420 0.213072 0.115882 13 13 13
-0.156160 0.055074 -0.017733 207 206 207
-0.124850 -0.178585 -0.116549 234 234 234
0.371014 0.076240 -0.075919 255 254 254
-0.112436 0.169191 0.112903 14 13 14
-0.090826 0.216862 -0.124134 13 12 12
-0.150621 0.019155 0.063308 249 251 249
0.120352 0.373240 0.059668 174 173 174
0.071382 0.352303 0.086209 14 14 15
-0.139800 0.157214 -0.097461 175 175 175
-0.135482 -0.148769 0.113368 227 227 225
-0.030914 0.316279 -0.106193 12 12 14
-0.124734 -0.174721 -0.037554 7 7 119
0.292218 -0.057844 -0.033144 254 255 253
0.188689 -0.245286 -0.030393 10 14 60
0.149444 -0.345843 0.005093 254 254 255
0.065115 0.364110 0.047238 177 177 178
0.425343 -0.074705 -0.025241 253 255 254
-0.117776 -0.131805 0.102433 13 12 13
-0.138353 0.118451 0.101521 187 188 187
-0.134220 0.051615 0.095759 209 208 208
-0.123984 0.152484 0.055194 8 11 79
-0.101287 -0.219034 0.053285 7 14 127
0.274467 -0.084342 -0.010155 252 252 252
0.311102 0.125276 -0.027883 252 253 252
0.253928 -0.158625 -0.006167 255 255 255
-0.124602 -0.209324 0.106302 227 228 227
-0.141524 0.040348 0.093621 14 15 16
-0.116885 0.147454 -0.118882 13 15 15
-0.145828 0.086971 -0.015772 5 12 83
-0.022702 0.298029 0.087911 8 14 52
-0.075382 0.242873 0.080399 10 16 69
0.001300 -0.347561 -0.085278 13 13 15
-0.139050 -0.103948 0.086249 8 8 124
0.033051 0.347967 -0.047472 6 8 10
0.367623 0.080978 -0.054977 12 11 15
0.157485 -0.377532 0.008262 253 253 253
-0.139639 -0.038879 0.010537 227 227 227
-0.080313 -0.246457 0.091586 9 18 126
-0.012218 -0.345560 -0.106822 197 197 197
-0.118017 -0.221024 -0.112680 13 12 14
0.035535 0.344143 0.012100 9 12 20
-0.038039 0.303900 0.094450 11 12 13
0.290629 -0.068703 -0.008740 4 5 51
-0.064205 -0.293530 0.096376 12 13 14
-0.131085 0.029372 0.001104 13 14 14
0.244609 -0.191520 -0.041884 253 254 253
0.142029 -0.391274 0.060316 232 233 233
0.118990 -0.411063 0.038157 182 183 182
0.277628 -0.110347 -0.000850 252 252 252
0.295223 0.121442 -0.005727 253 254 253
0.305436 -0.049445 -0.076987 255 254 253
-0.127973 -0.171972 -0.094945 232 230 230
-0.007124 -0.329432 -0.055316 8 14 125
-0.028510 -0.315761 -0.016554 7 18 125
0.123849 -0.413170 -0.015051 253 255 254
-0.136710 0.121202 -0.007953 9 12 80
0.162978 -0.352625 0.066131 222 220 220
0.245330 -0.139539 -0.069936 8 10 35
-0.031699 -0.310190 -0.037369 6 13 127
0.058058 0.377646 0.002180 13 13 13
0.399654 -0.038012 -0.048967 255 254 254
0.316294 0.101584 0.024964 253 254 254
0.413660 -0.071155 -0.017474 253 254 254
-0.053870 -0.308757 0.110416 207 207 207
0.263355 -0.124742 -0.070234 11 10 12
0.048075 -0.380242 0.052917 191 192 192
-0.003444 -0.336745 -0.102675 202 202 200
0.218722 0.247716 0.025433 159 157 158
0.226276 -0.183738 -0.069595 5 5 51
0.126888 -0.377533 -0.013127 224 223 225
-0.149797 -0.073049 0.075047 15 15 16
0.106775 0.391337 -0.008797 13 12 13
0.037346 -0.373769 0.085882 189 190 191
-0.119601 0.165366 0.073976 6 10 87
-0.093950 0.213456 0.099648 7 12 78
0.021330 -0.343907 0.057561 9 29 124
-0.127191 -0.027798 0.022686 14 15 15
0.075405 -0.394443 -0.014748 188 187 188
-0.099476 0.212929 -0.030637 6 12 40
0.046663 -0.379111 -0.041857 188 190 189
-0.010891 -0.317079 0.081407 13 27 132
0.224786 -0.236923 0.019881 254 252 253
0.003959 0.324277 -0.072722 7 9 13
-0.135251 -0.141234 -0.054875 11 7 114
-0.109305 -0.195110 0.121217 15 15 15
0.091464 -0.403972 0.024663 184 184 184
-0.111469 0.179438 -0.110360 163 163 164
0.114207 0.392846 0.030926 254 255 254
0.201229 -0.246692 -0.027575 7 6 54
0.203618 -0.280836 0.003065 252 252 253
-0.112590 0.184724 0.079701 8 12 85
-0.127826 0.144261 -0.027729 9 13 68
-0.142097 -0.073749 -0.017762 10 10 114
-0.146234 -0.071285 0.014020 14 14 16
0.149633 -0.389420 -0.009396 251 251 251
-0.144796 -0.039614 0.065463 225 225 224
-0.031632 0.311353 0.107708 12 14 13
-0.096322 -0.221278 0.014931 10 11 121
0.135448 0.376994 -0.006733 255 255 254
0.008053 -0.342379 -0.027634 9 21 127
0.160446 0.338903 0.057597 255 253 252
0.205404 -0.270186 -0.018439 217 217 219
0.219707 0.242693 -0.047870 152 153 151
-0.067772 -0.265429 0.041251 7 17 128
-0.010318 0.309831 0.045929 9 15 39
0.374844 0.015685 -0.002850 254 255 254
0.078122 0.370328 -0.016121 14 9 12
-0.155941 -0.071477 -0.021401 14 16 16
0.444566 -0.112390 -0.019594 255 254 253
-0.080368 0.282099 -0.114697 163 162 162
0.220149 0.275261 0.016461 171 171 172
-0.076218 -0.226379 0.115991 16 15 17
-0.008119 -0.335521 -0.030312 10 21 133
-0.082863 -0.240682 0.073102 10 17 123
0.125650 -0.400693 0.000198 12 12 12
-0.076394 0.252372 0.096052 150 151 150
-0.091838 -0.229180 -0.128163 222 220 222
0.382410 -0.011605 -0.033614 7 6 52
0.150727 -0.332335 -0.010972 254 255 255
-0.082516 0.223082 -0.124660 161 162 161
-0.131606 0.122984 -0.102111 14 14 14
0.139993 -0.408733 0.028644 234 235 235
0.406475 -0.047109 -0.004841 254 254 253
0.191158 -0.284622 0.022729 220 222 222
0.249760 0.230792 0.027610 6 7 55
-0.137308 0.156490 -0.109993 175 174 174
-0.125867 -0.052724 0.065985 14 15 16
0.146982 -0.378957 -0.008048 227 228 228
0.243213 -0.171397 -0.064268 251 252 252
0.019156 -0.351720 -0.083117 197 197 199
-0.115586 -0.194432 -0.069581 8 9 121
0.012548 0.329169 0.069523 8 14 33
0.423316 -0.073304 -0.057029 251 251 252
0.237939 0.204007 -0.027364 254 254 252
0.222734 -0.235374 -0.005398 250 250 251
0.187347 0.288434 -0.000618 253 255 255
0.345631 0.018031 -0.041453 255 255 253
0.299290 0.136983 -0.032651 253 254 253
0.089055 0.375069 0.012902 12 12 12
-0.140303 0.100959 0.016197 5 7 95
-0.152369 -0.074287 -0.035690 227 226 226
0.223277 -0.230719 -0.056082 152 153 154
-0.152878 0.101708 -0.077758 12 13 13
-0.093292 -0.255900 -0.114690 221 220 221
-0.148244 -0.106407 -0.086079 233 235 236
-0.053417 -0.317959 -0.115972 14 15 16
0.301267 0.133981 0.028898 255 254 255
0.210874 -0.202368 -0.047857 11 13 15
0.298337 0.155007 -0.001483 8 8 56
-0.082884 0.240560 -0.017782 9 12 39
-0.098179 -0.237427 0.112375 226 226 224
0.212279 -0.213346 -0.001918 253 254 254
0.131135 0.405105 0.049650 253 252 251
0.396067 -0.051751 -0.060459 12 11 13
0.245714 -0.168001 0.002065 253 252 254
0.019280 0.361914 -0.088831 178 179 178
-0.097990 -0.220166 -0.041242 9 9 121
0.178356 0.305648 0.031722 253 252 252
0.175380 0.353404 -0.021228 253 253 255
-0.135230 0.155849 0.097843 12 13 13
0.347657 0.067256 -0.009024 5 4 53
-0.022859 -0.318361 -0.078735 9 12 123
0.023303 0.329351 0.100528 11 11 12
-0.092907 0.221176 0.059785 7 12 64
0.115031 0.373285 0.057682 177 177 178
-0.085992 -0.245366 -0.129515 13 12 14
-0.153928 0.044440 -0.013830 13 14 14
-0.017194 -0.340836 0.099373 203 202 202
-0.154377 0.006770 0.039554 177 178 177
0.219771 -0.243280 -0.036598 254 253 253
0.213777 0.263423 -0.038078 150 152 152
-0.078751 0.237212 0.115565 14 13 15
-0.144692 0.150003 -0.109933 177 177 176
0.080314 -0.371369 0.048331 194 196 196
-0.066241 -0.263676 0.021002 9 16 122
0.073646 0.367286 -0.006419 8 11 13
-0.088778 -0.238976 -0.046528 9 11 121
-0.084772 0.229482 0.066692 8 11 66
0.211618 0.241129 -0.031865 253 252 252
0.171975 0.348016 -0.026941 204 204 204
0.185539 -0.321875 0.038376 198 199 198
0.384427 0.090178 -0.080901 255 253 254
-0.131217 -0.100898 -0.041808 250 250 248
0.081871 0.370502 0.032831 6 8 13
-0.131320 0.133372 0.104348 14 13 15
-0.148371 -0.036866 -0.005411 227 227 227
0.313472 0.116304 -0.027856 6 4 51
-0.006475 -0.342308 0.108567 188 190 187
-0.136328 -0.112494 -0.015060 6 8 115
-0.099482 0.212758 -0.089763 8 10 27
-0.099319 -0.228802 -0.129825 14 14 14
0.403929 -0.040542 -0.044128 255 254 253
0.232057 -0.168807 -0.063794 253 253 255
0.281197 0.146645 -0.004226 253 253 253
0.107047 -0.380797 0.068308 12 14 13
0.220296 -0.243208 -0.009386 174 173 174
-0.061676 0.254497 0.099588 156 158 158
-0.137664 -0.090461 -0.032919 11 11 13
-0.143263 0.056259 -0.004871 6 11 93
0.160710 0.357969 0.058790 214 213 214
-0.090999 -0.239943 -0.110977 7 6 122
0.286187 -0.095924 -0.031379 254 254 255
-0.112565 -0.190211 -0.030705 11 11 120
-0.138799 0.093469 0.068108 6 6 105
0.058890 0.359376 -0.033869 8 7 10
0.274020 0.197237 0.010092 9 9 37
0.291526 -0.071645 -0.070995 255 255 255
0.083537 -0.377258 -0.000682 14 11 13
0.006934 -0.338647 0.103502 13 14 14
0.167256 -0.362039 0.014154 213 212 214
0.096217 0.365493 0.079536 11 12 11
0.183189 0.312415 -0.027174 254 253 253
0.195799 0.310470 0.002602 208 208 208
0.238285 -0.165371 0.010376 6 8 52
0.153119 0.376933 0.057323 173 172 174
0.355387 0.025982 -0.074782 13 13 16
0.055748 0.377760 0.031344 13 13 14
-0.133911 0.052773 0.034683 208 209 209
0.024179 0.326102 0.083823 167 168 168
-0.152784 -0.073855 0.076085 13 13 14
0.163450 -0.315998 -0.022932 227 227 228
-0.136788 -0.111985 -0.072915 243 242 241
0.383804 0.069386 -0.081424 253 253 253
0.363062 0.002467 -0.009632 253 253 253
0.055846 0.368744 -0.008947 177 176 177
0.065267 -0.365861 0.066437 198 199 197
0.231697 -0.227167 -0.029731 169 170 170
0.409513 0.133082 -0.055215 9 9 50
0.037680 -0.376091 0.051129 196 196 197
-0.127219 0.141426 -0.100332 180 180 181
-0.041113 -0.311750 -0.118832 16 15 16
-0.130294 0.138335 -0.086387 180 181 180
-0.038440 -0.296702 0.087310 8 24 129
0.186296 0.335306 -0.004555 203 203 204
-0.153373 0.003831 0.024687 217 218 217
0.209364 0.280016 0.034723 124 124 117
-0.006833 -0.335935 -0.023156 9 17 128
0.308694 0.102579 0.016967 254 255 255
-0.131573 -0.152425 -0.107202 235 235 235
0.038293 -0.362978 -0.026308 12 23 129
0.174043 -0.309659 0.043176 252 255 255
-0.142064 0.124017 -0.095448 13 13 14
-0.021513 -0.298801 0.110321 210 212 210
0.117002 0.426977 0.000928 5 4 52
-0.077452 0.234641 0.090610 5 13 69
0.078681 0.386535 0.059106 13 12 12
-0.152192 -0.022825 0.089205 13 14 15
-0.127893 0.076713 -0.068855 14 14 13
-0.155317 -0.066793 -0.013163 14 16 14
-0.146492 -0.018348 0.054444 254 253 254
0.121655 0.401751 0.010251 11 12 11
0.193319 -0.292339 -0.028095 200 198 199
-0.146617 -0.065644 0.032673 10 6 120
0.163097 -0.369667 0.053436 245 246 246
-0.072444 0.248304 0.005278 7 15 42
0.155963 0.348407 0.038614 220 219 220
-0.139050 0.092855 0.045506 8 8 98
-0.110635 0.190952 -0.100635 16 17 16
-0.143797 -0.084587 -0.030632 5 4 111
-0.139255 0.110266 -0.034931 10 16 67
0.076249 -0.390524 -0.003451 188 188 186
0.123425 0.384102 -0.018225 230 230 229
0.152076 0.362595 0.059226 201 200 199
0.156377 -0.383271 0.042243 226 225 225
0.101624 -0.369792 0.052491 12 11 13
-0.148083 0.047648 0.032714 207 207 208
-0.129391 0.080895 -0.048384 12 12 13
-0.135927 -0.118841 0.050245 8 9 120
0.030971 0.348478 -0.077775 172 173 174
0.171728 -0.301212 0.013189 189 190 189
0.448801 -0.141332 -0.057368 255 253 253
0.427770 0.129344 -0.075438 255 254 254
0.067331 -0.394118 -0.000503 13 14 15
-0.036506 -0.304394 -0.116458 13 14 14
-0.143836 0.073362 0.024379 4 6 68
-0.140342 0.119194 -0.044268 6 11 72
0.153026 -0.378582 0.065413 252 251 252
0.201481 0.309520 -0.011229 252 252 252
-0.129570 -0.042698 0.026932 8 17 90
0.133021 0.375882 0.062216 12 10 11
0.208630 -0.213131 -0.006570 255 255 255
-0.131476 -0.107820 0.102622 13 14 16
0.307653 -0.026056 -0.034346 6 6 52
-0.079634 -0.253958 -0.054901 7 9 123
0.157161 0.380247 0.038744 172 172 173
-0.144017 -0.168859 -0.092533 228 229 229
-0.093921 0.229383 -0.001936 7 11 46
-0.102719 -0.214414 0.050748 8 14 121
0.228720 -0.212217 -0.052095 159 160 161
-0.053313 0.268496 0.017897 9 15 48
-0.056844 -0.284609 -0.006124 6 14 126
-0.150957 0.129727 -0.081846 183 184 184
0.147808 0.353201 0.059475 215 214 214
0.357147 0.016416 -0.066996 11 11 14
-0.122632 -0.047968 0.068531 228 228 229
0.008491 -0.336687 0.024822 9 24 124
0.187679 -0.304729 -0.015465 197 198 198
-0.137556 0.113327 -0.063884 189 189 190
0.354486 0.003141 -0.069035 15 15 19
-0.120637 0.113593 0.082123 12 13 13
-0.116728 0.167301 0.111775 177 177 178
-0.146193 -0.116658 0.094231 14 14 14
0.150681 -0.357482 -0.020000 218 217 217
-0.143828 -0.163535 -0.098985 15 15 15
-0.080429 -0.249737 0.044408 10 17 122
-0.117361 -0.175845 -0.117633 231 229 231
0.088075 0.369395 0.019642 12 13 13
-0.125176 -0.109029 -0.059202 14 12 16
-0.116097 -0.190174 -0.067174 8 9 121
0.212393 0.296655 0.037110 181 180 180
0.287382 0.154231 0.032718 253 252 253
0.004812 0.321767 0.068572 6 13 33
0.079675 0.385307 -0.005144 14 13 12
-0.069105 -0.267686 0.016291 6 15 128
0.125519 -0.377702 -0.022675 242 242 241
0.417023 -0.068894 -0.045333 253 254 255
-0.058431 0.289648 -0.120154 19 18 17
-0.129991 0.063486 0.008272 199 199 201
-0.055321 0.286468 0.110117 14 14 15
0.032858 0.346476 -0.058515 7 9 11
0.130148 0.380071 0.012226 252 253 252
-0.070950 -0.293370 -0.125603 16 15 16
0.321491 0.119483 0.029291 253 253 253
0.307470 0.124914 -0.031209 12 13 59
-0.006945 -0.327960 0.048648 11 29 128
-0.103446 -0.208921 -0.119952 229 229 229
-0.097569 -0.178967 -0.097427 12 7 71
0.231830 -0.208919 -0.034086 254 254 254
0.288920 0.129615 -0.022608 11 11 13
0.244226 0.203292 0.026686 14 16 57
0.425799 -0.091688 -0.021839 253 255 255
-0.120794 0.090334 0.094175 11 12 12
0.084550 0.361101 0.056900 177 177 177
0.188146 0.326276 0.038370 208 208 207
0.097348 0.388781 -0.023915 14 13 13
0.190851 0.283899 -0.031037 251 252 251
-0.056532 -0.287204 -0.098731 10 9 124
0.424531 -0.104230 -0.054629 7 6 54
0.214348 -0.236126 -0.031228 160 161 161
-0.129309 0.187233 0.104681 14 17 16
0.298752 0.141036 -0.042386 7 8 42
-0.129621 0.148589 -0.034033 8 16 64
0.167379 0.386946 0.054580 187 187 186
-0.145663 0.079887 -0.003999 6 11 82
0.076240 -0.376220 0.026771 12 12 13
0.319799 0.069058 -0.016954 250 251 251
0.178199 0.330483 0.054655 252 252 252
0.352300 0.038307 -0.044745 13 12 13
0.175513 0.310364 0.019083 253 254 253
0.247554 0.198578 -0.051247 7 7 52
-0.058267 -0.276352 -0.110532 215 214 214
-0.134540 -0.178449 0.103860 15 17 17
0.036338 0.339511 0.067561 12 13 14
0.146447 0.393254 -0.005491 226 227 225
-0.148630 -0.151794 -0.086526 225 224 225
0.178131 -0.330960 0.002346 197 198 199
0.247927 -0.136685 -0.025111 255 255 255
-0.123685 0.001879 0.088011 216 217 217
0.137340 0.368020 0.004255 253 254 253
0.140586 0.410978 -0.011196 253 254 252
-0.150018 0.046533 0.080135 205 204 206
0.208497 0.251778 -0.032434 252 252 252
-0.141691 0.081056 -0.029766 14 15 15
-0.130773 0.063899 -0.012949 13 12 13
0.026628 -0.370673 0.061975 13 16 16
0.119455 0.398674 -0.010829 12 12 11
0.144323 -0.395081 0.025555 252 254 252
