ply
format ascii 1.0
element vertex 1272
property float x
property float y
property float z
property uchar red
property uchar green
property uchar blue
end_header
0.249303 -0.289806 0.001430 157 156 160
-0.110789 0.191300 -0.104919 161 160 162
0.455396 0.125656 -0.066575 253 253 254
-0.078133 0.268356 -0.060770 0 3 21
-0.127027 0.183388 -0.006263 0 6 54
0.172657 0.405303 0.075508 104 107 109
0.041350 0.391743 0.105588 169 170 169
-0.143298 -0.078279 0.118522 5 5 6
0.299682 0.258918 0.034895 255 255 255
-0.089666 -0.251168 -0.017666 2 6 128
0.379483 0.031373 -0.067056 1 2 53
0.234530 0.327359 0.048901 254 251 251
0.424915 0.010054 -0.004485 255 255 255
0.210769 -0.391158 -0.009603 255 254 255
0.339187 0.139331 0.002668 254 253 254
-0.132023 -0.098946 0.113539 7 9 8
0.294091 -0.201164 -0.054957 0 2 54
0.368822 0.069871 -0.085200 255 254 255
0.267091 -0.254521 -0.029815 254 254 255
0.196610 0.443352 -0.007790 255 255 255
0.163078 0.421161 -0.003908 174 175 176
-0.017957 -0.322963 0.096847 1 21 130
0.501691 -0.126065 -0.029147 0 0 51
0.247639 0.322312 0.022981 172 172 173
0.084619 0.398148 0.066206 5 7 8
0.335215 -0.071149 -0.010804 1 2 52
0.329045 -0.056897 -0.092859 0 0 54
-0.098321 0.229144 0.042700 0 6 53
-0.046296 0.271625 0.131940 7 5 8
0.393555 0.057013 -0.061886 0 0 53
-0.105988 -0.213057 0.020774 2 6 127
-0.159581 0.012528 0.056783 255 255 255
0.052519 -0.399231 0.063748 185 185 187
0.341539 0.146382 -0.061627 0 1 55
0.024821 -0.362356 -0.050151 0 11 129
0.108269 0.411610 0.024986 4 8 7
0.243910 0.354051 -0.000253 255 255 255
-0.129272 -0.097565 0.116162 225 226 227
0.357727 0.094093 -0.057835 0 1 55
0.241915 -0.233605 -0.069441 255 255 255
0.035897 -0.350383 0.100885 6 7 7
0.451867 -0.023719 -0.022165 255 254 254
0.307823 0.235883 -0.055814 7 7 7
-0.140509 -0.132516 0.010284 0 2 120
0.418533 0.008315 -0.070836 9 10 15
0.065837 -0.413350 -0.036480 181 181 182
0.193030 -0.418947 0.039150 225 223 226
0.440696 -0.025330 -0.053504 7 10 5
0.189517 0.458927 0.034060 233 233 233
0.249826 -0.237191 -0.029200 255 253 254
0.396966 0.029922 -0.037053 255 255 253
0.280458 0.236065 -0.025013 255 255 255
-0.064641 -0.300201 0.132020 6 6 5
-0.158506 0.060571 0.099707 6 7 6
0.266285 -0.245663 -0.037313 149 148 151
0.161282 -0.442001 0.055504 58 64 65
0.472262 0.158435 -0.079637 255 255 255
-0.064543 0.297583 0.120856 150 151 152
-0.092020 -0.225360 0.135629 219 218 218
-0.157789 -0.075109 0.094968 5 6 8
-0.174939 -0.052559 -0.017379 229 227 229
-0.099344 -0.223930 0.024763 0 8 125
0.240568 0.352687 -0.033719 255 255 254
0.439902 0.097756 -0.047419 255 254 253
-0.031387 0.350074 -0.127812 7 8 6
-0.025350 0.352707 -0.130071 5 7 5
0.081939 -0.398892 0.015832 1 23 128
-0.152422 0.094565 -0.005818 2 6 80
0.123723 0.410449 0.010164 6 6 7
-0.149366 -0.114809 -0.018849 1 0 117
-0.069942 -0.256384 0.112878 213 213 213
0.473068 0.165321 -0.082517 0 2 54
0.088536 -0.403748 0.106422 185 184 185
0.055665 0.381850 -0.076494 164 165 165
-0.158150 -0.035319 0.092682 7 8 5
0.348770 -0.034386 -0.037670 0 0 55
-0.154781 -0.085894 0.081360 4 3 124
0.101881 0.389456 0.069157 166 168 166
-0.108124 0.219382 -0.096440 0 6 24
-0.160525 0.031532 0.067468 7 7 6
-0.151548 -0.059169 0.059312 5 0 121
-0.101351 -0.245976 -0.059455 4 3 127
-0.127968 0.025504 0.031171 7 8 6
0.178776 0.448379 0.001201 7 8 8
0.134630 -0.430594 0.021452 8 7 8
-0.038122 0.308716 -0.127048 5 7 7
0.207065 0.340496 -0.023975 255 255 255
0.160633 -0.428313 0.014531 7 8 8
0.528491 -0.134087 -0.065061 0 0 53
0.434899 0.116175 -0.095465 0 0 54
0.428542 0.101634 -0.082047 254 255 255
0.133572 -0.425913 0.017521 8 7 7
0.096498 -0.400957 0.060314 6 8 7
0.134907 -0.415291 -0.013523 4 4 4
0.395558 0.080425 -0.106420 0 0 56
0.252382 -0.281199 -0.060796 156 156 157
0.341265 0.002164 -0.082681 252 252 254
0.216896 -0.365741 -0.047715 255 253 254
-0.162674 0.061577 -0.013705 203 203 203
0.509947 -0.115530 -0.039077 252 254 253
-0.037751 0.304535 -0.036209 0 5 24
-0.044898 0.303741 -0.111804 0 2 10
0.308215 -0.127207 -0.028132 255 254 255
-0.042464 -0.311754 -0.082475 1 4 128
0.285797 -0.151145 -0.060083 255 255 255
-0.162631 0.150062 -0.066122 174 175 176
0.453294 -0.039799 -0.055509 0 0 55
-0.154063 0.159643 -0.098430 169 169 171
0.344651 0.164234 -0.047013 0 1 53
-0.010961 -0.338998 0.101807 6 8 6
-0.071542 -0.286007 -0.129555 4 0 126
0.008398 -0.375281 -0.111764 8 6 8
-0.167364 -0.016796 0.092617 6 6 7
0.040558 0.368245 -0.035350 0 4 12
0.262121 0.285215 -0.015669 149 150 151
0.285600 -0.166830 -0.086228 8 8 8
0.160491 0.434351 0.048844 6 6 7
0.215386 0.394852 -0.004837 202 201 200
0.117268 0.433264 0.030080 179 179 179
0.146871 0.446681 0.046040 6 7 7
0.203935 0.409460 0.035827 215 213 213
0.067776 -0.410541 -0.036714 181 182 182
0.198935 0.424831 0.033611 221 221 221
0.217247 -0.310646 -0.032743 255 255 255
-0.131392 0.026072 0.017861 211 209 210
-0.138236 0.132971 0.060419 0 7 83
-0.111814 0.271357 -0.131121 148 151 152
-0.112004 0.233783 -0.098006 2 11 19
-0.112991 0.241292 -0.116640 5 4 12
-0.026047 -0.324296 -0.125368 5 6 5
0.086886 -0.426609 -0.007417 5 8 6
0.014684 -0.348449 0.093670 6 7 7
0.446209 0.111376 -0.079510 0 1 52
0.389597 0.082284 -0.097325 0 0 53
0.168330 0.424352 -0.008084 118 118 125
-0.104721 -0.252353 -0.132496 6 5 6
-0.078809 0.277437 -0.113703 1 4 10
-0.154115 -0.103991 -0.060947 0 2 108
0.006875 0.350652 -0.031225 0 5 16
0.181557 -0.432355 -0.029465 255 255 255
0.307983 -0.074600 -0.079277 253 253 255
0.283959 -0.223903 -0.032041 1 3 53
-0.091209 0.224934 0.122396 158 159 160
0.167968 0.417375 0.071073 112 118 115
-0.139209 0.093406 0.083122 5 6 5
0.225079 0.338920 -0.012986 254 255 255
0.456306 0.111791 -0.075792 0 0 52
0.363858 0.028624 -0.085505 0 1 53
0.019819 0.356283 -0.031075 0 4 14
0.015276 0.338814 0.113148 156 153 157
-0.137337 -0.056450 0.027497 230 229 230
-0.125945 -0.018465 0.007750 217 215 217
-0.145763 0.129975 -0.011566 0 9 70
0.156432 0.445571 -0.020886 242 241 240
0.176101 0.409237 -0.008153 255 254 253
0.205094 0.400228 -0.008865 254 253 254
0.033320 0.351156 0.103942 7 8 8
-0.135139 0.220484 -0.132582 8 11 10
0.506213 -0.142214 -0.073615 251 251 253
0.224677 -0.319883 -0.030672 158 159 159
-0.089532 0.231438 0.115567 0 8 68
-0.064397 -0.282781 -0.045762 2 7 128
0.246470 0.336239 0.029257 112 114 113
-0.157362 -0.050395 0.078530 5 7 5
0.032510 -0.368269 0.046688 2 22 130
-0.001925 -0.354264 -0.077699 1 6 131
-0.136725 -0.005739 0.026124 216 215 214
0.177588 -0.396950 -0.016467 255 254 255
0.154968 -0.417595 0.026166 182 182 183
0.053551 -0.405271 0.043239 186 186 187
0.051024 -0.380556 0.035069 0 24 129
-0.069215 0.297262 0.127361 146 150 148
0.229356 -0.312226 0.031581 255 253 254
0.041360 0.365717 0.060397 0 9 21
0.254548 -0.274586 0.007385 254 254 255
0.207174 0.382276 0.055421 255 254 255
-0.088144 0.250772 0.020919 1 9 41
-0.165753 -0.091854 -0.030999 240 238 237
0.217246 -0.354440 0.045609 112 113 114
0.266761 0.254056 -0.056344 254 254 254
0.363593 0.133184 -0.053014 0 1 54
-0.032380 0.313779 0.063732 1 12 39
-0.138194 0.101178 0.097648 186 188 186
0.282429 -0.168570 -0.087953 5 7 6
0.024648 0.371770 -0.100862 3 3 7
-0.132032 0.147879 -0.086770 5 6 7
-0.165174 -0.096927 -0.045763 235 233 233
0.075746 -0.421007 0.021203 5 6 6
0.025065 -0.376554 0.116389 190 190 190
0.057595 -0.388866 -0.006845 0 16 129
-0.027588 -0.328703 -0.054515 4 6 131
0.245294 -0.306012 -0.049823 156 157 158
0.122245 0.401211 0.074358 168 169 168
0.062923 0.406535 0.070288 7 6 7
0.092847 -0.421481 0.039171 6 7 7
-0.148315 0.055225 -0.011677 203 202 201
0.276565 -0.183386 -0.038905 254 254 255
0.090158 0.409887 0.096325 173 172 172
0.022224 0.375248 0.095996 164 163 164
0.315927 -0.066899 -0.067526 0 1 52
0.344497 0.165874 -0.002987 0 0 55
0.098980 -0.434011 -0.017007 175 176 177
-0.070994 0.307172 -0.118322 2 3 6
-0.165215 0.086204 0.007491 6 6 7
-0.020177 -0.336454 -0.031442 2 10 132
0.376948 0.063028 0.001324 0 0 55
-0.003112 0.341984 0.094783 5 7 7
-0.123579 -0.018254 0.072806 6 6 5
0.047886 -0.396771 -0.062526 185 184 184
-0.152686 0.110054 -0.018729 0 10 68
0.099947 -0.410020 -0.031237 184 184 185
-0.153108 0.049497 0.106413 201 200 202
0.009563 0.344436 -0.054804 0 4 15
-0.069876 0.293767 0.125503 150 152 151
0.299109 0.220580 -0.004526 0 0 52
-0.113979 -0.219815 -0.062589 5 2 124
-0.073798 -0.304233 -0.122044 204 204 205
0.231001 0.338806 -0.034236 255 255 255
0.219784 0.392076 -0.011549 208 209 207
0.459092 -0.048869 -0.048810 255 255 255
0.073086 -0.424397 -0.037691 6 6 7
-0.148356 -0.083193 0.084546 228 227 229
-0.094819 0.248421 -0.125179 5 6 6
-0.136237 0.167082 0.107034 168 170 169
0.136383 0.420753 0.021949 173 173 174
0.367591 0.018900 -0.086785 0 0 52
0.223569 -0.284084 -0.010409 255 255 255
-0.048161 -0.298205 -0.071714 1 5 128
0.287496 0.233835 -0.042928 0 1 51
0.176693 -0.439623 0.040189 6 8 6
-0.117681 0.196471 0.082466 0 7 72
0.407009 0.056597 -0.033726 0 0 53
0.066825 -0.393664 0.108214 186 186 187
0.303533 -0.153664 -0.051586 0 0 54
0.202159 -0.350162 0.003672 190 190 192
-0.101923 0.276664 -0.131340 153 153 154
0.237534 -0.279388 -0.044065 255 254 254
0.053912 -0.387970 0.111210 188 189 189
-0.070124 -0.300554 0.109383 206 206 207
0.283257 -0.165118 -0.064093 255 255 255
0.221477 0.388446 0.000839 197 198 198
-0.004439 0.337393 -0.010283 0 5 21
0.178046 -0.452042 0.067457 105 106 103
0.182263 0.394238 0.027329 214 214 214
-0.060274 -0.295629 -0.132372 4 0 128
-0.148656 0.086572 0.083358 0 3 96
0.181629 -0.392588 0.059109 218 217 219
0.281535 -0.203057 -0.079437 0 0 52
-0.092950 -0.249534 0.025550 1 7 126
0.360970 0.145866 -0.043037 255 255 255
0.021792 -0.357647 -0.006619 2 16 129
0.134044 -0.425400 -0.011633 179 180 178
0.030011 -0.370788 0.004320 1 19 132
0.248474 -0.252799 0.000404 1 2 51
-0.131431 0.115487 -0.056213 5 4 7
0.091583 0.403560 0.029431 6 8 7
-0.147413 0.105075 0.047561 0 2 84
-0.105347 -0.236412 -0.093268 2 0 126
0.317737 0.236168 -0.013149 0 0 51
0.183500 0.421304 -0.002511 222 224 223
0.256639 0.277668 -0.051044 255 254 254
0.273097 -0.185802 -0.080021 3 4 10
-0.065331 -0.307148 0.140475 7 6 6
-0.001104 0.368284 -0.110690 163 163 164
0.289005 0.232596 -0.061448 255 255 255
0.048132 -0.371750 0.086770 0 31 128
0.401133 0.091895 -0.096923 0 0 50
0.502980 -0.116646 -0.070520 0 1 51
-0.161980 0.029546 0.086264 255 255 255
-0.134015 0.007565 0.074807 213 213 213
0.200618 0.400652 0.034554 255 255 255
0.048400 0.378141 -0.072904 0 3 10
0.304563 -0.110194 -0.083200 5 6 5
0.307855 -0.117996 -0.085565 255 255 255
0.062135 0.365780 0.109405 161 163 162
0.059077 0.399718 0.094252 6 7 7
-0.138397 -0.052178 0.020965 8 7 8
0.353213 -0.031840 -0.091913 1 0 53
0.000636 0.338368 0.023276 0 8 27
-0.104310 0.218660 0.010942 0 9 48
0.163369 0.451919 0.021209 255 255 254
0.337651 -0.089361 -0.041449 0 0 55
0.248973 -0.294295 -0.006129 191 191 193
0.042084 -0.384151 0.074695 7 7 9
-0.058204 -0.294362 0.001524 1 11 127
0.310512 -0.150284 -0.029998 0 0 55
0.184905 0.419675 0.067273 255 255 254
-0.016737 -0.360090 0.114405 195 195 196
0.010873 0.348374 -0.060545 0 5 15
0.220250 -0.327700 -0.050488 190 190 191
-0.073129 0.278773 0.135613 7 8 6
-0.154509 -0.100461 0.059060 3 0 124
-0.134472 -0.172685 -0.026223 3 3 122
0.321035 0.173074 -0.055777 255 253 255
0.040246 -0.357286 -0.090319 192 191 192
-0.144409 -0.167280 0.119369 8 7 8
0.129478 -0.429635 0.042383 178 179 178
0.256191 0.313010 -0.027486 254 253 254
-0.140229 -0.149842 -0.113679 235 235 234
-0.155907 -0.081161 -0.050359 234 231 233
-0.069949 -0.294001 0.122142 204 203 204
0.058938 0.371711 0.051574 1 6 18
0.398719 0.083238 0.011991 0 0 54
-0.008650 -0.339719 -0.021263 3 12 130
-0.154642 -0.114805 -0.067506 4 1 111
-0.124232 0.164785 0.108429 7 7 7
-0.140285 -0.198517 -0.112850 6 7 6
-0.056040 0.288670 0.130962 154 155 155
-0.166116 -0.053957 0.001471 6 7 7
-0.141914 0.078657 0.090613 8 7 8
0.422673 0.108100 -0.098613 254 255 255
-0.127179 -0.169713 0.014042 4 0 127
0.041696 0.375376 0.074665 164 164 163
-0.154204 0.084122 0.059774 5 6 7
0.386335 0.090103 -0.045605 0 0 53
-0.022092 -0.359975 -0.117311 193 191 193
-0.141516 0.081314 0.003386 190 190 192
-0.030723 0.352007 -0.121466 161 164 164
-0.017236 0.316659 0.016257 2 8 29
0.222705 0.340157 0.057446 186 187 185
-0.125511 0.175196 0.105589 1 6 82
-0.048980 -0.287552 0.046637 2 15 128
0.021518 0.352634 0.095974 160 160 160
-0.133502 0.176865 0.104788 5 6 5
0.007626 0.362028 0.116949 160 161 161
-0.066743 0.272347 0.061314 0 7 48
0.199384 0.388175 -0.025785 200 200 200
-0.107573 -0.221312 0.016547 3 3 127
0.134795 0.432936 -0.021711 6 8 7
-0.109966 0.169560 0.124998 170 170 171
-0.066310 0.274077 0.039861 0 6 42
0.023338 -0.359134 -0.002831 2 16 128
0.189187 -0.401557 0.053118 221 220 220
-0.080060 0.266545 0.108803 7 8 6
0.009090 0.345490 0.114834 159 160 161
-0.160720 -0.065703 0.063589 234 232 233
0.018320 -0.380043 0.079747 6 6 7
-0.084428 0.271168 0.125200 146 148 147
-0.059371 -0.293769 -0.035032 1 7 129
0.085405 0.420756 0.000573 171 173 174
0.254743 -0.216962 -0.053036 0 0 51
0.417666 0.072835 -0.074319 0 1 52
0.372823 0.037145 -0.096451 0 0 51
-0.102623 -0.227649 -0.082625 4 3 126
-0.036930 0.299470 0.028134 0 7 34
0.377057 0.083983 -0.026814 254 253 253
-0.026177 0.309603 0.047159 0 10 36
0.248181 -0.219675 -0.017441 255 255 255
-0.123559 -0.172607 0.054485 2 3 125
0.165309 -0.431232 -0.034195 226 227 226
0.271028 -0.195445 -0.063981 0 1 51
-0.070733 0.298162 0.129176 6 7 6
0.258738 -0.254643 -0.075051 132 135 137
0.101445 -0.403729 0.029426 0 28 127
-0.147461 -0.104364 0.013585 2 2 122
-0.065972 0.249004 0.133211 150 152 150
-0.154343 -0.099323 0.043086 0 0 120
0.212427 -0.377370 0.027644 201 201 204
0.245215 -0.321435 0.026700 172 175 175
0.093667 0.415826 0.045424 172 171 172
0.372989 0.032146 -0.081906 252 252 252
-0.070420 -0.279904 -0.101523 4 3 127
0.466980 -0.054570 -0.025421 254 254 254
-0.165328 0.103981 -0.054172 192 191 188
-0.136752 0.110813 0.082833 184 187 185
0.049091 0.379555 0.076212 164 166 166
-0.096842 0.260695 0.120998 5 8 5
-0.057097 -0.317477 -0.140123 201 202 204
-0.049014 0.296733 -0.127878 149 149 152
0.268802 0.256985 0.021365 252 252 253
-0.156379 0.017518 0.087702 254 255 255
-0.053585 -0.291798 -0.133397 8 6 8
0.435206 0.009658 -0.056480 1 2 52
-0.160898 -0.097357 -0.035307 7 7 6
-0.140142 -0.163697 -0.112538 7 7 7
-0.076913 -0.258111 0.009848 3 10 128
-0.138934 0.213827 -0.109632 5 7 7
0.491992 -0.114034 -0.059494 255 255 255
0.440543 0.000691 -0.001010 1 3 51
0.042850 -0.374342 0.000314 1 18 132
-0.012332 0.346461 -0.125421 5 6 6
-0.068413 -0.268059 0.078453 0 11 128
0.208387 0.382428 0.006772 199 199 199
0.114519 -0.413976 0.035578 7 5 7
0.074232 0.411830 0.072355 172 170 173
0.145460 -0.442365 -0.013978 63 63 66
-0.153970 0.120763 -0.079392 182 179 181
0.169678 0.447289 0.063292 8 7 8
0.255766 -0.279169 -0.051589 252 252 252
0.143790 0.440274 -0.002571 176 175 177
-0.146322 -0.177878 0.123311 224 223 223
-0.127724 0.158320 -0.085075 5 5 8
0.257987 0.281320 0.039976 254 253 253
-0.051911 0.290717 0.062588 0 7 43
-0.150375 0.138266 -0.059290 7 6 6
0.097847 0.400236 0.012520 0 5 11
-0.031090 0.309161 0.105208 5 6 7
0.083248 0.390345 0.050489 0 5 13
-0.078793 -0.268634 -0.103964 1 1 128
-0.071523 0.243450 0.126610 152 153 156
-0.162635 0.088927 0.080675 5 8 5
-0.134845 0.062853 0.112685 197 197 196
0.282681 0.229649 -0.031230 255 253 255
-0.168074 0.072954 0.008944 6 5 5
0.350254 -0.030946 -0.048060 255 255 255
0.028466 0.386079 -0.086615 3 7 7
0.453666 -0.020249 -0.019789 254 255 254
0.046283 -0.376839 -0.056922 0 9 130
-0.137564 0.098515 0.087015 7 6 7
-0.161370 0.056347 0.072284 8 7 7
0.100587 -0.404670 -0.023841 0 16 129
-0.142315 0.167975 -0.036577 0 11 52
0.058727 -0.384850 0.081700 187 188 189
0.165012 -0.436592 -0.006309 4 5 5
-0.083715 0.250466 0.056339 0 9 51
0.226313 0.428865 0.031741 3 7 5
0.070242 -0.390518 -0.007811 1 18 127
-0.045202 -0.332207 0.118140 196 195 197
0.520469 -0.147857 -0.082178 6 7 5
0.486523 -0.089657 -0.062448 254 254 254
-0.091887 -0.271955 -0.142352 6 7 6
-0.125947 0.212203 -0.116056 1 7 21
-0.138200 0.171304 -0.110084 166 167 168
0.237272 0.303014 0.022394 171 171 171
-0.163187 -0.023868 0.056189 7 7 6
-0.030107 -0.346230 -0.121255 193 193 195
-0.091050 -0.258617 -0.108212 3 1 129
0.351988 0.102788 -0.047821 0 2 52
-0.162237 -0.096847 0.102120 231 228 229
-0.139406 0.091945 0.111259 7 8 8
-0.130054 0.063075 0.048283 6 6 7
0.119520 0.424893 0.060722 7 8 8
0.504784 -0.117980 -0.073220 6 8 5
0.355237 0.124004 0.007941 255 253 253
0.330330 0.194681 -0.057712 0 0 53
0.192284 0.384033 0.059985 255 255 255
0.441253 0.021296 -0.000480 255 253 253
-0.126544 0.108472 0.102813 184 184 187
-0.102669 0.231402 -0.031932 0 6 38
-0.122292 -0.158013 0.109518 6 8 6
-0.115364 0.198318 0.080573 0 6 72
-0.145690 0.135995 -0.055832 176 177 178
0.230772 -0.337550 -0.043872 254 254 253
0.344076 0.006498 -0.102535 0 0 54
-0.083226 0.265541 -0.080770 0 5 17
-0.159064 -0.074331 0.106277 6 7 7
-0.071099 -0.265248 -0.147041 4 4 5
-0.115934 0.215092 -0.044741 1 10 36
0.232145 0.373149 -0.004634 191 191 192
0.270577 -0.225986 -0.043222 233 233 233
-0.114520 0.200524 0.089412 0 6 72
-0.130584 -0.029559 0.017499 6 8 6
0.183233 -0.400762 -0.010315 255 254 255
-0.139854 0.044784 0.011484 7 6 6
0.198534 -0.361344 0.043900 198 199 201
0.127990 0.431500 0.039140 8 9 7
-0.081002 0.290771 -0.136569 5 6 5
0.285161 0.226708 0.033368 0 1 50
0.413778 0.035710 -0.064975 0 2 56
-0.116131 0.219647 0.113465 5 7 5
-0.015455 0.328921 0.019645 1 5 28
0.125521 0.425978 0.012634 177 177 178
0.299330 0.217581 -0.052993 0 0 52
-0.088026 0.255640 -0.047885 0 6 25
0.300415 0.230247 -0.026673 0 0 53
-0.148777 -0.098498 0.081930 3 0 124
0.388935 0.052676 -0.068782 255 255 252
0.437647 0.135161 -0.087286 1 3 51
0.397764 0.039482 -0.015729 255 254 255
-0.059269 -0.295140 0.049326 0 15 128
0.106659 -0.432053 0.055163 6 7 8
-0.128897 0.189843 -0.013223 0 8 50
-0.017589 0.321549 0.089084 0 8 42
0.454451 0.116130 -0.053160 255 254 255
0.301217 -0.162872 -0.086668 253 255 255
-0.146889 0.077015 0.028417 6 6 7
0.355193 0.100978 -0.023422 253 253 252
-0.122414 0.189725 0.127780 164 165 165
0.197181 -0.421688 0.017904 255 255 255
0.444894 0.135645 -0.055975 0 2 51
0.226586 -0.304684 -0.009909 118 118 119
0.317985 0.166623 0.019688 255 255 255
0.174638 0.442606 0.001027 179 178 179
0.081572 0.422395 -0.043553 4 6 6
-0.131168 -0.172333 -0.068479 1 2 120
-0.133953 0.143943 0.085859 1 8 84
0.369902 0.072339 -0.020996 254 255 254
0.000673 0.361460 0.109686 166 164 166
0.058409 -0.396154 -0.070979 181 181 182
0.298613 -0.174911 -0.080271 255 255 255
0.194133 0.404129 0.052396 210 210 209
-0.123605 0.180092 0.084908 0 7 76
0.100139 0.405788 -0.041922 169 170 171
0.294535 -0.174893 -0.084007 0 0 54
-0.106526 0.209765 0.075963 0 7 66
0.006566 0.346319 -0.062816 0 4 14
0.034076 0.353755 0.103030 7 7 8
0.319982 0.189347 -0.055702 0 1 54
0.136053 0.435432 0.048302 181 181 181
0.231285 -0.342902 -0.009940 182 182 184
0.162676 -0.421111 0.077165 178 180 179
-0.141613 0.089815 0.004110 6 8 7
0.038071 0.367848 -0.048950 0 3 12
0.443016 0.069900 -0.074495 0 2 53
0.064616 0.383205 -0.009633 0 4 10
0.075220 0.394326 0.107001 8 7 6
0.201426 0.391949 -0.014969 199 199 196
0.085552 0.408590 0.099422 5 8 10
-0.126786 0.189616 -0.054310 0 7 41
0.338705 -0.061558 -0.082871 0 0 54
-0.161496 -0.057248 -0.005153 230 229 230
-0.018048 0.329155 -0.105154 0 3 7
0.077720 -0.398064 -0.007919 2 19 129
-0.124040 0.134577 0.099522 177 179 178
0.356573 0.109735 0.013726 255 255 254
-0.030593 0.338613 -0.125706 157 159 159
-0.140773 0.152523 -0.037853 0 9 51
0.049333 0.391350 0.098827 166 167 168
-0.145537 -0.128501 0.083078 0 1 124
-0.114444 -0.206156 -0.135041 6 7 8
0.370518 0.081640 0.002742 255 254 254
0.328289 -0.066307 -0.089178 6 6 8
0.033599 0.381878 -0.109151 166 165 166
0.110046 0.410435 0.092083 8 8 7
-0.002539 -0.332560 0.124538 8 9 9
0.306292 0.239819 -0.014020 0 0 54
-0.093015 -0.256257 -0.071981 4 5 125
0.049498 -0.385493 0.057756 3 28 130
-0.160148 0.119582 -0.032498 6 6 5
0.280133 -0.144921 -0.001091 255 255 254
-0.129234 0.173839 0.009336 0 10 62
0.020298 -0.358243 0.091349 194 193 193
-0.137427 -0.061522 0.096109 229 229 230
0.211335 -0.395606 0.050348 215 213 216
0.343332 -0.055537 -0.049509 0 0 53
0.263411 0.314017 -0.051128 152 150 151
0.064375 0.383337 -0.060557 166 167 167
0.544779 -0.171680 -0.090908 0 3 53
-0.036341 -0.297230 0.097233 0 17 129
-0.125706 0.116708 0.094927 184 182 185
0.030694 -0.371407 0.042113 0 21 128
0.068998 -0.407662 -0.027943 7 8 9
0.233735 -0.344682 -0.063388 165 167 167
-0.068978 -0.284884 -0.060284 4 5 126
-0.136644 -0.096685 -0.056744 7 7 6
-0.110902 -0.230627 -0.102297 5 0 128
0.180308 0.414824 -0.003556 224 221 224
0.202169 0.418398 -0.001995 215 215 215
-0.104437 -0.219184 0.083119 2 4 129
0.313419 0.193790 -0.036988 254 255 255
0.473278 0.143478 -0.063834 255 255 253
0.052015 -0.410807 -0.065135 181 181 183
0.364658 0.078199 0.014869 0 1 52
0.259467 -0.222668 -0.017413 0 0 51
-0.077574 0.234705 0.114936 6 6 6
-0.105050 0.269657 -0.142114 146 147 149
0.249059 -0.259210 -0.052447 253 253 253
0.093282 -0.423686 -0.030207 178 180 179
0.195009 -0.346876 -0.037602 254 255 255
-0.128047 -0.178024 0.101748 3 2 128
0.177190 0.442761 0.042106 7 8 7
0.327438 0.147517 -0.022416 253 253 254
0.169486 -0.414243 -0.029689 255 255 255
0.457299 -0.052147 -0.026181 0 0 53
0.262273 -0.237195 -0.074144 0 1 52
0.146280 -0.420188 0.079357 182 182 182
-0.150633 0.094768 0.073242 7 9 7
0.068191 0.417457 -0.058337 176 176 176
-0.082753 -0.276165 -0.099034 6 4 127
0.102806 0.422938 -0.033349 7 6 8
0.006198 -0.339368 0.057685 0 21 127
-0.154994 -0.092581 -0.017330 7 7 8
0.057794 0.380080 -0.001814 0 5 14
-0.138433 0.032034 0.078657 8 7 8
0.286667 0.233065 0.024794 0 0 53
0.268316 -0.246420 -0.048880 208 211 209
-0.107197 -0.250516 -0.142353 6 6 6
-0.048994 -0.294831 0.031490 0 14 128
0.241036 -0.321429 -0.044820 163 162 163
0.179833 -0.461384 0.006168 237 237 235
0.193880 0.420380 0.024573 222 220 220
0.031678 -0.369950 0.084041 192 191 193
-0.105572 0.240549 -0.132687 3 5 7
0.019899 -0.363381 0.010316 1 18 130
-0.124327 0.225542 0.113795 155 154 156
0.259582 -0.262856 -0.041246 153 156 155
-0.069753 -0.270824 0.009945 3 8 129
0.424909 0.113909 -0.084819 255 255 255
0.055593 -0.392393 -0.074312 184 183 184
-0.102615 -0.229468 0.016907 1 3 128
0.205502 -0.398974 0.027308 210 210 211
-0.130970 -0.108867 0.095125 8 5 6
-0.091574 0.268793 0.127118 151 152 151
-0.153298 0.017098 0.101934 6 6 7
0.074966 -0.392263 -0.002610 1 20 130
-0.167210 0.093213 -0.054391 7 7 6
0.054378 0.361179 0.082975 163 164 160
0.222633 0.356170 -0.031648 255 254 255
-0.153426 -0.058051 0.104814 226 224 226
0.227176 0.335823 -0.013986 255 254 253
-0.113067 0.199880 0.020665 1 11 57
-0.120370 0.200258 0.027979 1 8 58
-0.120529 -0.147888 0.135756 7 5 8
0.207279 -0.422459 0.053147 6 8 6
0.195266 0.444300 0.056049 184 184 181
0.241990 -0.253834 -0.014658 255 255 255
0.086186 0.414535 0.003489 7 8 6
0.229371 0.374538 0.030975 188 191 189
-0.011582 0.355517 0.117979 162 161 161
-0.031183 0.316386 -0.066583 0 4 17
0.479623 -0.043849 -0.051875 0 1 56
0.188147 0.422777 0.012779 218 219 219
0.307227 -0.099049 -0.088765 0 0 54
0.162334 -0.430473 0.005639 254 254 255
0.051384 -0.387224 0.105549 5 6 5
-0.148327 0.128300 -0.098205 178 177 180
0.309220 0.177295 -0.062268 1 1 50
0.366542 0.087161 0.001245 255 255 255
-0.055351 -0.302720 -0.097538 1 1 128
-0.108576 0.221338 0.014960 0 6 51
-0.144204 0.005973 0.102020 214 213 216
0.274604 0.291617 -0.017178 255 255 255
-0.109886 0.203527 0.033811 0 8 59
0.175657 0.443491 0.026125 255 255 255
0.185551 0.449714 -0.016775 225 225 225
0.093975 0.407090 -0.026257 0 5 2
0.072075 0.391629 -0.059372 168 167 169
0.486043 -0.080682 -0.069489 255 253 254
-0.150241 -0.061595 0.066346 5 7 6
0.183162 -0.427473 0.004957 253 252 253
0.295303 -0.180503 -0.084930 8 9 9
-0.060817 -0.283694 0.008800 3 8 129
0.324753 0.169299 0.001186 255 254 253
-0.133956 0.071618 0.069916 2 7 31
0.188422 0.387129 0.042347 255 254 255
0.212732 0.400375 0.028017 206 203 205
0.322390 0.211372 -0.049124 1 1 54
-0.158833 0.028614 0.098792 8 8 8
-0.081565 -0.278379 0.110016 6 6 6
-0.120543 -0.163882 0.136085 225 225 226
0.108451 -0.413191 0.045088 6 6 8
0.280666 -0.176756 -0.077645 7 8 10
0.095249 -0.396062 0.041213 0 27 129
-0.081766 0.272124 0.138063 148 151 152
0.195315 -0.420624 0.049990 230 230 230
-0.135742 0.070931 0.044012 195 193 195
0.007708 -0.374616 0.118427 190 189 191
-0.083565 -0.238941 0.110118 214 215 215
-0.136713 0.151047 0.123919 174 174 174
-0.094348 0.257030 -0.056580 1 7 25
0.220047 -0.297509 -0.042501 255 253 253
-0.151613 -0.139404 -0.092732 6 8 5
0.116975 0.408348 -0.028690 7 8 7
0.103572 -0.411783 0.009501 184 184 183
0.091603 -0.406459 -0.036137 181 183 183
0.133454 -0.438014 0.081157 5 5 6
0.220740 -0.299481 0.036552 173 171 172
0.300650 -0.140239 -0.052046 253 253 254
0.087575 0.412157 0.032901 3 3 5
0.415377 0.040854 -0.045776 0 0 52
0.484035 -0.067315 -0.030908 0 1 55
0.273418 0.310471 0.033494 255 255 255
0.413772 0.012420 -0.002843 1 0 51
0.210425 -0.333896 0.001075 251 251 254
-0.146047 -0.014410 0.021227 5 7 6
0.011987 0.355767 -0.097923 1 4 10
-0.136887 -0.060395 0.110915 7 8 7
-0.148076 -0.017668 0.107119 6 7 8
-0.155592 0.104577 -0.056999 184 185 188
-0.077895 -0.270440 -0.076384 4 4 128
0.290964 0.208313 -0.019902 0 1 53
-0.166759 0.106081 -0.018915 7 6 7
-0.134326 0.166630 0.017609 0 7 67
0.089195 0.412076 0.075640 91 92 94
-0.169390 -0.054172 -0.026323 5 7 5
-0.157373 0.109113 -0.043637 6 7 6
0.111969 0.406796 -0.030915 0 1 4
0.304724 -0.116988 -0.048110 1 1 50
0.358868 0.092767 -0.037992 0 2 51
0.244430 -0.279292 -0.021060 148 149 150
0.069505 0.394173 0.099180 168 167 167
-0.114376 -0.261377 -0.123771 7 6 6
0.208694 0.342098 0.000758 184 184 183
0.329096 0.153818 -0.016536 0 0 50
-0.129067 0.013365 0.030698 209 209 209
-0.130965 -0.221344 0.124034 220 218 217
0.355767 -0.038384 -0.062179 6 5 6
0.018152 0.348366 -0.065584 0 7 14
-0.143671 0.134432 0.050146 0 4 78
-0.044415 -0.331477 0.113949 4 6 5
0.230310 -0.327596 0.029549 179 179 181
0.020098 0.349525 0.123235 8 6 8
0.172861 -0.430990 0.018528 237 236 236
0.200479 -0.409402 -0.003445 253 253 255
0.247642 0.350701 0.033108 175 176 176
-0.163622 -0.024327 0.070354 6 5 7
-0.112187 -0.232251 0.134904 217 218 218
0.315047 0.219538 0.028669 255 255 255
0.189707 -0.383861 0.036751 255 255 254
0.473294 0.178868 -0.105676 0 0 51
-0.026038 -0.315981 0.107828 2 23 129
-0.095862 0.235815 0.060252 0 8 55
0.256327 0.244785 -0.065520 0 0 50
0.023450 -0.397123 -0.094887 185 185 185
0.014054 0.368688 -0.097537 2 5 9
0.243123 0.316097 0.048926 255 255 255
-0.063979 0.282880 -0.019654 0 5 28
0.271919 0.295394 0.014872 0 0 52
0.120890 -0.430802 0.020584 7 6 7
-0.113544 0.213187 -0.041609 0 9 36
-0.143375 0.166208 -0.083565 170 170 172
-0.047023 0.305321 -0.038521 0 4 23
-0.131764 0.156457 0.046859 0 7 73
-0.047599 0.290440 0.069468 0 7 46
0.098873 0.410976 -0.039866 5 6 6
-0.040465 -0.307763 -0.047158 2 7 129
-0.152249 -0.074685 0.107249 230 230 230
-0.146222 -0.180176 0.111686 7 7 8
-0.081776 0.271148 -0.146102 148 150 152
-0.125961 0.035120 0.032243 6 6 8
0.030858 -0.359895 0.086837 7 6 6
0.370020 0.037291 -0.067764 8 8 8
-0.142422 -0.129797 -0.019516 1 2 121
0.066794 0.398261 0.088281 2 5 13
-0.073583 -0.265512 -0.059489 4 3 130
-0.159597 -0.097430 -0.073967 6 7 5
0.200168 0.435672 0.046193 255 254 255
0.152021 -0.437107 0.057092 6 7 7
0.083756 0.393269 0.004440 0 4 11
0.426734 0.054428 -0.046628 255 255 255
0.440607 0.004488 -0.003960 254 255 253
0.439399 0.008265 -0.072249 6 8 4
0.291256 0.217962 0.010409 255 255 255
-0.106893 0.191274 0.128563 6 7 7
0.166856 -0.445435 0.020379 102 105 104
-0.000120 0.342387 -0.095223 0 2 12
0.280260 -0.184782 -0.077823 0 2 55
0.376552 0.056029 -0.091058 6 7 5
-0.034629 0.301384 0.103710 0 8 48
-0.155388 0.082015 0.098972 7 6 7
0.071757 -0.397484 0.075052 0 32 131
0.135426 -0.410327 0.028389 5 9 7
-0.078034 -0.300381 -0.125414 6 8 5
0.477588 0.158839 -0.100861 0 0 55
-0.014324 0.322653 0.041015 0 7 30
-0.135858 -0.149262 0.130419 229 227 229
0.369232 0.033584 -0.044450 0 0 51
0.036919 0.363290 0.015351 1 7 19
-0.049219 0.291790 -0.003322 1 7 30
0.288761 -0.253693 -0.055050 148 147 147
0.252334 0.323902 -0.005751 169 168 168
-0.108836 0.214197 -0.135326 6 7 7
-0.071908 -0.315948 -0.144674 8 8 6
0.279476 0.281575 0.038666 0 1 50
0.166124 0.429474 0.054031 7 8 6
-0.140782 -0.127886 0.055464 2 1 125
0.163996 0.433467 0.063034 6 6 6
0.394966 0.082069 0.009782 0 2 55
0.168822 -0.440605 -0.022088 254 254 253
0.346413 -0.041245 -0.034014 255 255 255
0.066941 0.385470 -0.033499 0 3 10
0.017795 -0.334040 0.104710 199 201 200
-0.135492 0.141029 0.104378 7 7 6
-0.133245 0.018495 0.020504 209 208 211
0.191697 -0.433578 0.040087 255 255 255
-0.078711 -0.232805 0.143452 5 5 5
-0.071387 0.263243 0.030322 0 9 41
0.170475 -0.391778 -0.003259 255 255 255
0.025878 0.373941 0.081203 161 162 162
-0.086692 -0.303339 -0.150256 7 8 8
-0.146248 -0.195898 0.119242 4 6 5
-0.097064 -0.250439 -0.069174 1 3 126
-0.148846 -0.098688 0.069568 1 3 124
-0.070994 0.275381 -0.068105 0 5 18
-0.036916 -0.352076 -0.116379 5 6 7
0.298881 0.215212 -0.001846 255 255 253
0.004376 0.374402 -0.108420 4 5 6
-0.076339 0.260282 0.131380 150 152 151
0.034144 -0.375914 0.117948 6 9 7
-0.047055 0.294798 0.009523 0 8 34
0.305262 0.236671 -0.028444 255 255 255
-0.109481 -0.172283 0.131329 8 9 7
0.271257 0.283360 -0.035343 254 254 253
-0.148816 -0.122545 0.035237 1 0 122
-0.140613 -0.123557 -0.067788 6 6 6
-0.120690 -0.198287 0.117796 223 223 224
-0.066080 -0.308465 -0.144707 8 5 8
0.236421 -0.283956 -0.060479 150 151 153
0.044272 0.376396 0.101346 7 7 7
0.042039 -0.392311 -0.081492 184 186 186
0.079076 -0.418243 0.033193 181 182 181
0.028122 0.378073 0.081972 164 166 165
-0.147978 -0.124869 -0.042250 3 1 118
-0.141020 0.155421 -0.057046 1 9 46
0.230077 -0.336538 -0.031012 175 176 175
-0.133767 0.152042 0.058717 0 7 75
0.055074 0.384161 0.104014 165 166 166
0.179160 -0.406572 -0.003037 255 255 255
0.052493 -0.383254 0.026179 0 21 130
0.096929 -0.398346 0.056891 185 186 186
0.037836 0.369929 0.085789 164 163 163
0.295951 -0.190237 -0.004721 254 255 254
-0.130541 0.090393 0.078975 5 6 5
0.328031 0.207125 0.005557 0 0 51
-0.078321 0.252002 0.093227 0 7 59
0.254558 -0.284854 0.022454 255 255 255
0.410180 0.056902 -0.061147 0 1 56
-0.086768 0.278609 -0.126645 5 5 5
0.177034 0.434227 0.041530 253 255 254
0.343237 0.163388 -0.048597 255 254 255
0.072783 0.414657 -0.052131 170 172 172
-0.144286 0.064490 0.080109 7 8 6
0.341613 0.166197 -0.018676 255 254 255
-0.133873 -0.021177 0.017867 224 222 218
-0.152759 -0.174507 -0.107772 6 8 6
0.272594 -0.251658 -0.051677 144 145 148
0.346571 -0.030222 -0.091174 5 8 7
0.369298 0.106262 -0.046738 1 2 54
0.336548 -0.033641 -0.044690 253 252 253
0.313301 0.218401 -0.041745 0 1 51
0.218060 -0.325277 0.009729 180 181 183
-0.164953 0.031046 0.092464 207 206 208
0.033159 0.350265 0.112028 160 157 160
0.327972 -0.025968 -0.068596 1 1 53
0.080205 -0.415296 -0.015185 183 182 182
0.285352 0.238466 -0.061353 254 254 253
-0.046455 0.340821 -0.113253 4 5 6
-0.044574 -0.298120 0.110568 205 205 207
0.074715 0.400105 -0.054605 168 169 169
-0.100471 0.233211 0.013994 0 6 46
0.345912 -0.024555 -0.017318 0 0 52
0.118731 0.412143 0.000075 0 2 6
0.244794 -0.251266 0.017352 255 255 255
0.018265 0.346876 -0.020462 0 4 17
0.198293 0.422465 0.064353 251 252 252
0.332331 -0.016392 -0.050012 2 3 40
0.331481 0.158253 0.018876 253 252 252
0.436170 0.122541 -0.101859 254 253 255
0.337345 -0.024887 -0.040874 0 0 54
0.198698 -0.353263 -0.002645 254 253 255
0.228090 0.444371 0.053984 9 9 9
0.428339 0.055522 -0.052301 255 255 255
-0.082834 -0.269333 0.116003 210 208 209
-0.151949 -0.168306 -0.114450 6 7 6
0.158579 0.424358 0.007495 6 8 6
0.004499 0.370155 0.094750 163 164 164
-0.128991 0.164467 -0.086708 167 168 167
0.234108 -0.252661 -0.055844 255 254 255
0.165199 0.452099 0.032170 240 239 236
-0.149498 -0.129967 -0.035604 1 2 118
-0.138453 0.161942 0.121317 172 172 174
0.225239 -0.296085 -0.026106 159 160 162
-0.133776 0.067501 0.073007 7 7 7
0.101791 0.421042 -0.035607 173 174 175
0.075768 0.386127 0.039911 0 7 13
0.083892 0.394158 0.028138 0 8 15
-0.027633 -0.321713 0.047959 0 16 128
0.059926 0.408995 0.087318 6 6 7
-0.124277 0.196304 -0.111003 6 7 7
0.537876 -0.182372 -0.079436 2 2 52
-0.168068 0.008817 0.042235 214 214 213
-0.145694 0.056597 0.008144 8 7 8
0.126171 0.428673 -0.031472 177 176 177
0.412343 0.043906 -0.027080 1 2 51
-0.123327 0.127883 0.105266 106 111 108
-0.171985 -0.030877 0.007963 221 219 219
0.209671 -0.411423 0.015345 232 233 233
-0.171696 0.001326 0.049722 255 255 255
0.432015 -0.020089 -0.075837 0 1 54
0.391482 0.055831 -0.020220 255 255 253
-0.130486 0.084613 0.104800 191 190 192
-0.165250 0.082733 -0.017162 192 190 192
-0.069904 -0.320189 -0.135222 8 7 7
0.232018 -0.341391 -0.034406 178 180 181
0.273418 0.223311 -0.028438 0 3 55
0.095001 -0.396260 0.106113 186 186 185
0.309012 -0.088509 -0.028356 0 0 51
0.208829 0.398685 0.020338 204 202 204
0.331732 0.188514 -0.032411 6 6 5
0.513947 -0.117296 -0.063838 254 255 255
0.289752 0.231274 -0.022989 1 2 52
0.221531 0.442460 0.040107 179 178 178
0.438445 -0.028385 -0.025879 0 0 55
-0.128209 0.174412 0.005917 0 7 59
0.261025 -0.205671 -0.086270 1 0 51
-0.163112 -0.090964 -0.070508 236 236 236
0.056619 -0.410396 -0.059620 6 7 4
-0.149045 -0.104522 0.026506 2 0 119
0.166288 -0.428622 0.012539 231 231 231
0.248691 -0.275451 0.027367 255 255 254
0.321063 0.172592 -0.061217 0 0 52
0.427029 0.023213 -0.032998 0 2 51
0.188848 0.417760 0.058329 225 224 225
0.024365 -0.358835 0.060000 0 24 131
-0.038843 0.310707 -0.052824 0 8 21
0.014438 0.364674 -0.088195 3 4 10
-0.082990 -0.283377 0.118623 208 209 209
0.018444 -0.346005 -0.100614 195 195 196
0.308255 0.176511 -0.012886 255 255 255
0.327644 0.212246 0.026247 0 1 52
0.294805 -0.146892 -0.084925 7 7 5
-0.156263 0.126293 0.109571 4 5 6
-0.114694 0.268419 -0.127463 6 6 6
0.266400 0.267313 0.012912 254 255 255
0.049063 -0.381941 0.092579 4 35 133
-0.095214 -0.217303 0.114764 217 219 220
0.219033 0.409274 0.002024 255 254 255
-0.135787 0.220814 -0.123127 155 156 155
-0.128763 0.022060 0.052702 210 209 210
-0.125943 -0.171730 0.042503 0 3 125
-0.111678 -0.220483 0.112854 6 6 6
-0.139926 0.140661 0.069717 0 3 84
-0.101164 -0.223546 -0.010407 4 3 127
-0.120735 0.193384 0.051978 0 8 67
0.369757 0.010755 -0.046399 0 0 53
0.186614 -0.438599 0.004033 255 253 254
-0.110983 0.270582 -0.134791 148 149 150
0.034311 -0.345264 0.102462 6 6 6
0.435683 0.127835 -0.066748 0 2 52
0.286476 -0.226426 -0.000515 254 252 254
-0.140801 0.234123 -0.123605 6 7 5
0.241139 -0.231388 0.006453 254 255 255
0.413947 0.032973 -0.000043 0 2 52
0.231990 -0.357683 0.028803 188 189 190
-0.015560 -0.329488 0.031101 0 15 128
-0.083485 0.280437 -0.145800 151 151 152
0.288008 0.233623 0.026378 255 255 255
0.039221 0.395282 -0.099145 169 170 171
-0.098119 -0.259347 0.114959 7 9 8
0.202025 -0.410793 -0.000216 254 255 255
-0.018887 0.325055 -0.129229 5 6 6
0.294958 -0.129834 -0.082021 6 4 6
-0.134144 -0.221344 0.118526 216 216 215
-0.154868 -0.162195 -0.099229 5 5 7
-0.133160 -0.220557 0.113461 217 216 217
0.089673 0.410321 0.100615 169 170 170
0.324690 -0.034897 -0.086116 255 255 255
-0.106499 -0.205245 0.050319 1 6 127
0.111116 0.411954 0.008759 7 8 6
-0.169367 0.016891 0.049268 5 8 7
-0.023063 -0.334926 -0.031169 1 10 131
0.208923 -0.403315 -0.026275 209 210 209
-0.139977 0.117197 -0.032697 182 182 183
-0.138780 -0.130854 -0.008983 2 0 122
0.294965 0.213850 0.013879 0 0 54
-0.117068 -0.196014 -0.128106 6 8 7
0.124265 0.404412 0.094773 171 171 172
-0.042976 0.334789 -0.134840 7 8 6
0.119588 0.422646 -0.025452 175 175 175
-0.124984 -0.222394 -0.138612 217 218 218
-0.142686 -0.198456 -0.114940 227 226 227
0.271538 0.297472 -0.027448 154 154 152
0.184563 0.444657 0.053495 179 180 181
-0.158870 0.128330 0.104275 117 114 114
0.241951 -0.303504 -0.031384 160 160 163
-0.137152 -0.211927 0.118335 5 7 8
0.074911 0.391939 0.008174 0 5 11
0.269747 -0.249315 -0.000104 0 0 52
0.429646 0.024575 -0.045781 0 2 55
0.219417 0.390619 0.037779 204 205 204
-0.131720 -0.141344 0.128809 233 232 233
-0.121462 0.218364 -0.111227 5 6 5
0.272681 -0.174945 -0.068866 255 253 255
0.080200 0.401342 0.056981 168 170 170
-0.115209 0.201778 0.056936 0 8 65
0.247349 -0.284762 -0.026008 201 200 201
-0.164659 -0.034357 0.043122 6 8 8
-0.069309 0.285773 -0.121829 1 4 8
-0.042336 0.301438 0.071781 0 11 42
-0.045938 0.271449 0.122387 6 8 7
-0.133999 0.150455 0.114557 8 8 8
-0.151977 -0.113509 0.043268 1 1 122
0.269614 -0.188339 -0.021077 0 0 52
0.177157 -0.428588 0.073253 181 181 182
0.284062 0.238351 -0.029918 255 255 255
0.274514 0.253450 -0.047965 144 148 145
-0.119400 0.152911 0.103379 172 172 173
-0.099882 0.220159 0.089370 1 8 68
-0.024909 -0.325089 0.054768 0 16 131
0.212319 -0.405582 0.016953 255 255 255
-0.159527 0.126873 -0.053428 7 7 7
-0.145325 -0.193227 -0.112207 7 8 8
-0.034896 0.322748 0.105923 7 7 8
-0.167058 -0.049217 0.015652 6 7 6
-0.128934 0.004350 0.030436 212 212 213
-0.014272 -0.338498 -0.044816 0 8 129
-0.165811 -0.048980 0.041025 224 224 222
0.535691 -0.179778 -0.054027 255 255 254
0.346067 0.135779 -0.061480 253 254 255
0.125681 0.426057 -0.031882 6 6 8
0.021967 0.340325 0.115960 5 6 7
0.498817 -0.084372 -0.074019 255 255 255
-0.164585 0.066820 0.010188 196 195 196
0.233893 -0.289945 0.025095 254 255 255
-0.062599 -0.288915 -0.087631 1 2 130
0.258007 -0.242463 -0.024000 222 224 224
0.184927 0.422653 0.007256 173 173 175
0.097277 0.418095 0.093546 6 7 7
-0.128871 -0.025706 0.078099 223 221 222
0.118427 0.396574 0.092476 167 168 169
0.203613 0.415588 -0.014180 217 214 215
0.124562 0.437359 0.023715 7 8 6
0.029255 0.369671 -0.096413 2 7 10
-0.065866 0.305372 0.122744 5 7 6
0.325850 0.225486 0.020915 0 1 55
-0.147498 0.031219 0.103049 206 205 207
0.291579 -0.141107 -0.031249 0 0 51
-0.156741 0.078532 0.065758 7 7 7
-0.050715 -0.301610 -0.022589 1 9 127
0.211465 -0.412583 0.052018 255 255 255
-0.026268 -0.301009 0.131959 202 202 204
-0.087900 -0.289610 0.124058 209 208 208
-0.136043 -0.084925 -0.047808 251 249 252
0.183805 0.410596 0.066120 255 254 254
0.243481 0.303653 0.004612 254 253 254
0.209621 -0.397696 0.021030 211 209 210
-0.101252 0.273732 -0.139299 144 147 145
0.445653 0.109468 -0.089522 254 254 255
-0.036573 0.301845 0.089419 0 8 49
-0.087112 0.247275 0.012534 0 11 40
0.210969 -0.314898 -0.051052 255 255 254
-0.051196 -0.273150 0.124997 7 8 8
0.178104 -0.401218 -0.003238 213 213 214
-0.052133 0.309268 -0.133496 153 154 155
-0.145878 -0.058132 -0.036337 7 5 6
0.152198 0.420230 0.018395 7 8 8
0.179621 0.446082 0.032813 255 254 255
-0.125695 0.188650 -0.049719 0 6 42
-0.154452 0.084211 0.111686 6 8 6
-0.045738 -0.299730 0.125760 6 8 6
0.323059 -0.088104 -0.086312 0 1 51
0.000212 -0.353869 -0.101490 1 1 128
0.258341 -0.205390 -0.056085 255 255 255
0.200894 0.427242 0.062334 7 9 7
0.273405 -0.232122 -0.035743 11 11 13
0.067483 0.387591 -0.025314 4 7 8
0.309520 0.212807 -0.067909 0 2 56
-0.133749 -0.173567 -0.025932 2 3 123
0.275110 0.249479 0.012063 255 255 255
0.337154 0.192287 -0.061512 0 0 56
0.064130 -0.383551 -0.019136 0 15 127
0.124600 -0.426847 0.026589 6 6 7
0.286856 -0.162557 -0.049092 255 254 255
-0.055393 -0.316487 0.135270 203 203 203
0.165958 0.456730 0.009241 255 253 253
-0.096227 0.246137 -0.129099 2 4 11
-0.149712 -0.180454 -0.119639 7 7 6
0.004124 -0.347982 0.038425 0 19 132
-0.149322 -0.147151 -0.114092 8 6 7
-0.030241 -0.319612 0.126428 6 7 7
0.433611 0.028288 -0.009744 0 0 51
0.337369 -0.016329 -0.074995 255 255 255
0.208211 0.384643 0.058951 253 251 253
-0.154042 0.121249 -0.025084 182 182 183
0.213883 -0.380153 0.033546 255 255 255
0.541995 -0.156625 -0.041334 255 255 253
-0.132615 0.174015 -0.002777 1 11 60
0.031455 0.365819 -0.106177 162 165 164
0.205614 -0.404738 0.009435 255 255 255
0.215244 -0.329555 -0.005526 186 188 188
0.432695 0.113276 -0.073154 0 0 52
-0.141525 -0.107390 0.041175 2 1 122
0.168113 -0.427632 0.051513 6 6 8
-0.144743 -0.112033 0.120996 7 7 6
0.001285 0.327540 0.097978 157 158 157
0.041837 -0.389479 0.103026 188 187 190
0.257029 -0.242895 -0.022877 214 214 215
0.343397 0.117714 -0.000447 0 2 52
0.317611 -0.096064 -0.087566 0 0 55
0.042692 0.376415 0.014817 1 6 15
0.234356 -0.244716 0.017493 2 0 56
0.264073 -0.189600 -0.038238 0 0 51
-0.123627 0.148379 0.113978 6 8 7
0.044561 -0.380402 -0.021381 4 16 130
-0.152202 0.102020 -0.013544 8 7 7
-0.083000 0.248855 -0.129958 5 5 5
0.276842 -0.175232 0.007550 254 254 255
0.074507 0.390635 0.020572 0 6 13
0.452603 0.116288 -0.080135 255 254 255
-0.132123 -0.172069 -0.103463 5 3 119
-0.040179 0.298525 0.112427 0 7 48
-0.074661 -0.268144 -0.072435 2 4 126
-0.097934 0.232722 -0.016890 1 10 40
0.205712 0.413458 0.055043 219 217 217
-0.118843 0.204376 0.109422 7 8 8
-0.087755 0.265229 -0.111290 0 4 10
-0.121884 -0.193628 -0.068280 2 2 123
-0.066888 -0.303499 -0.129827 205 204 205
0.092860 -0.418884 -0.007355 182 182 182
-0.114980 0.231096 -0.127500 155 155 156
0.292547 -0.195566 -0.012985 0 0 52
0.283107 -0.195098 0.003895 254 255 255
-0.127482 -0.000773 0.014179 6 7 5
0.173748 0.421220 -0.023964 222 221 220
-0.061905 0.268487 -0.002900 0 10 36
-0.136234 0.162861 -0.021351 0 9 60
-0.006588 -0.331627 0.128088 199 199 200
0.209321 0.447492 0.054537 181 180 180
-0.126356 -0.196196 0.113437 224 222 224
0.203306 0.369264 -0.005306 255 254 255
-0.139966 0.080856 0.021332 195 194 194
-0.145904 0.209070 -0.111205 6 6 8
-0.133652 0.029177 0.047618 8 7 7
-0.161847 -0.155006 -0.103025 7 6 7
-0.074776 0.251542 0.118616 151 153 152
0.211735 0.350821 0.037915 255 254 255
-0.162815 -0.068723 -0.046910 5 8 6
0.513580 -0.129827 -0.075110 1 2 54
0.290277 -0.128771 -0.059926 0 0 54
-0.146336 -0.105708 0.120795 239 239 236
0.040084 0.378350 -0.100682 164 166 167
-0.020361 -0.334379 0.019570 0 17 130
0.267113 -0.274373 -0.062303 152 153 155
-0.113449 0.211330 0.075035 1 6 65
0.023012 -0.360870 -0.031931 1 13 132
0.214762 -0.446627 0.053516 6 8 7
0.169246 0.433965 -0.014523 225 224 225
-0.098496 -0.231388 0.040946 3 6 128
0.443074 -0.029022 -0.060382 0 0 52
0.397866 0.068955 -0.067649 255 253 255
0.340402 0.146291 0.018731 254 253 253
-0.124536 0.154929 -0.102014 170 170 170
0.491788 -0.069053 -0.047280 0 3 56
0.240707 -0.275577 -0.067417 152 153 155
0.492067 -0.071913 -0.043289 255 253 255
0.004836 -0.342085 0.117628 195 195 196
0.178625 0.451918 -0.009139 255 255 255
0.224427 -0.308182 0.025957 201 200 201
0.072800 -0.407760 0.096304 181 182 183
0.278284 0.276267 -0.040993 143 145 144
-0.160958 -0.025192 0.082453 221 220 221
0.174661 -0.442685 0.059486 7 8 9
0.336100 0.171744 -0.054620 0 0 51
0.063004 -0.384670 0.111183 5 6 6
-0.034288 -0.311620 0.089261 0 17 129
-0.132440 0.047743 0.023604 202 202 203
-0.123084 0.184822 0.025875 0 8 60
0.197775 0.416730 0.067439 223 218 219
0.321246 -0.103515 -0.049485 0 1 52
0.295114 0.265547 0.030422 0 0 54
0.349197 -0.038691 -0.073871 255 255 255
-0.125450 0.200077 0.126446 160 160 159
-0.072188 -0.257735 0.137170 9 7 9
-0.054763 -0.289692 0.074155 0 16 132
0.122842 0.414517 0.024927 0 2 6
0.148288 -0.433328 0.071972 100 101 94
0.400767 0.035934 -0.015947 0 0 54
-0.014316 0.316464 0.122522 155 156 155
0.053705 -0.399540 0.106056 5 6 6
0.338800 -0.058035 -0.063949 255 255 255
-0.054470 -0.287901 -0.142215 6 8 6
0.353413 -0.005750 -0.096731 255 255 255
0.276384 0.283600 0.012846 0 0 53
0.046385 -0.405939 -0.069370 8 9 9
-0.142190 0.030378 0.045112 206 206 207
0.453442 -0.034330 -0.015368 254 252 251
-0.163310 -0.161589 -0.098742 7 5 7
0.294716 -0.135442 -0.047979 3 6 21
0.476436 -0.055718 -0.017095 255 255 255
0.402785 0.056300 -0.046152 255 255 255
0.458847 -0.029953 -0.025327 0 1 51
-0.100372 -0.278220 -0.127117 7 7 7
-0.034326 -0.330838 -0.134917 4 7 5
-0.096780 -0.228389 0.113780 216 218 217
0.205088 0.406466 -0.019065 206 208 206
-0.019145 -0.331198 0.051179 0 19 133
-0.139854 -0.038466 0.104462 220 220 223
0.173763 0.423300 0.039751 6 6 8
-0.111048 0.223551 -0.011866 1 10 45
0.156686 0.444571 -0.019540 6 8 7
-0.011631 0.335746 0.116916 156 157 158
0.270796 0.264460 0.018466 255 255 254
-0.124869 0.117712 0.099069 180 181 182
-0.142848 0.152201 -0.005195 0 7 61
0.185809 0.459360 0.006719 234 235 235
-0.137637 0.172624 -0.090489 6 7 5
-0.037869 0.309575 -0.119610 7 8 8
-0.152982 0.031153 0.107537 6 6 7
-0.163852 0.111138 -0.022840 7 6 5
0.169495 -0.446827 0.026234 176 176 177
0.339183 -0.090448 -0.039545 254 253 254
-0.142399 -0.154198 0.107240 231 230 230
0.293126 -0.122273 -0.055914 0 0 53
0.474502 -0.087447 -0.042477 252 254 255
0.106251 -0.442210 -0.025101 174 175 175
0.102712 -0.401718 0.018665 3 26 129
0.386019 0.037920 -0.077942 1 2 53
-0.135231 -0.146101 0.114474 232 230 229
-0.153266 0.138225 -0.104538 8 7 9
0.287957 0.230888 0.018573 0 1 54
-0.130356 0.147221 0.089640 0 8 85
0.256641 -0.226720 -0.061378 0 0 53
0.068459 0.411253 -0.037760 173 173 174
0.258910 0.269109 -0.004634 148 148 149
-0.119031 -0.206614 -0.018937 2 4 125
-0.120895 0.110047 0.112353 186 185 185
0.432883 0.116439 -0.071700 255 253 253
0.433429 0.011227 -0.033423 0 0 51
-0.162166 -0.067447 0.085581 227 229 228
-0.081006 0.258103 -0.040654 0 8 25
-0.019006 0.338839 -0.115073 5 7 8
-0.079080 -0.268033 -0.086027 5 3 129
0.258227 0.297864 0.024885 255 255 255
0.166783 0.435922 0.066286 255 255 255
-0.124102 0.144566 0.108641 176 177 176
-0.137276 0.083802 0.017017 7 6 6
0.255402 -0.230818 -0.005486 2 3 53
0.321831 -0.094140 -0.025979 254 255 255
0.068670 -0.398020 0.094184 6 7 7
-0.089071 -0.236321 -0.136568 219 216 218
-0.162514 0.127892 -0.070111 182 182 182
-0.143754 0.001918 0.042313 5 6 7
0.325253 -0.056257 -0.006180 0 1 52
-0.135408 0.156546 -0.051813 0 11 49
0.251720 0.334605 -0.000181 255 255 255
0.409057 0.059956 -0.070231 0 0 56
0.309251 0.242405 0.009626 255 255 254
-0.150596 0.113363 0.064959 2 3 89
0.250107 -0.270792 -0.036056 212 211 212
-0.136083 0.176491 -0.073396 1 10 39
-0.098000 -0.231089 0.047438 2 7 128
0.394635 0.053701 -0.004437 253 253 255
-0.062310 -0.279397 -0.127704 5 7 8
0.221520 -0.327841 0.038780 255 254 255
0.185846 -0.389968 0.050786 255 254 255
0.128250 -0.441131 0.021094 178 178 179
-0.115853 0.208746 -0.012011 0 9 45
0.263911 0.297452 0.010882 146 147 145
-0.073959 -0.248728 0.130575 7 7 8
-0.097461 0.223883 0.097538 1 9 69
-0.064605 -0.292323 0.117981 206 206 207
-0.139375 -0.181519 0.133266 231 229 229
-0.079862 -0.264070 -0.023097 3 7 125
-0.132473 -0.162369 0.095795 1 2 124
0.282768 0.232705 0.008593 0 0 52
-0.065548 -0.317439 -0.131113 201 199 202
0.323638 -0.138176 -0.013842 255 254 254
-0.019693 0.314454 -0.032034 0 5 21
0.523194 -0.145859 -0.036056 255 255 255
-0.154131 -0.021972 0.010543 219 219 219
-0.134882 0.157301 0.044316 0 8 76
-0.011933 -0.342954 -0.128278 195 195 194
0.020840 0.377268 -0.109944 165 164 165
0.421923 0.033212 -0.072723 7 8 11
0.209627 -0.324191 0.030420 254 255 254
-0.086684 0.267302 -0.127314 4 5 7
0.222040 -0.295675 0.002093 156 158 159
0.105586 0.406093 -0.018520 1 3 7
0.500358 -0.130067 -0.039850 254 253 254
-0.076687 0.263667 0.060730 0 10 50
0.264566 -0.260322 -0.054543 200 201 200
-0.131388 -0.120446 -0.070257 239 237 235
-0.100297 0.237881 -0.127629 156 157 156
0.097937 0.407168 0.042432 5 8 8
0.252395 -0.248907 -0.003225 255 255 255
0.054374 -0.377490 -0.001316 2 19 129
-0.167225 0.021123 0.028046 210 211 211
-0.146236 0.084545 0.033804 7 7 7
0.035928 0.386629 0.080259 169 168 169
0.337822 -0.072975 -0.004577 0 0 53
-0.060248 0.285662 -0.109587 2 8 10
0.103435 -0.411950 0.020728 183 184 185
0.068191 -0.398519 -0.032232 186 186 186
-0.157818 -0.048358 0.049143 5 7 6
-0.135827 0.086108 -0.002872 189 190 190
0.337792 0.182245 -0.018397 255 255 255
-0.164455 0.064252 0.041614 198 195 199
0.256908 0.277261 -0.003391 154 154 155
0.165916 0.436388 0.077172 7 7 8
0.117412 0.407472 0.040772 173 173 172
-0.143302 -0.072951 0.060502 1 3 118
0.272595 0.286666 -0.040814 152 153 151
