ply
format ascii 1.0
element vertex 1207
property float x
property float y
property float z
property uchar red
property uchar green
property uchar blue
end_header
0.072882 0.243720 0.009607 198 198 198
-0.039843 -0.253112 0.059571 79 98 137
0.164545 -0.144795 0.008925 251 252 252
-0.028107 0.290752 -0.017939 225 227 226
-0.102159 -0.079874 -0.035465 238 239 239
-0.110187 0.017665 0.023939 233 234 235
-0.089827 0.115497 -0.083204 65 68 71
-0.108224 0.073256 -0.028780 58 73 116
0.304002 0.006820 0.021014 251 253 252
0.167705 0.133921 0.022292 253 254 253
0.314872 -0.005719 0.029295 248 250 249
-0.010529 -0.281645 -0.029990 251 252 252
0.299429 0.015967 0.036856 253 255 254
-0.102056 0.105787 -0.002665 46 57 125
0.302730 0.011649 0.030220 250 252 251
-0.041988 0.267051 0.002302 74 99 174
-0.068120 -0.146454 0.075315 66 62 73
-0.010827 0.308209 -0.002249 248 250 250
-0.060675 -0.283829 -0.001041 64 79 151
0.153858 -0.152989 -0.005763 199 201 200
-0.077429 0.229805 -0.079601 84 89 88
0.122905 -0.181149 -0.006021 190 191 190
-0.106264 0.072413 0.035258 78 102 164
-0.095219 -0.182196 -0.028163 74 90 121
-0.079182 -0.245042 -0.065363 64 66 67
-0.091264 0.047453 0.044076 94 115 163
-0.081154 0.082141 -0.069793 136 143 143
0.107080 -0.200738 0.044325 241 242 243
-0.033034 -0.253184 0.058009 94 107 135
-0.100394 -0.061328 -0.009034 129 144 173
0.232861 0.081928 0.036791 251 254 252
0.154523 -0.146366 0.021974 250 252 251
0.337520 -0.033944 -0.007526 251 253 253
0.100353 -0.213315 0.031579 193 194 191
-0.065959 -0.189167 -0.076658 47 52 116
-0.054676 0.280860 -0.004620 104 126 179
0.038488 0.252121 0.031597 251 252 252
-0.103660 0.116983 -0.079337 101 126 177
-0.108413 0.009762 0.036048 250 252 251
-0.045590 0.280294 -0.049608 55 54 55
0.028503 0.260135 0.052548 241 241 242
-0.060240 -0.248110 -0.016517 73 86 114
0.181246 0.141927 0.003706 249 251 251
-0.055599 -0.285704 -0.038407 249 251 250
-0.092305 -0.185632 0.057747 68 87 152
-0.091551 -0.065227 0.032123 249 249 250
0.157851 -0.158186 0.025691 251 251 251
0.284598 0.031242 0.016215 249 250 250
-0.087686 -0.061194 -0.028027 248 250 250
-0.103078 -0.073133 -0.029801 250 252 252
-0.090517 -0.184539 -0.089542 73 78 84
-0.026144 -0.275259 0.046242 101 127 173
0.141567 -0.159931 0.000429 252 253 252
-0.078589 -0.166130 0.072498 113 141 196
-0.101033 0.093858 0.067629 118 145 195
-0.066848 0.231626 -0.076134 73 57 56
-0.099074 -0.143101 0.064740 107 114 122
-0.105556 -0.039452 0.026685 247 249 249
-0.104597 -0.096224 -0.023243 64 78 132
0.266766 -0.028916 0.019271 248 250 250
-0.048147 -0.286846 -0.016244 88 111 178
0.143801 0.155052 0.052741 252 252 252
0.001520 0.276711 -0.019686 251 252 250
-0.096553 -0.138613 -0.063436 55 65 129
0.060018 0.248127 -0.000276 200 199 199
-0.084060 0.099163 0.026250 79 102 160
0.009575 -0.285127 -0.003018 249 250 248
-0.087268 0.077828 0.011618 60 70 137
0.340706 -0.039564 0.005224 252 254 254
-0.073075 0.150018 -0.020129 79 101 149
-0.109515 0.107806 -0.054025 74 94 154
0.074926 0.239988 0.004586 250 252 251
-0.087294 -0.117754 0.075674 250 250 251
-0.085190 0.228898 -0.012447 60 72 141
-0.084278 -0.098199 0.020986 65 80 141
0.090365 0.206071 0.004582 252 253 252
0.008595 -0.250526 0.029943 81 90 95
-0.076896 -0.250759 -0.067336 242 243 243
-0.103414 0.121938 -0.080584 70 75 87
0.040191 0.273958 0.041462 250 250 249
-0.083980 -0.155612 0.074044 100 127 177
-0.090971 0.100546 0.070046 61 64 66
-0.074560 -0.248784 0.050041 58 75 145
0.143242 0.173733 -0.017564 246 247 247
-0.100141 0.020445 0.005094 64 69 80
-0.100563 -0.096665 0.054870 70 89 140
0.129073 0.182563 0.000539 197 196 195
-0.019854 0.303990 -0.010326 247 247 247
0.299291 0.013043 -0.012904 252 252 252
-0.059446 -0.287588 -0.022464 64 69 72
-0.074494 0.176318 -0.087413 188 187 188
0.175863 -0.132932 -0.007189 252 252 251
0.200383 0.098866 0.047857 251 253 253
-0.083905 0.272350 0.005866 91 113 161
-0.041538 0.276960 0.002146 232 233 233
-0.078341 0.221942 -0.083687 72 73 73
0.205675 -0.100023 0.035247 252 252 252
-0.079397 0.220196 0.062836 56 64 122
-0.092995 -0.063495 0.070298 251 251 252
-0.089610 0.219566 0.042884 76 92 123
-0.084990 0.083046 -0.062459 84 112 174
-0.068068 0.202645 0.054487 77 89 109
0.213883 0.103539 0.042912 251 252 252
0.019946 -0.277259 0.052698 244 246 245
-0.099514 0.164700 -0.061872 56 69 133
-0.087566 0.227226 -0.052972 56 67 115
0.198354 0.104015 0.035573 247 248 248
-0.086796 -0.051047 0.012076 55 57 67
0.110601 0.187868 0.048525 251 252 251
-0.069603 -0.265213 0.050767 79 97 132
-0.091752 0.101788 -0.078089 86 103 145
0.069980 -0.225398 -0.020951 252 253 252
-0.042619 -0.284778 0.050528 85 113 160
-0.026284 -0.271227 0.063132 111 136 186
0.241130 -0.054105 0.011754 250 252 251
0.053180 0.258344 -0.000310 247 248 248
-0.105034 -0.022097 0.016973 251 252 252
-0.076760 0.181375 -0.072357 92 112 155
-0.102529 0.087688 0.061692 58 74 149
-0.084525 -0.083373 -0.028687 66 67 71
-0.066782 -0.277412 -0.030825 60 68 100
0.305468 0.012324 -0.010426 246 248 248
-0.081861 0.161079 0.065392 86 112 169
-0.071386 0.173561 -0.050997 67 91 173
0.071643 -0.230252 -0.003154 200 200 198
0.028545 -0.287882 0.046928 205 205 204
-0.030876 -0.264280 0.005328 76 107 169
-0.077516 0.184199 -0.086521 96 119 164
0.131779 -0.170556 0.022697 249 251 251
-0.099517 0.118742 -0.082523 93 77 79
0.203076 -0.094333 0.010375 252 253 251
-0.041749 -0.268317 -0.024963 66 66 69
-0.088445 0.220000 -0.039983 53 65 133
0.072909 0.227486 0.048636 252 253 253
0.000273 -0.294382 0.039702 249 250 248
-0.068174 -0.191104 -0.083904 66 65 62
-0.002632 0.299713 -0.018561 231 232 231
0.063641 0.226487 0.012253 182 183 182
0.024861 0.278877 -0.018948 248 249 248
0.211831 0.103467 0.031997 249 250 249
0.315767 -0.000433 0.005229 252 253 252
-0.059319 0.223022 -0.061971 68 77 90
-0.096322 -0.156280 -0.079486 74 89 139
-0.058045 -0.269310 -0.034018 237 238 239
-0.088353 0.209157 0.065452 65 63 70
0.147685 0.155905 -0.012545 250 251 252
0.091982 -0.212020 0.026095 192 194 191
-0.062845 -0.274903 0.018420 70 93 158
-0.082714 0.128015 0.039428 56 70 128
-0.034747 -0.279787 0.056660 73 81 87
-0.097630 0.152860 -0.029756 62 72 137
0.061922 -0.232022 -0.014289 250 251 250
0.123334 0.191962 0.004997 249 251 251
0.012826 0.293007 0.035901 249 249 249
0.105409 -0.191441 -0.017304 248 250 248
0.069381 0.230923 0.015323 192 192 191
-0.010025 0.299399 0.017468 251 252 252
-0.102226 0.101938 -0.074375 118 132 150
0.169653 0.128845 0.026789 251 253 253
-0.099421 0.152612 0.034243 60 74 134
0.139928 -0.159681 -0.003896 243 244 243
0.055038 -0.244821 0.001268 201 200 201
-0.034493 -0.295098 0.011760 63 89 160
0.100971 0.210861 -0.022060 248 250 248
-0.003080 0.302087 -0.008468 251 251 250
-0.031957 0.289362 -0.006340 173 173 173
0.155560 0.144215 0.004822 250 250 249
0.078483 0.218353 0.018654 201 203 207
0.335314 -0.016756 -0.028152 251 251 250
-0.067966 0.203375 0.018501 59 72 124
-0.021607 -0.290603 0.039628 60 60 62
0.271288 -0.032524 0.001340 251 252 252
-0.043655 -0.291191 0.031778 141 144 143
-0.087272 -0.043088 0.045042 235 238 236
-0.002545 0.300877 0.057348 248 249 249
-0.063270 0.297938 0.017276 55 52 52
-0.043143 0.281453 -0.021512 251 252 251
-0.036849 -0.277516 -0.009591 84 109 162
0.297967 0.004667 0.028848 251 251 251
-0.100549 -0.110995 -0.074223 165 167 168
-0.051200 0.260370 0.013828 61 59 64
-0.093006 0.184113 0.063023 65 79 109
0.268650 -0.026078 -0.021503 252 252 253
-0.046954 0.252241 0.048608 65 70 71
0.139261 -0.164150 0.034518 249 252 250
-0.078596 0.224860 -0.080448 68 81 118
-0.053002 0.267592 -0.047897 73 93 151
-0.068538 -0.244492 0.072810 64 70 76
-0.067454 -0.129263 -0.069609 59 58 60
0.134490 -0.182654 0.034480 249 250 250
0.050800 0.242521 0.033853 250 252 252
-0.105334 0.059425 0.014701 44 53 134
-0.064801 0.244356 0.057838 67 83 137
0.307079 0.003559 -0.024146 249 249 249
-0.090626 -0.208412 -0.004268 56 73 150
-0.038678 -0.289254 0.039942 89 119 186
0.147429 -0.170154 0.029991 252 254 254
-0.034891 -0.289864 -0.021816 248 250 249
-0.104282 -0.116101 -0.035544 67 81 144
-0.068056 0.096295 -0.069901 62 50 43
-0.102987 -0.087258 -0.053895 74 70 80
0.303738 -0.001594 0.022149 251 253 253
0.312042 0.000456 -0.021650 253 254 253
-0.073431 -0.118990 0.052304 63 72 88
-0.068053 -0.231886 -0.091717 73 64 69
0.030171 0.255217 0.016549 251 252 250
-0.050856 0.259825 -0.037835 61 76 139
-0.035179 -0.264863 0.054654 89 105 131
-0.079288 0.170377 -0.089695 102 114 129
-0.049986 -0.289823 0.008011 69 94 171
-0.062314 -0.161248 0.076094 221 222 221
0.131076 -0.184167 0.009731 250 253 250
0.059098 0.231426 0.027532 250 250 250
-0.078079 0.177783 -0.090935 65 63 65
0.100293 -0.198706 -0.020883 252 253 252
0.037954 0.257007 0.053131 247 248 248
-0.024835 -0.304551 0.036612 249 250 248
0.262639 0.054996 0.041675 250 251 251
-0.089587 0.233667 0.003634 62 78 133
-0.087884 -0.239089 -0.084404 73 80 81
-0.088098 0.065595 -0.048372 70 93 162
0.084540 0.230575 0.025026 207 208 205
0.211779 0.105596 -0.010712 252 253 253
0.005159 0.273569 0.052564 250 251 251
-0.088888 0.044890 0.020359 64 70 81
-0.068280 -0.251933 0.055063 62 74 126
-0.056188 -0.223146 0.078984 62 65 76
-0.006982 0.305145 -0.014250 251 252 251
-0.083964 -0.242265 0.029160 62 83 153
-0.068854 0.252336 -0.069825 67 66 69
0.036856 -0.253493 0.002332 250 252 250
0.168642 0.137258 -0.014656 251 252 251
-0.073115 -0.269969 -0.037748 247 247 247
-0.106667 0.116254 -0.075450 106 126 159
-0.085536 -0.235203 0.016413 67 89 168
0.121268 -0.177468 -0.022673 247 248 248
-0.079976 -0.235529 -0.074418 66 73 75
0.033607 0.260467 -0.019660 251 251 250
-0.107120 0.103940 -0.062644 96 123 185
-0.048997 0.298085 -0.016581 251 252 251
-0.021103 -0.278849 -0.040217 251 251 250
-0.099843 -0.124185 -0.053155 70 91 157
-0.084921 0.237274 -0.068253 78 99 155
-0.067822 -0.191842 0.063520 61 68 76
-0.099225 0.154515 0.061915 73 92 145
-0.060540 -0.277291 -0.014085 63 83 152
-0.071654 -0.191687 -0.041602 49 59 130
0.117546 -0.197224 0.006561 250 252 250
-0.073111 -0.176387 0.050871 51 64 148
0.003391 -0.270893 0.001971 142 146 144
-0.086603 -0.090306 0.006196 74 95 161
0.277284 -0.020667 -0.031644 253 254 252
-0.048907 0.264361 0.042871 122 140 175
-0.035729 -0.294097 0.045068 65 69 66
-0.090517 0.089526 -0.072586 86 80 82
-0.098036 0.170046 0.066273 78 90 95
-0.098746 -0.078683 0.068704 251 251 252
-0.090190 -0.203314 0.068577 67 74 80
-0.092459 -0.022882 0.022287 250 252 252
-0.032923 0.293483 0.057462 247 248 249
-0.010630 -0.284200 0.033458 112 143 197
-0.086827 0.031143 0.054428 245 246 245
0.106346 0.202123 0.035239 186 187 186
-0.081874 0.082485 0.035069 86 109 158
-0.069765 -0.241670 0.081979 245 247 246
-0.011267 -0.297909 -0.024901 250 251 250
-0.093563 0.190562 0.041990 71 86 129
0.095325 -0.210092 0.038136 250 251 250
-0.086961 0.060459 0.051854 60 67 76
-0.104435 0.134403 0.044116 81 100 141
-0.066161 -0.252377 -0.074447 64 75 114
-0.042173 -0.291351 -0.002973 249 250 249
-0.087066 -0.056581 0.037831 63 65 69
-0.061744 -0.239851 -0.044776 52 62 132
-0.063226 0.264472 0.042411 63 79 131
0.125702 0.182919 0.024276 194 195 193
-0.044975 -0.283872 0.058431 68 67 72
0.058598 -0.255786 0.005299 251 252 250
0.113694 0.192915 0.001278 204 204 203
-0.102752 0.148049 -0.086526 63 67 70
-0.014147 0.283461 0.057459 245 246 247
0.132657 0.185204 -0.018338 251 252 252
-0.105026 0.102985 -0.067951 87 113 166
0.098617 -0.216914 0.000962 251 252 251
-0.044250 0.301804 0.042871 155 157 158
-0.087531 0.221067 -0.076783 96 116 158
0.179326 -0.129633 -0.016876 250 252 251
0.137775 0.162431 0.000898 249 250 250
0.000872 -0.298892 0.018894 251 252 251
-0.094149 -0.155020 0.052054 59 74 141
-0.073969 0.140918 0.059446 62 68 101
-0.011130 0.295147 0.022509 105 133 191
-0.085164 0.069024 -0.056204 112 137 182
-0.054907 0.289078 -0.000069 104 127 183
-0.101285 -0.122334 -0.053346 81 103 152
-0.088267 -0.169548 0.073390 62 80 141
-0.031401 -0.282640 -0.010896 108 128 166
0.085566 -0.224296 -0.013841 195 196 195
-0.081575 0.141987 -0.055309 69 88 146
0.188825 0.129883 -0.008767 252 253 253
-0.020960 -0.275813 0.019302 98 117 155
0.174853 0.140703 -0.012899 251 253 252
-0.068550 0.226955 -0.079169 200 201 200
-0.037416 -0.298006 -0.019156 64 73 86
-0.030510 -0.255298 0.057807 72 78 93
-0.106894 0.056174 0.006279 61 76 136
0.314968 -0.003660 0.004593 249 250 249
0.057796 0.239361 0.025575 192 193 194
-0.091465 0.208169 -0.064995 74 90 136
0.277526 0.027854 0.010492 251 252 252
-0.051387 -0.200559 0.073629 103 118 145
-0.059631 -0.184457 0.070341 79 109 172
0.267838 -0.036979 0.026581 252 252 251
-0.012029 -0.298208 0.005831 135 149 171
-0.081017 0.202984 0.044758 67 69 90
0.144200 -0.156541 0.039527 250 251 251
0.250981 0.062485 -0.010371 248 250 250
0.013113 0.294280 0.021677 247 248 248
-0.043251 0.247536 0.030143 60 62 68
-0.064667 0.205770 0.054630 57 75 144
0.217620 0.086786 0.032727 251 252 252
-0.104383 0.115665 -0.000456 70 87 146
-0.072227 -0.179214 -0.071615 63 80 172
-0.097103 0.176652 0.010298 77 98 152
-0.100022 0.166749 0.034884 70 89 144
-0.052071 0.284504 -0.017200 68 70 81
-0.068585 -0.181493 0.067267 50 64 135
-0.050450 -0.280033 0.040666 227 227 227
0.228300 0.078550 -0.000537 252 253 253
-0.065058 -0.222194 -0.065485 67 89 162
-0.107643 0.064560 0.046705 86 108 153
-0.076084 -0.168869 -0.085316 61 78 156
-0.077115 -0.134313 0.058998 86 96 105
0.040640 -0.273944 0.026083 243 244 243
-0.038650 -0.270440 -0.047014 223 225 225
0.050105 -0.256946 -0.014250 251 252 252
-0.060875 -0.233924 -0.029846 49 59 122
-0.106616 0.057955 0.025624 52 65 135
0.053864 0.264514 -0.003520 249 251 248
-0.080509 -0.068698 0.043801 66 67 69
-0.086309 0.130744 -0.073432 48 58 148
-0.010600 -0.287031 0.040988 203 207 203
-0.076344 -0.251333 0.021595 65 91 171
-0.028968 0.279480 0.020475 58 69 110
0.220158 0.099162 -0.009918 248 250 250
0.167287 -0.132274 -0.024335 250 252 251
-0.085090 0.090762 0.065361 101 129 185
-0.078063 -0.157501 0.025378 65 84 155
-0.101341 -0.060828 -0.017815 249 251 251
-0.060549 -0.270567 -0.054111 251 251 249
0.225442 -0.083876 -0.028519 253 253 253
-0.022992 0.274186 -0.009685 252 253 253
0.047831 0.251036 -0.024935 236 237 237
0.028047 -0.276910 0.045180 246 247 246
-0.103232 -0.072157 0.016426 50 58 138
0.145793 0.168934 0.032959 250 252 252
-0.097357 0.042337 -0.049448 63 65 66
-0.090671 0.067948 -0.064986 78 86 84
-0.077479 0.143610 0.055161 66 73 81
-0.090563 -0.023379 0.034889 250 251 252
-0.026929 -0.283418 0.038328 66 67 69
-0.104361 0.150932 0.013255 75 92 143
-0.104102 0.130626 -0.029975 67 84 142
-0.082073 0.066368 0.045267 70 87 139
-0.013706 -0.284054 0.020109 123 144 186
0.124545 0.183021 0.010745 192 193 191
0.039241 0.263715 -0.019398 233 235 235
-0.064797 -0.203711 0.021651 53 68 138
-0.071336 -0.120748 0.051963 75 81 94
-0.104674 0.122493 -0.036275 70 86 144
0.038020 -0.273331 0.044078 247 248 249
-0.102649 0.130264 -0.084084 140 148 154
0.134419 0.165752 0.012648 251 252 251
-0.085173 -0.216102 -0.059135 68 84 152
0.002098 -0.267375 0.044656 116 126 133
-0.078615 0.249898 -0.025965 58 70 130
-0.064997 -0.193274 0.074842 81 114 190
0.133829 0.174326 -0.012754 252 252 251
0.070707 0.219192 -0.005938 251 251 253
-0.076714 -0.211418 -0.092974 73 74 85
0.303485 -0.003373 0.035117 252 252 252
0.010784 0.261159 0.041090 251 251 251
0.118149 0.192857 0.047406 250 253 250
-0.090268 -0.097841 -0.069327 70 86 146
-0.078930 -0.255829 -0.062384 73 95 162
-0.086432 -0.061345 0.020056 64 67 73
0.085217 0.211703 0.035848 249 251 250
-0.048259 -0.277113 -0.048500 245 247 245
0.135978 -0.175566 0.032913 201 202 201
-0.017859 0.292968 -0.021772 250 251 250
-0.021340 0.282946 0.032037 247 249 248
-0.050315 -0.262567 -0.049771 67 85 148
-0.049928 -0.239668 0.072499 62 69 88
-0.089399 0.245370 -0.012163 63 79 147
-0.023727 0.281227 0.029578 251 253 251
-0.104022 -0.084763 0.035240 73 93 156
-0.083812 0.109944 0.005164 54 70 162
-0.086936 -0.221601 -0.072232 65 65 67
0.056898 0.254149 0.039925 174 174 174
0.232397 -0.059445 -0.030220 250 253 251
-0.001103 -0.282106 -0.009776 250 250 249
0.173966 -0.139307 0.004642 253 254 252
0.013220 0.270245 -0.004030 235 237 236
0.120944 -0.195166 0.000614 250 252 251
-0.049049 -0.242749 0.043890 77 99 168
-0.109876 0.032225 0.012068 84 94 94
0.120910 0.197243 0.030550 251 252 252
-0.073787 0.186977 -0.088728 130 134 134
-0.051090 -0.251155 0.077321 224 227 229
0.150828 -0.166331 0.029554 248 250 251
0.105375 -0.209731 -0.002130 251 253 252
-0.028794 -0.282083 -0.025277 249 252 251
-0.090870 0.081822 -0.020139 75 103 176
0.166868 0.134964 -0.011660 253 253 252
-0.042724 -0.248541 0.073381 61 60 69
-0.014160 -0.274888 0.055919 80 119 191
-0.049918 -0.291258 0.010599 139 143 142
-0.025234 0.300745 -0.002821 245 245 245
0.082918 0.213709 -0.022183 250 252 250
-0.021322 0.288347 -0.021917 248 249 249
0.135348 -0.174663 0.039471 251 251 251
-0.076092 0.186439 -0.051739 69 93 168
-0.028604 -0.292168 0.004556 132 136 137
-0.029669 -0.290116 -0.013341 70 100 187
-0.104966 0.121498 -0.077478 64 76 114
0.186057 -0.127287 0.010951 251 253 253
0.153264 0.153683 0.010823 251 253 252
-0.087282 -0.169884 -0.077018 70 70 72
-0.087107 0.136798 0.066702 79 106 170
0.027398 -0.278516 -0.016547 245 245 246
-0.110495 0.104016 -0.026059 75 89 124
-0.085684 -0.108225 0.007964 61 77 142
-0.082889 -0.227043 -0.087212 80 87 97
-0.088174 -0.166804 -0.023558 54 65 137
0.219579 -0.092877 -0.002375 251 252 251
-0.075853 0.162042 0.045887 60 77 145
-0.088151 -0.203827 -0.076962 74 83 98
-0.045134 -0.247841 0.072863 106 132 174
-0.076968 -0.241346 -0.088308 64 67 77
-0.091097 -0.200114 -0.086258 82 80 81
-0.100304 0.102450 0.012217 61 76 155
0.103118 0.214142 -0.004393 251 252 251
-0.077588 -0.166537 0.003834 51 65 137
-0.064429 -0.200548 -0.093062 84 91 89
-0.054075 -0.287837 0.034885 79 89 90
0.185409 0.114005 0.047202 249 251 250
0.211661 -0.094202 -0.021159 251 254 252
0.297671 0.000836 -0.022909 252 254 252
-0.084150 0.115484 0.061569 91 112 153
-0.081274 -0.153319 -0.082496 55 68 140
0.291550 0.028187 0.036073 251 251 251
-0.077851 0.262877 0.022086 76 98 155
-0.082171 -0.083187 -0.006732 89 114 166
-0.084889 -0.234277 -0.087950 123 130 130
-0.051580 -0.259336 -0.041347 68 69 74
0.020624 -0.264325 -0.027853 251 252 252
-0.090347 0.189594 0.065771 65 70 77
-0.068581 -0.277477 -0.032895 68 84 129
-0.069069 -0.218795 0.020234 48 60 132
-0.098845 -0.092095 -0.049226 85 96 107
-0.091983 -0.156703 -0.084425 60 72 152
0.020480 -0.284919 0.023364 252 253 253
-0.084367 -0.095569 -0.053307 203 204 201
-0.080842 -0.112591 0.055694 65 73 71
0.257287 -0.046031 0.026568 251 253 252
0.068130 -0.223150 -0.020298 252 252 251
0.131033 0.182874 -0.009906 251 253 252
-0.104587 0.094540 0.059832 61 76 132
0.312420 -0.008389 0.037216 248 249 249
-0.102650 0.145113 -0.066402 64 81 146
-0.042495 0.277098 0.038655 249 250 249
-0.091411 0.102517 -0.078168 120 139 171
-0.094468 0.134576 -0.080628 162 164 163
-0.103743 0.080474 -0.040994 54 63 135
-0.085913 0.234348 -0.074600 60 65 111
0.179375 0.123356 0.017643 253 253 253
-0.104545 0.093677 0.056000 73 91 135
-0.101755 0.133653 -0.081150 66 79 108
-0.106193 0.010656 0.016945 243 245 243
0.122448 -0.195955 0.002153 253 253 253
0.008851 0.274210 -0.019924 251 251 251
-0.110592 0.058537 -0.026900 78 99 153
0.001244 -0.281124 0.006575 111 138 190
0.028383 -0.275898 0.008539 250 250 250
-0.099393 -0.139195 -0.075796 71 74 71
-0.078736 -0.205080 0.070785 54 68 140
0.120524 0.198258 -0.022642 248 250 249
-0.108052 0.042098 0.003828 83 98 126
0.054469 0.238204 0.045055 249 250 249
-0.085864 0.010671 0.015108 248 249 248
-0.031202 -0.270089 0.046947 88 107 139
0.052027 -0.234515 -0.019060 249 250 250
0.266353 -0.036264 -0.023901 248 249 248
-0.049508 -0.261327 -0.055588 44 55 136
0.111377 0.194325 -0.004802 202 202 200
-0.067630 -0.277261 -0.010029 70 97 181
0.106931 0.191327 -0.007181 251 253 251
0.238529 0.065803 0.028438 252 253 253
0.157984 -0.155954 0.021412 252 253 252
0.059341 0.252909 0.012770 247 248 248
-0.066900 -0.220911 -0.081706 112 128 156
-0.092747 0.025045 -0.020155 61 58 57
-0.080221 0.245506 0.035708 63 73 77
0.030855 0.275631 0.019564 252 253 252
-0.069933 0.193714 -0.069513 95 117 156
-0.093217 0.199103 -0.086294 58 59 62
0.231659 -0.061585 -0.001770 251 253 252
0.077561 0.226691 0.050219 251 252 250
-0.070795 0.169752 -0.008433 74 99 156
-0.022187 -0.275314 -0.004227 99 125 176
0.172969 0.126890 0.014738 252 252 253
0.296709 0.011867 0.011718 253 254 253
0.074092 -0.247267 0.034635 247 248 248
0.210176 0.106549 0.001580 252 252 251
-0.060021 0.243876 -0.075946 65 59 63
0.101663 0.194635 0.019603 250 251 251
-0.075555 0.129100 0.059552 124 145 182
-0.090570 0.049983 0.037071 62 76 135
-0.034826 -0.282484 -0.029746 80 104 170
-0.074703 -0.155717 -0.026092 54 62 135
-0.093389 -0.168092 0.011550 61 76 139
-0.054566 -0.285069 -0.002181 236 238 238
-0.103217 -0.083955 -0.027053 87 109 153
0.035822 0.251167 0.054666 249 251 250
-0.108103 0.050831 0.042158 66 81 130
-0.095767 -0.192525 -0.091440 103 113 117
-0.099059 -0.148615 -0.017153 66 83 147
-0.089938 0.145794 -0.088076 113 144 203
-0.038798 0.297907 0.004506 58 62 54
0.162493 0.138368 0.016522 252 253 252
0.081870 -0.237435 -0.016222 250 250 250
0.273620 -0.019768 -0.015800 251 252 251
0.175947 0.126447 -0.006993 251 252 250
0.062881 -0.234384 -0.019297 249 251 250
-0.080493 0.180796 -0.082754 74 94 158
0.330849 -0.029469 0.029781 252 252 251
0.146761 -0.164347 0.002643 201 204 200
-0.090604 -0.159785 0.060306 71 83 82
0.089943 -0.221179 0.026708 198 200 201
-0.097975 -0.101492 0.023148 57 75 144
-0.086834 -0.078045 0.010662 61 78 145
0.099571 -0.217567 0.024669 184 185 182
-0.091513 0.058567 -0.055897 81 71 74
-0.004492 -0.292117 0.015260 250 253 252
0.259397 0.057984 0.045188 252 253 253
-0.042080 -0.252022 0.052595 73 102 181
0.066693 -0.231206 0.020192 247 249 247
0.092132 -0.210617 0.023283 252 253 252
-0.098405 0.020663 -0.011869 56 62 59
0.180791 -0.125064 0.039465 251 252 252
-0.024747 0.307914 0.051663 252 252 252
-0.040462 -0.287988 -0.040956 88 98 103
-0.073700 0.151425 -0.021000 44 53 146
-0.011493 0.286702 0.035261 205 208 213
-0.105104 0.098006 -0.002052 62 78 135
-0.088704 0.228234 0.011536 70 88 148
0.220351 0.095826 0.003294 252 252 251
0.002859 0.276120 0.005194 250 252 251
0.205379 0.110337 0.020319 253 254 253
0.002756 0.272564 0.052981 248 250 250
0.007260 0.297054 0.052525 250 252 252
0.120296 0.194153 0.019999 252 253 251
-0.041537 -0.248865 0.071504 66 97 164
-0.035074 0.282022 0.011562 58 61 60
0.028384 0.263240 -0.025796 252 252 251
-0.054589 0.256901 -0.044442 57 65 63
0.110104 -0.211037 0.008865 219 220 221
-0.049698 -0.227948 -0.027788 68 100 182
0.167437 0.137311 0.052511 250 252 251
-0.084274 0.080025 0.053599 73 103 174
-0.089058 0.082072 -0.061362 73 97 176
-0.108802 0.023459 0.063707 243 244 242
-0.063588 0.273048 0.019527 60 55 58
-0.093651 -0.133666 0.069356 69 74 83
-0.031136 -0.292889 0.009237 61 81 149
-0.098290 -0.072381 -0.027741 108 130 184
-0.039396 -0.290779 -0.002406 126 146 184
0.254048 -0.052781 0.025440 253 253 252
0.185423 -0.112905 -0.018481 249 250 250
0.171977 0.143245 -0.004674 251 252 252
-0.087951 -0.206313 0.042908 62 82 158
-0.011834 0.279901 0.007003 220 220 218
-0.088664 -0.178537 0.073391 92 119 172
-0.032971 -0.261030 0.055263 60 63 74
-0.044114 -0.236326 0.036198 75 102 153
-0.097232 -0.131558 0.038970 57 73 143
0.174944 -0.122193 0.040104 254 255 253
-0.099588 0.149017 -0.091600 68 74 74
0.242437 -0.056555 0.030202 253 253 251
-0.006439 -0.269064 -0.023463 132 139 139
-0.030385 -0.292572 0.057655 238 239 239
0.115101 -0.205570 0.040352 251 252 251
-0.083475 -0.215086 0.068612 75 106 179
-0.023077 -0.275460 0.055045 98 106 110
0.064113 0.241730 0.045685 198 202 209
0.238613 0.064494 0.023086 248 250 249
-0.098263 -0.124668 0.023110 60 73 129
-0.086040 0.242748 -0.012527 79 95 139
0.285705 0.016948 0.021881 247 248 248
-0.067670 -0.253272 0.061226 99 106 112
-0.019008 -0.276098 0.027421 93 119 178
-0.068235 0.179589 -0.086274 65 69 70
-0.013671 -0.279665 0.033644 91 119 188
0.102116 0.215494 -0.010700 211 212 211
-0.088173 -0.232551 -0.086451 114 123 122
0.046569 -0.242057 -0.009959 224 225 222
-0.094430 0.114678 0.070607 62 66 72
-0.101308 0.165523 0.058995 78 63 75
0.186044 0.128798 0.041567 249 251 252
-0.075314 0.129188 0.056723 64 70 81
0.000506 -0.253850 -0.021809 119 137 164
-0.067545 -0.280900 -0.004228 93 117 170
0.326770 -0.016183 0.018175 249 251 251
0.231072 -0.076524 0.031075 250 252 251
0.200625 0.102269 0.014072 248 250 249
-0.105365 0.074945 0.055472 77 100 175
0.159601 0.156379 0.001406 250 252 251
-0.107357 0.101715 -0.056399 101 115 143
0.107914 -0.211468 0.029185 195 197 195
0.179200 0.123563 -0.009490 251 252 251
0.008847 -0.291526 0.022700 253 254 253
0.095574 -0.222972 0.008735 251 253 252
-0.091710 0.243778 -0.067610 140 144 147
0.320800 -0.014757 0.009846 253 253 253
0.026587 -0.281568 0.036536 251 253 253
-0.094546 -0.176389 0.006894 48 59 134
0.058626 0.252909 -0.000972 249 251 249
-0.039710 -0.293971 -0.017386 103 124 168
0.139633 0.162619 0.054828 251 252 252
-0.086577 -0.086104 0.043603 77 82 88
-0.074027 -0.211446 -0.077315 50 62 134
-0.049675 -0.273691 -0.031900 70 90 157
-0.106287 -0.044075 0.020330 240 242 240
-0.007386 0.282328 0.002623 112 133 184
0.256015 0.061829 0.024125 250 252 253
-0.057015 0.247157 -0.052835 59 68 106
-0.084872 -0.242754 0.035522 69 83 105
-0.070615 0.071438 0.045583 57 58 51
-0.068954 -0.152852 -0.083510 72 70 70
0.100169 -0.202007 0.032940 183 185 182
-0.039659 -0.255635 0.057318 64 69 76
-0.034155 -0.241131 -0.063053 207 209 208
-0.055971 0.296379 -0.011918 251 251 251
-0.048306 -0.297443 0.011344 243 245 244
0.270115 -0.035415 -0.017942 252 252 251
0.123675 -0.197516 0.029398 199 200 197
-0.080624 0.054778 0.057488 64 67 73
-0.082418 -0.221498 0.069654 68 88 148
-0.071119 0.277101 -0.009457 63 77 127
-0.036630 -0.279870 -0.032018 68 100 185
0.297517 -0.005596 -0.026629 249 251 249
-0.108195 0.032602 0.002060 60 74 132
-0.029805 -0.262788 0.063432 90 113 154
-0.037769 -0.275818 0.071159 244 245 245
-0.079473 -0.108557 -0.063314 58 72 124
-0.088798 0.053570 -0.054945 131 135 135
0.143234 0.157110 0.007460 248 249 249
0.087853 0.203358 0.051468 247 249 249
-0.085508 0.061101 -0.055430 107 131 175
-0.002271 -0.299146 0.021784 249 250 251
0.145332 0.154434 0.031673 251 253 251
-0.059379 0.235499 0.019468 78 100 151
-0.036562 -0.285924 -0.017926 249 252 250
-0.079654 -0.105807 0.057798 91 99 102
-0.103401 -0.062188 -0.006174 63 70 70
-0.058100 -0.287665 0.021651 78 105 174
-0.100083 0.162036 0.060471 128 154 201
0.232157 0.068168 0.038648 249 251 251
-0.082588 0.091012 0.048925 69 99 170
0.146200 0.164584 -0.015758 252 253 251
-0.087552 -0.051673 0.003041 250 252 250
0.317447 -0.008123 0.036677 250 252 253
-0.094509 -0.152655 0.035615 59 75 147
-0.052777 0.242058 0.026516 63 71 103
-0.073465 0.274495 -0.023781 59 63 77
0.177055 -0.119898 0.029004 253 255 253
-0.089914 0.040567 0.030650 67 70 81
-0.074759 -0.103108 -0.005964 94 106 124
-0.062234 0.231397 -0.064527 81 109 181
-0.107919 0.123048 -0.066480 88 109 157
0.093930 0.222502 0.042294 192 192 188
0.008861 0.296533 0.002920 249 250 250
-0.089650 0.225008 0.038153 88 101 128
0.093239 -0.219550 -0.008735 251 251 250
0.074657 0.218853 0.032584 252 252 252
-0.106142 0.090337 -0.069466 68 78 102
-0.075235 0.180593 -0.087244 183 183 181
-0.094100 -0.158730 -0.066768 77 95 134
0.225637 0.091611 0.031334 252 253 253
-0.075860 -0.261984 0.012100 61 77 141
0.132831 0.179346 0.009833 204 205 202
0.000122 -0.286496 -0.018157 250 251 249
-0.064858 0.253960 -0.072143 71 77 90
0.055643 -0.235464 -0.028499 249 250 249
0.220886 0.097759 0.011071 251 251 250
-0.058983 -0.272426 -0.061047 65 72 69
-0.061185 0.279590 -0.007721 248 250 249
-0.100323 -0.065466 -0.033165 251 251 251
0.229628 -0.063008 0.008051 250 252 250
-0.095321 0.013949 0.019670 72 77 83
0.308918 0.008606 -0.015059 251 253 252
-0.065505 -0.188838 -0.068138 77 104 169
0.096956 -0.199523 -0.018326 251 252 250
-0.075403 0.143838 -0.033337 59 72 145
-0.041234 -0.271946 0.001437 86 107 150
-0.070361 -0.213960 0.073890 101 122 169
-0.075066 0.145739 -0.080144 71 89 152
0.275505 0.032601 0.045034 252 254 253
-0.060926 -0.203712 0.048784 73 96 163
-0.081423 0.076126 -0.061818 115 138 181
0.015067 0.271172 0.046663 230 230 229
-0.087487 0.221699 0.032558 71 79 101
0.280057 0.025946 0.045832 252 252 253
-0.036672 -0.276650 0.050631 67 92 158
-0.031614 -0.264294 -0.045435 85 111 175
0.028935 -0.258294 0.037801 251 254 253
-0.090294 0.091197 -0.062444 52 61 135
0.148004 -0.169025 0.035231 249 250 250
0.167971 0.132692 0.037791 252 253 252
0.042192 0.249038 0.054508 251 251 251
-0.059211 0.285290 -0.030610 65 67 73
-0.088766 -0.181863 0.068686 64 80 147
0.221289 -0.085675 0.034224 250 253 252
0.274310 0.043817 0.042018 254 254 254
0.163642 0.136782 0.026884 252 253 252
0.165578 0.134828 -0.012334 250 252 251
0.044006 -0.243003 -0.020285 249 249 249
-0.072731 0.266386 -0.026018 192 193 195
-0.000488 0.307409 0.018641 251 251 249
0.186402 -0.113811 -0.009760 251 252 251
-0.093227 0.124842 -0.083160 113 129 153
0.288993 -0.014177 -0.025210 251 251 252
0.073708 -0.231213 0.021086 205 205 205
0.114798 0.183585 -0.012938 250 253 251
0.097930 0.199680 -0.017300 250 251 250
0.021277 -0.284968 0.014394 251 253 251
-0.090580 -0.188971 -0.047750 64 82 143
0.009005 0.282602 0.014989 244 245 246
0.152118 -0.151061 0.024294 249 251 250
0.128512 0.169597 0.033469 249 251 250
0.097263 -0.218173 0.042539 248 249 249
0.246707 -0.056479 0.020479 252 254 252
-0.040000 0.285354 -0.006752 246 248 247
-0.079962 -0.239420 -0.005524 59 72 134
0.068884 0.240748 0.047554 180 183 179
0.023111 -0.261234 0.004618 247 249 248
0.164248 0.134642 0.014519 253 254 253
-0.045126 0.295780 -0.007442 250 252 250
-0.093974 0.149443 -0.046181 80 96 136
0.113818 0.197468 -0.001253 201 200 199
0.002690 0.296074 0.016799 248 249 248
0.058702 0.241134 -0.019494 250 251 249
0.118762 0.189364 0.009445 192 192 190
-0.062637 0.234126 -0.012521 59 72 153
-0.088341 -0.202303 0.045973 63 74 110
-0.098010 -0.118492 0.052783 77 82 89
0.004733 0.283344 -0.023290 252 253 252
-0.094677 -0.190282 -0.000011 57 72 153
-0.059895 -0.260681 0.045919 63 72 74
-0.092598 0.170012 0.067700 115 140 186
-0.085571 -0.184610 0.000728 63 79 156
0.213268 -0.083193 0.006908 253 254 253
-0.096977 -0.059261 0.040182 86 91 97
0.270865 0.029539 0.007123 253 254 253
-0.052974 0.291004 -0.020783 129 141 163
0.080589 -0.231188 0.006065 251 251 250
0.031941 0.271698 0.023224 157 168 192
0.009294 -0.265993 -0.015951 242 243 243
-0.081305 0.231603 0.018219 54 66 131
-0.109073 0.053088 -0.015187 76 83 91
-0.005505 0.278496 0.054736 218 217 216
-0.077144 0.214461 0.063445 60 62 75
-0.098814 -0.105744 -0.055433 64 74 137
-0.036461 -0.288872 -0.020504 76 104 174
-0.079734 -0.237669 -0.067739 60 80 167
-0.080848 0.175588 -0.067664 69 90 155
-0.086333 0.207891 0.054727 68 76 81
-0.085766 0.242205 0.029364 61 65 87
-0.032199 -0.268676 0.042678 60 63 65
0.243108 0.072862 0.021281 252 253 253
0.015602 -0.285650 0.007901 148 163 187
0.143167 0.167624 -0.015790 249 249 249
-0.080960 0.245912 -0.056815 57 64 74
0.023202 0.268372 -0.024759 248 250 249
-0.058877 -0.277878 0.000618 79 90 91
-0.055298 0.261143 -0.058116 71 70 73
-0.088126 -0.105664 0.074074 59 62 74
0.299606 0.013641 0.009013 250 251 252
-0.094547 -0.165344 -0.036946 57 70 135
-0.084463 0.085271 -0.035112 52 64 116
-0.065856 -0.265871 0.061205 48 63 137
-0.055745 -0.241314 0.029488 57 78 159
-0.063448 -0.193629 -0.090731 86 96 126
0.270990 -0.022950 0.002124 250 251 251
-0.082480 0.145372 -0.067620 65 86 167
-0.017425 0.280609 -0.021257 253 254 253
-0.049509 0.250997 -0.034329 72 78 79
0.029763 0.271556 0.058770 252 252 251
0.091708 0.206840 0.002653 248 249 248
-0.044481 -0.259522 0.065992 211 213 213
-0.090155 0.213163 -0.068401 50 60 131
-0.101047 -0.104295 0.008782 67 83 146
-0.022675 -0.284955 -0.035314 250 252 252
-0.031002 -0.302166 -0.006632 252 253 251
-0.091325 0.212702 0.046169 44 53 130
-0.091580 -0.207242 -0.079961 67 68 65
0.101626 0.198002 0.016062 250 252 252
0.226035 -0.069281 -0.016905 249 250 250
-0.071731 -0.125218 -0.065082 65 82 144
0.104721 -0.212992 0.002420 252 253 251
-0.082145 -0.090055 -0.057939 78 90 116
0.097495 0.202422 -0.000234 174 175 174
0.247797 -0.047128 -0.031718 251 253 253
-0.005402 -0.301892 0.035898 248 249 250
-0.101218 0.102590 0.062283 64 85 162
-0.030305 -0.284307 -0.010627 96 121 177
-0.077849 -0.139777 -0.074150 86 113 185
0.165150 0.138161 -0.011401 253 254 252
0.170863 -0.140280 -0.012917 252 252 253
-0.086857 0.166407 0.065792 57 67 99
0.090169 -0.226855 0.042047 246 247 247
-0.063054 0.185445 -0.077815 81 58 108
-0.088115 0.236671 -0.035696 67 81 111
0.123056 -0.186559 0.010936 194 197 195
-0.063686 0.266090 -0.026771 56 71 135
0.099440 -0.220241 0.020692 247 249 250
-0.081341 -0.108727 0.072490 244 246 244
-0.102606 -0.102971 -0.055067 102 111 120
-0.064685 -0.199540 0.026714 57 72 157
-0.108446 0.061130 0.007923 71 89 150
-0.105920 0.057876 -0.045872 65 82 141
-0.093778 0.173417 0.030347 62 71 128
-0.096559 -0.087871 -0.062547 103 115 130
-0.080168 -0.219863 -0.086552 59 70 122
0.264494 0.046725 -0.007436 251 252 250
-0.099792 0.015282 0.000750 247 248 248
0.017096 -0.279105 0.039428 250 252 251
-0.098495 0.001385 0.017748 250 252 250
0.124790 0.174912 0.052843 251 252 251
0.124987 -0.193189 0.002464 244 246 245
-0.080905 -0.072959 -0.022893 109 117 118
-0.083409 0.131951 0.019287 68 85 144
0.323766 -0.010248 -0.009758 252 253 253
0.002461 0.276298 0.030575 247 248 247
-0.037770 -0.299920 0.005191 241 243 243
-0.093279 -0.195459 0.034140 71 85 122
-0.000749 -0.298636 0.012197 238 240 238
0.254186 -0.050946 -0.026280 252 254 252
-0.087221 -0.081591 -0.012410 87 114 181
0.041080 -0.269623 0.049798 158 159 157
0.076469 -0.236885 0.042037 175 175 171
0.160798 -0.146213 0.040713 252 252 252
-0.073095 -0.153683 -0.089539 67 74 80
-0.045110 0.297007 -0.005568 251 253 252
-0.090212 -0.197441 -0.079510 63 78 155
-0.060829 0.243932 -0.055496 76 66 68
-0.085835 -0.206118 0.067343 61 69 71
0.036967 0.253912 -0.006661 148 159 183
-0.090937 0.211135 0.021246 67 85 149
0.172550 -0.140389 0.005536 250 253 251
-0.087914 0.046949 0.057565 56 60 84
-0.020787 -0.296521 0.060591 251 251 252
-0.078716 -0.125912 -0.080176 67 72 77
-0.078660 -0.118400 0.066468 84 107 163
-0.098980 0.049970 0.046337 97 123 180
-0.086396 -0.115118 0.068942 72 94 155
-0.104512 0.112370 -0.044955 76 101 162
-0.098339 0.175007 -0.071630 65 84 158
-0.057840 -0.279902 0.051246 250 250 249
-0.044121 -0.281992 -0.040546 76 107 188
-0.097903 0.183661 -0.016901 70 86 143
0.077006 -0.237641 0.004447 245 247 247
-0.084488 0.077651 0.053343 67 68 81
0.009271 -0.289262 -0.024017 250 251 250
0.011596 -0.277133 0.020947 250 252 251
-0.050314 -0.257614 -0.053730 69 91 159
-0.051601 0.266879 0.014701 235 234 236
-0.022972 -0.293887 -0.015441 92 103 113
0.031697 -0.257055 0.035313 251 252 250
0.069520 -0.245653 -0.002982 249 252 253
-0.052222 0.239956 0.044841 56 54 61
-0.008084 -0.297394 0.027772 246 248 246
0.114089 0.202438 0.042302 251 252 253
-0.081594 0.223506 -0.040245 35 43 123
0.265198 0.046266 0.046866 251 253 251
-0.048488 0.262142 0.041058 45 52 114
-0.046343 0.285404 -0.027878 65 70 81
0.008701 -0.276252 -0.002013 208 209 209
0.102977 0.209694 -0.017939 248 249 248
-0.084231 0.240725 -0.072712 89 94 101
-0.107007 0.039788 -0.007549 221 223 220
-0.094487 0.016716 0.010902 245 247 246
-0.090201 0.049389 0.027913 69 87 153
0.066076 0.229935 0.017287 248 249 249
-0.053495 0.239812 -0.066950 55 58 56
-0.085849 0.228122 0.042810 74 95 157
-0.100891 0.107313 0.064240 82 104 158
0.006007 -0.279628 0.049561 252 253 252
0.196549 -0.114705 0.030709 250 253 251
-0.075515 -0.208948 0.064945 84 115 191
-0.064241 -0.224527 0.015143 54 71 139
-0.105084 -0.089805 0.046252 68 70 74
0.101199 0.196655 0.022714 251 253 251
0.291151 0.008093 -0.008192 251 253 252
-0.039193 -0.272432 0.061342 66 93 166
0.281787 0.036077 0.025349 247 248 247
-0.099101 0.133194 0.020458 64 78 134
-0.042589 -0.288497 -0.005648 250 252 251
-0.023345 -0.276005 0.047922 72 107 169
-0.061775 -0.218544 0.078183 102 110 123
0.159045 0.162871 0.035455 253 253 252
-0.032727 -0.281846 -0.028106 239 240 239
-0.103341 0.098567 0.042890 52 64 129
-0.107646 0.048690 0.042626 66 79 142
-0.088151 -0.080918 0.037785 67 64 67
0.216444 0.097428 -0.007058 253 253 253
0.193656 0.111111 -0.003566 251 254 252
-0.006176 -0.300180 0.006751 251 253 253
0.233487 0.073622 -0.007258 253 253 253
-0.066722 -0.269139 -0.009029 73 94 156
0.065592 -0.242388 0.046396 195 195 194
-0.096038 -0.029699 0.017379 244 245 245
-0.044744 0.268367 -0.051122 59 61 59
-0.064822 -0.205459 0.022437 60 78 142
0.264113 -0.040394 -0.028797 250 251 252
0.195291 -0.105216 0.036387 248 250 248
0.167159 0.147138 0.012998 251 252 251
-0.034644 0.296695 -0.020595 222 222 222
0.067382 -0.237497 -0.017924 248 251 248
0.166836 0.142190 0.046493 252 253 252
-0.060363 -0.226744 0.078380 67 70 92
-0.009177 0.300929 0.053476 245 246 246
0.235291 0.068206 0.047475 253 254 252
-0.016317 -0.291408 0.031076 104 133 187
-0.097310 -0.145597 -0.080236 86 111 172
0.097594 0.217770 0.031744 189 189 187
-0.023105 -0.287460 0.016122 109 131 174
0.251409 0.065099 0.008899 253 254 252
-0.085914 -0.137744 -0.085722 120 140 174
-0.101046 0.178988 -0.084619 172 172 172
0.068039 0.239477 -0.009387 176 177 176
0.195680 0.120055 0.037693 252 253 253
-0.097401 -0.123177 0.036188 64 85 152
-0.097830 -0.149830 -0.083257 73 78 74
-0.046131 -0.265748 0.041602 54 71 148
-0.058391 -0.228831 0.077982 114 126 144
-0.099182 0.041683 0.045864 47 60 141
0.237638 0.083922 0.005520 253 254 252
0.078865 -0.220650 -0.014588 251 252 252
0.296952 0.004857 -0.021507 252 252 252
-0.034570 -0.291258 0.009718 248 250 248
-0.066797 -0.198737 -0.080314 67 65 64
-0.105536 0.117048 0.019683 67 80 145
-0.088110 -0.167551 0.077657 232 233 231
0.001022 0.278282 -0.009929 229 230 229
0.184893 0.134679 0.022997 252 252 252
-0.045002 -0.296674 -0.003528 245 246 246
0.034672 0.256398 0.043829 247 248 249
0.010287 0.280644 -0.016283 214 214 213
0.064645 0.237215 -0.022670 188 188 189
0.047981 -0.242892 0.007295 249 251 250
-0.060752 0.223010 0.029444 62 71 109
0.028198 -0.268199 -0.018546 252 253 251
0.015603 -0.285140 0.043181 252 252 251
0.125413 0.188414 0.020348 249 250 249
-0.088688 -0.143235 0.059846 64 68 79
-0.021711 -0.285286 -0.008300 96 120 168
-0.028802 0.289397 0.059620 251 252 252
-0.097007 0.089581 -0.072728 127 142 165
-0.077538 -0.265297 0.062905 101 110 120
-0.059966 -0.233468 0.076095 60 66 68
-0.092116 -0.195408 0.021278 51 64 133
-0.086120 0.134359 0.061080 118 148 202
-0.078868 0.100324 -0.066317 52 59 123
-0.066801 -0.266758 -0.051666 248 249 248
-0.061274 0.289584 0.036853 242 242 242
0.194409 0.113236 0.023308 252 253 252
0.196969 0.117395 0.033895 250 252 251
0.185104 0.132674 0.020526 250 251 252
-0.010906 -0.288171 0.025677 249 251 249
-0.104702 -0.068652 -0.034580 251 252 251
-0.052868 0.243859 0.068248 202 202 201
0.253054 0.051719 0.014348 253 254 253
-0.101636 0.126647 -0.057427 48 56 142
-0.007299 -0.282181 0.043512 246 247 246
-0.029881 -0.253851 -0.029700 90 112 159
-0.085094 0.243414 0.012563 72 80 100
-0.104354 -0.084488 0.056616 59 75 141
-0.016632 -0.268756 -0.036867 246 246 247
0.106770 0.191798 -0.012642 250 252 250
-0.071434 -0.271157 -0.047296 61 76 149
0.030791 0.273995 0.028160 251 253 251
-0.064046 -0.277952 0.018101 55 72 156
-0.105298 -0.070722 -0.021186 243 245 246
-0.104750 -0.064327 0.029221 60 64 79
0.083621 -0.236242 0.040481 249 251 252
0.023873 -0.283956 0.005489 249 251 251
-0.090526 -0.190702 -0.067332 74 89 120
-0.059135 -0.278054 0.054975 74 97 155
-0.096891 0.171694 -0.078319 70 90 157
-0.088316 -0.058485 -0.019576 252 252 250
0.121190 -0.193704 0.012431 197 200 197
-0.091247 0.049957 -0.040287 75 100 165
0.032634 0.260189 -0.021360 251 253 251
-0.093147 0.027682 -0.025918 63 66 75
-0.052776 -0.259101 -0.025672 66 70 83
-0.062702 0.268423 -0.047239 135 151 182
0.347060 -0.042760 0.010627 251 252 252
0.122370 -0.191277 -0.002293 199 202 201
-0.007953 0.305525 0.022593 251 252 251
-0.040838 -0.282714 0.059989 108 130 169
-0.047949 0.292648 -0.015220 192 191 191
-0.062855 0.253258 -0.065998 61 68 68
0.068960 0.232530 0.054074 248 248 248
0.247742 -0.053978 -0.031467 249 250 250
-0.042304 -0.283799 -0.039918 249 251 249
-0.066053 0.226385 0.027707 65 85 148
0.170607 0.131000 0.024337 252 253 253
-0.059361 -0.277523 0.063232 64 67 68
-0.064540 -0.157072 -0.069267 120 131 150
-0.105705 0.010384 0.007876 135 153 187
0.128408 0.184971 0.003566 250 251 250
-0.041753 -0.294448 0.019850 70 71 77
-0.106654 -0.072187 0.006233 57 68 133
0.098121 0.213178 -0.007966 184 186 188
-0.031427 0.289075 0.059747 249 250 251
-0.084361 0.232085 -0.007783 65 83 153
-0.039235 0.306829 -0.005586 180 182 181
0.132095 -0.170766 0.004626 246 248 248
-0.074925 0.259493 0.002733 56 68 124
-0.100832 0.102734 0.055112 59 75 142
-0.084167 0.189773 -0.089973 105 116 122
-0.105529 -0.064482 0.067496 251 251 251
-0.079458 0.253941 0.052529 97 100 100
-0.031816 -0.281353 0.035847 77 110 187
-0.104050 0.085191 -0.039707 43 51 125
-0.093462 -0.063771 -0.037620 67 75 83
-0.032434 -0.246399 0.073590 64 64 69
-0.014605 0.281929 -0.022507 244 245 245
-0.086974 -0.227597 -0.069937 62 75 139
-0.002279 0.266724 0.045927 102 132 188
-0.088124 0.187628 0.060208 64 66 70
-0.039906 -0.285451 0.070058 252 252 253
0.176500 -0.119471 -0.017566 248 250 250
-0.009921 0.280226 0.023591 102 128 184
-0.105674 0.023113 0.042472 56 52 52
-0.084193 0.248905 -0.038050 55 68 129
0.187325 0.131386 -0.000376 247 249 249
-0.093072 -0.198217 -0.093984 75 71 75
0.071996 -0.235030 0.011355 189 191 189
0.114807 0.184119 0.043594 252 253 253
-0.005876 0.280270 -0.018238 248 249 248
-0.046411 0.273300 -0.004932 96 121 177
-0.091039 0.178439 0.069108 68 58 64
-0.107822 0.038983 0.055890 221 222 221
0.287807 0.000396 0.011823 253 252 252
0.116755 -0.195993 -0.002227 192 193 191
0.159927 0.140379 0.030725 253 254 253
0.176905 0.122506 0.012483 249 251 250
-0.051324 -0.257671 -0.056197 237 238 238
-0.082934 0.124599 0.000688 64 78 140
-0.098211 0.159590 -0.088219 129 137 136
0.113925 -0.203126 0.029331 192 192 190
-0.064274 0.242121 0.045384 70 56 61
-0.017395 -0.280159 0.046234 123 144 179
-0.101086 0.110064 0.051596 57 69 138
-0.085026 0.161969 0.072137 183 183 183
0.090154 -0.222287 0.030174 238 239 239
-0.057383 -0.292715 0.036593 70 64 73
-0.041397 -0.258384 0.071158 122 146 189
-0.082943 0.219861 -0.027896 80 101 154
0.299784 0.009890 -0.015389 254 255 254
-0.100726 -0.089265 -0.033984 54 64 133
0.006521 -0.273788 0.056399 246 247 246
-0.100495 -0.057553 -0.017862 247 248 247
-0.019310 -0.273857 -0.032944 151 155 154
0.047041 0.264229 0.040437 250 252 250
-0.083710 0.029307 0.027470 58 64 69
-0.104905 -0.044806 0.058384 249 252 251
0.250452 -0.048985 0.021346 249 250 250
0.106613 -0.196042 0.017439 252 253 253
0.137170 0.158689 0.006077 251 252 253
-0.075458 -0.092192 -0.010315 75 77 81
-0.089039 0.200318 0.027330 55 68 136
-0.013868 -0.291591 0.034315 238 240 242
-0.051223 -0.282286 -0.051965 251 252 252
0.136646 0.159689 0.033000 250 252 251
0.049728 -0.262092 0.027952 181 181 178
0.008687 0.281698 0.057534 212 216 222
-0.067259 -0.238837 0.015704 52 65 147
0.272096 0.044458 0.039751 249 249 248
0.190319 0.123789 0.033213 252 253 251
0.140470 -0.158912 0.011749 252 253 251
-0.089350 0.146686 0.048593 82 110 181
-0.102715 -0.119815 0.023852 67 82 149
0.311871 -0.011444 0.008606 251 253 251
-0.012637 -0.293062 0.000798 86 119 185
-0.069364 0.213673 0.038629 61 77 135
-0.092222 0.057036 -0.025863 96 121 181
0.116752 -0.186148 -0.012170 247 249 248
-0.092359 -0.150892 0.060818 76 101 177
-0.095190 -0.191110 -0.028475 61 81 173
0.133810 -0.165143 -0.016333 238 240 240
0.060544 -0.252333 0.032835 245 247 246
0.261680 0.045081 0.000343 251 252 253
-0.077592 0.230153 -0.072714 137 141 142
-0.104906 0.089744 0.061502 64 77 138
0.320107 -0.016499 0.009378 251 253 253
-0.099486 0.004042 0.014767 250 251 248
0.096662 -0.216606 0.003077 200 203 202
0.275369 0.040744 0.025022 251 252 252
-0.010424 -0.289116 -0.014811 240 242 242
0.232996 0.072832 0.007335 253 253 253
0.257937 -0.046803 -0.031924 251 252 251
0.038643 -0.267981 0.027126 206 207 205
0.079745 0.226615 0.036045 205 207 206
0.100765 -0.203000 -0.006856 250 251 252
0.011743 0.293940 0.016047 247 248 248
0.042692 -0.265476 0.039055 224 227 227
-0.102570 0.148989 0.070608 74 79 81
-0.054485 -0.273030 -0.048886 64 65 70
-0.016812 -0.289699 0.011584 128 142 159
-0.082921 0.178830 -0.081813 76 79 86
-0.060453 -0.269672 -0.049487 102 122 161
0.126857 0.180358 -0.019363 250 250 250
0.193555 0.108409 0.046253 251 252 251
-0.045432 -0.292847 -0.008705 73 82 101
-0.062116 -0.201605 0.067187 84 86 96
-0.091237 0.220802 -0.072390 98 116 146
0.017088 -0.270213 -0.013790 210 212 210
-0.042771 -0.247980 0.070515 95 122 172
-0.089196 0.241724 -0.051756 60 72 139
-0.027165 -0.281578 0.007567 76 107 192
-0.093779 -0.097108 -0.063082 114 135 175
-0.080885 0.038119 0.023791 58 55 67
-0.090965 0.205717 -0.066069 68 87 151
-0.066064 -0.266543 0.064406 70 71 76
-0.101312 0.104781 0.062855 61 73 141
-0.087435 -0.063921 0.008647 78 76 87
0.190504 -0.118976 0.001707 251 251 251
0.068219 -0.233769 -0.018625 247 249 248
0.166509 0.139219 -0.012933 233 235 237
0.136169 -0.176366 0.001297 251 253 251
-0.073436 0.169581 -0.063810 71 92 155
-0.042947 0.303518 0.014825 250 251 251
0.088431 0.209911 -0.005691 249 251 250
-0.027459 -0.275318 -0.033756 190 189 188
-0.082290 -0.060750 -0.005735 69 69 73
-0.034657 -0.278851 -0.040937 250 251 249
-0.096391 0.049461 -0.033322 61 66 77
0.302572 0.016380 -0.012395 250 252 251
-0.019675 -0.277079 0.009085 87 116 176
0.046193 -0.266299 0.052632 246 248 248
-0.087832 0.088071 0.068110 95 116 152
-0.084767 -0.052220 0.003657 145 148 149
-0.083074 0.082861 -0.025645 68 78 132
0.275725 -0.030887 0.004315 251 253 253
-0.096478 0.179487 0.033260 50 60 125
0.020933 -0.275656 0.013815 210 210 208
-0.051337 0.248584 0.051086 80 106 164
-0.027764 -0.270246 0.062812 87 116 170
0.015470 -0.280405 0.055396 246 247 247
-0.085918 -0.036783 0.017017 249 250 248
-0.065422 0.163754 0.053069 65 60 70
-0.075001 0.277292 -0.050776 83 92 96
0.002022 0.275241 0.059080 251 251 252
0.056939 -0.256286 0.026390 212 215 215
0.001802 0.277527 -0.010851 166 167 169
0.077978 -0.222826 -0.024154 178 183 191
-0.067826 0.252794 -0.069830 58 64 62
-0.024235 0.305617 0.039084 249 251 250
-0.063297 -0.200590 -0.087345 144 159 188
-0.083158 -0.096054 -0.028853 72 94 175
0.013111 -0.289284 -0.008991 252 253 253
-0.036741 -0.284744 -0.031975 82 116 192
0.229302 -0.061165 -0.005289 250 252 251
-0.090067 0.054960 0.012758 54 67 130
-0.055979 0.232948 0.019292 65 69 90
0.002585 -0.283466 0.046392 247 248 248
0.089241 -0.217086 -0.002018 243 244 243
0.107462 0.190568 0.028492 251 252 251
-0.021237 0.308308 0.009234 251 251 251
-0.089856 0.044350 -0.031426 66 73 89
-0.079480 0.087341 -0.065825 129 144 171
0.103546 0.197118 0.005396 214 213 211
-0.007993 -0.297740 0.018635 252 253 252
-0.090628 -0.080168 -0.034691 115 139 193
0.072345 0.239850 0.052931 250 251 252
0.209091 -0.097933 0.006002 249 251 253
-0.076734 0.271325 0.028284 89 100 117
-0.040578 -0.248152 0.053451 73 75 85
-0.086036 0.222646 0.063156 119 135 161
-0.066698 0.196796 -0.070906 79 104 175
-0.022464 -0.284840 -0.027559 249 251 250
-0.049902 -0.270673 0.044621 56 72 143
-0.083652 -0.085313 0.053045 126 146 183
0.030824 0.254729 -0.003957 250 252 250
-0.089722 -0.208719 0.007662 52 67 151
-0.063900 -0.263841 -0.025954 245 244 245
-0.091184 -0.165692 0.064137 54 70 144
-0.051934 0.244465 0.051972 59 65 84
0.011062 -0.283147 -0.009406 252 253 252
-0.021271 -0.292069 0.026726 98 126 177
-0.033863 0.304678 0.016723 248 249 249
-0.059198 -0.241120 0.072050 77 111 189
-0.060659 0.274491 0.008304 250 251 250
-0.068752 -0.135579 -0.045646 86 99 112
