ply
format ascii 1.0
element vertex 1185
property float x
property float y
property float z
property uchar red
property uchar green
property uchar blue
end_header
-0.025955 -0.101094 0.056035 253 253 253
0.031273 0.071029 -0.000882 254 255 253
-0.049698 -0.165549 0.039154 249 250 249
-0.096807 0.203978 -0.005802 97 135 203
0.092563 -0.107160 0.003742 253 254 253
-0.078510 0.193833 -0.001671 93 133 208
-0.099089 -0.098284 -0.025031 100 147 230
0.051092 0.035245 0.015873 253 255 253
-0.099511 0.229513 0.003827 101 145 225
-0.078062 -0.197689 -0.076472 99 140 215
-0.099739 0.155406 -0.088579 96 133 199
-0.001754 0.052202 0.021824 252 253 252
-0.090559 0.145738 -0.090946 106 116 132
-0.030606 -0.140492 0.030724 252 253 252
-0.100494 0.196666 -0.071829 97 131 195
-0.027439 -0.012604 0.020643 249 251 251
-0.083598 -0.234501 -0.070961 98 134 202
-0.075989 -0.103627 0.006543 123 126 128
-0.076663 -0.268540 0.013943 250 252 250
-0.084154 0.060943 -0.064783 102 145 223
-0.079602 0.205833 -0.067131 97 142 222
-0.099604 0.180597 -0.066401 98 135 203
-0.079669 0.159028 -0.066936 96 133 202
0.029725 0.074180 -0.006765 252 252 251
-0.100985 0.063671 0.009602 87 117 178
-0.100687 0.051203 0.000992 98 143 224
-0.081157 -0.276368 -0.008513 99 145 228
-0.021182 0.165259 0.011061 251 252 251
-0.097660 0.054731 -0.064447 73 92 132
-0.097197 -0.086259 -0.063860 100 147 230
-0.087054 -0.277637 -0.025136 97 131 197
0.048873 0.011954 0.026451 252 252 252
-0.076704 -0.226034 -0.059165 99 140 217
-0.040459 -0.163692 -0.016534 252 253 253
-0.022535 -0.014869 0.042111 252 252 253
-0.051646 -0.241356 -0.006853 253 254 254
-0.091850 -0.268117 0.031838 96 123 166
-0.076499 -0.274220 -0.013034 93 131 203
-0.098968 0.104229 0.036779 97 142 225
0.057425 -0.014878 0.019409 254 253 254
0.120157 -0.171431 0.018507 251 254 251
-0.083988 -0.064984 -0.058348 120 129 135
-0.093580 0.032711 -0.013118 102 147 228
-0.079592 -0.168620 0.001464 97 142 220
-0.094536 0.277406 0.010178 107 115 124
-0.057596 -0.276875 0.035093 252 254 253
-0.078591 -0.200266 -0.067929 101 145 223
-0.020954 -0.061939 0.043483 251 252 253
-0.092171 0.069689 -0.079301 110 115 119
-0.014127 0.067832 0.061192 253 254 252
-0.102863 0.137097 -0.079109 90 116 167
-0.101096 -0.118563 -0.065200 97 140 215
-0.076884 0.218631 -0.031784 97 135 203
-0.089435 -0.189506 -0.026538 97 140 218
-0.099313 -0.133274 -0.068276 96 124 174
0.108836 -0.140321 0.032074 253 254 254
-0.081354 0.103970 0.013609 95 135 209
-0.090499 -0.259256 -0.002077 114 121 124
-0.101920 0.166190 -0.031487 95 132 201
-0.062244 -0.288003 0.007784 251 252 251
-0.038671 -0.171947 -0.001686 253 254 251
-0.015257 -0.011583 0.003088 252 253 252
-0.048091 0.232771 0.018371 252 253 252
-0.011982 0.065708 0.059288 252 253 253
-0.093370 -0.071643 0.031238 95 129 191
0.061580 0.005141 -0.001548 252 252 251
-0.027381 0.275852 0.043855 251 252 253
-0.073767 0.268637 -0.051613 89 121 180
-0.026684 -0.145314 0.002297 252 252 252
-0.096554 -0.239410 0.004782 96 140 218
-0.043659 -0.141567 0.030709 251 252 254
-0.037443 -0.123319 -0.014064 250 252 251
-0.064888 0.281939 -0.021399 201 202 202
-0.062493 -0.267129 -0.024893 193 196 192
-0.084515 0.104819 0.039148 92 131 207
-0.080227 0.169847 -0.011292 99 147 232
-0.098263 0.216238 -0.064050 100 140 215
-0.092624 -0.237561 -0.016676 99 146 227
-0.003743 0.197602 -0.010345 253 253 252
-0.098539 0.135983 0.046034 115 123 134
-0.095406 -0.214481 -0.059369 98 148 230
0.009365 0.277203 0.014472 249 249 249
0.092654 -0.114347 0.045075 253 254 253
-0.036757 -0.188746 -0.003780 251 253 253
0.005425 0.182421 -0.004390 252 253 253
0.013408 0.244508 0.046273 252 253 253
-0.061717 -0.280666 0.059532 252 252 252
-0.098011 0.077678 0.038827 108 113 119
-0.065262 -0.268435 0.006451 253 255 254
-0.027162 0.202471 0.045516 251 253 252
0.005095 0.143921 0.032831 253 254 253
-0.084166 -0.181761 -0.083354 135 140 141
0.016608 0.131157 -0.001506 253 254 253
0.059995 0.000282 0.053536 252 252 253
-0.098385 -0.152111 -0.036699 105 122 157
-0.082941 -0.215577 -0.080653 100 142 217
-0.060842 0.254993 0.015029 252 253 253
-0.079974 -0.132124 -0.077004 101 146 229
-0.071434 0.252446 0.003667 97 144 225
0.033575 0.050848 0.051733 252 253 253
0.006918 0.195560 0.012623 251 253 253
-0.030512 -0.053245 0.012532 251 253 251
-0.028381 -0.052440 0.029162 252 254 252
0.021418 0.242741 0.029932 252 251 252
-0.067983 -0.280090 0.032838 252 254 253
-0.101795 0.099700 -0.077149 100 146 230
0.012539 0.201106 0.023479 251 253 253
0.096285 -0.117087 0.040536 253 255 253
-0.082046 0.087710 0.031463 126 132 136
0.045222 0.037857 0.054509 252 252 253
-0.017442 -0.007862 0.028246 252 253 253
-0.080018 -0.166933 0.033733 97 145 231
0.021774 0.077821 -0.002279 253 253 252
-0.078952 -0.166379 -0.071709 100 142 220
-0.091811 -0.261788 -0.004734 94 137 216
-0.019989 0.091547 0.033787 251 252 251
-0.100691 0.085911 -0.058292 100 140 214
0.035095 0.084543 -0.004154 252 252 252
-0.051252 -0.221948 0.062097 250 250 250
-0.021271 -0.045657 0.007358 252 254 253
-0.064133 -0.235644 -0.008385 251 253 251
0.010573 0.237687 0.037622 252 253 253
-0.086626 -0.110585 0.043431 97 144 229
0.125053 -0.207065 0.031189 251 252 250
-0.034795 -0.074708 0.052688 250 253 252
0.062378 -0.004275 0.000696 252 253 251
-0.062628 0.269036 -0.022688 252 253 252
-0.077999 0.285838 0.033601 252 252 253
-0.093125 -0.249743 -0.031747 95 131 200
-0.041995 0.194946 0.007954 251 253 250
-0.044580 -0.219665 0.061346 251 252 251
-0.101064 -0.118773 0.009663 116 124 132
-0.082693 0.144130 -0.087063 91 119 174
-0.034733 -0.087016 0.034889 252 252 251
-0.078292 0.187852 -0.033291 95 133 201
-0.027361 -0.152373 0.013106 252 252 251
0.092927 -0.117053 0.024686 252 252 252
0.016462 0.156219 0.032832 252 254 253
-0.097468 0.228739 -0.070864 96 124 174
-0.092205 -0.254817 -0.031376 101 148 231
0.009184 0.260525 -0.016155 253 253 252
-0.037174 -0.103139 0.053630 252 253 252
-0.069842 0.278465 0.002650 251 252 250
0.083043 -0.088265 0.057668 250 251 251
-0.078979 0.254463 0.041505 96 144 223
-0.041967 -0.200124 0.006180 252 253 252
-0.093316 -0.133032 0.043028 99 138 209
-0.075580 -0.264933 0.029840 97 141 220
0.080064 -0.057690 0.041449 253 253 252
-0.078203 -0.194235 0.034747 87 115 173
-0.083899 0.115478 0.001148 99 144 231
-0.075987 -0.272803 -0.011032 97 147 231
-0.081219 -0.097337 0.020124 93 132 202
-0.042706 -0.130558 0.002559 250 251 251
-0.098173 -0.135263 0.008572 98 147 229
-0.055513 0.244815 -0.019350 252 254 253
0.095713 -0.129021 0.020087 252 253 253
-0.101453 -0.109235 0.005325 101 147 230
0.043309 0.026988 0.023451 253 253 252
-0.098872 -0.051572 -0.012401 98 141 219
-0.100874 -0.177425 -0.081851 92 121 181
-0.007237 0.151901 -0.010016 249 250 249
-0.102196 -0.051999 0.023880 94 128 188
0.034197 0.071915 0.005932 253 253 253
-0.076526 -0.251896 -0.015370 96 137 213
0.007127 0.181024 0.051421 253 253 252
-0.088685 -0.071704 -0.067198 96 133 203
-0.089015 0.067418 -0.054104 101 148 231
-0.061060 -0.226984 0.041074 246 247 248
-0.098246 -0.125859 -0.063001 101 149 233
-0.081796 -0.135220 0.040047 113 117 123
-0.078686 -0.178655 -0.031698 97 140 222
-0.091807 0.066067 -0.072815 100 143 226
-0.081312 -0.121691 -0.017211 91 128 197
-0.083274 -0.076781 0.017839 89 118 177
-0.104281 0.072216 -0.080235 95 121 162
0.000534 0.177687 -0.001732 252 254 253
-0.024508 0.012886 0.031157 251 253 253
-0.039554 0.249658 0.030491 249 251 249
-0.083534 0.192081 -0.004054 95 131 195
-0.074513 -0.281557 0.042115 250 250 249
-0.032553 0.230843 0.011946 253 253 252
-0.051817 -0.255153 0.037816 250 251 250
-0.085416 0.058118 0.013369 89 126 199
-0.017065 0.051584 0.040751 253 255 253
-0.021867 0.153679 0.026169 251 251 252
-0.058309 -0.218966 0.059077 252 253 251
-0.077465 0.208262 0.035575 99 144 223
0.108276 -0.127784 -0.004873 253 254 253
-0.023489 0.165481 0.058006 250 252 251
-0.062344 -0.237462 -0.007991 253 254 253
-0.097258 0.039204 0.020761 97 133 199
-0.059698 -0.270544 0.017217 253 254 253
-0.075694 -0.233581 -0.007836 99 146 231
-0.066741 0.277867 0.056395 252 251 251
-0.077037 0.203093 -0.069569 100 145 225
-0.016447 -0.004296 0.058587 252 254 254
-0.052336 -0.246908 0.045200 252 254 253
0.044941 0.029982 0.015753 252 254 252
-0.085383 0.125880 0.026823 95 133 201
-0.095236 -0.186317 -0.009939 98 141 219
-0.096987 0.264831 0.027849 97 134 199
-0.082873 0.145148 -0.016365 97 136 205
-0.068860 0.279711 -0.011484 251 251 250
-0.094602 0.265405 -0.044126 100 143 221
-0.078350 0.191418 0.036648 93 135 209
-0.097376 0.200345 -0.069598 99 144 224
-0.013526 0.137071 -0.003766 252 254 253
0.093731 -0.094811 0.046195 252 252 254
-0.094313 0.067601 -0.009197 96 138 217
-0.100848 0.098546 -0.072467 117 125 134
0.046541 0.050818 0.032683 253 254 253
0.010478 0.084422 0.016178 252 252 251
-0.100103 0.111744 0.032969 98 143 226
-0.100139 -0.117370 -0.029780 93 127 193
0.011013 0.213449 -0.002594 253 254 251
-0.019656 0.150997 0.056943 253 252 251
0.103114 -0.116531 0.023313 252 253 252
0.022530 0.132134 0.006796 253 253 252
-0.082378 -0.160198 0.033921 103 124 155
0.050317 0.007455 0.013675 252 253 253
-0.078802 0.205245 0.027543 88 121 191
-0.021493 0.011851 0.032474 253 254 254
-0.101995 -0.059081 -0.049106 91 124 191
-0.081099 0.161170 -0.068853 91 128 202
-0.019896 0.218629 -0.020758 253 254 253
-0.079034 -0.145159 -0.073647 114 119 123
-0.104662 0.070555 -0.033362 101 143 221
0.062383 -0.004353 -0.002712 253 253 254
-0.096156 -0.226793 -0.008998 111 120 131
-0.068925 0.267118 -0.010883 248 250 250
-0.019666 0.132100 0.052133 252 252 252
-0.084829 0.079136 -0.044059 98 135 204
0.076639 -0.068946 0.007278 252 253 253
-0.060071 0.254791 -0.004587 251 253 251
-0.081930 -0.124604 -0.034301 93 130 200
0.025086 0.132559 0.025423 253 253 252
0.084291 -0.099066 0.044138 251 252 251
0.063400 -0.030489 -0.004238 251 251 250
-0.060990 -0.264616 0.022614 251 252 251
-0.092686 -0.253737 -0.023227 93 125 186
0.015550 0.162222 -0.001159 203 207 210
-0.005294 0.086849 0.059417 253 254 253
-0.080576 0.252831 -0.057301 99 141 219
-0.084380 0.082494 -0.022816 96 133 201
-0.094409 -0.208644 0.045976 101 148 232
-0.075423 -0.271375 -0.013055 114 125 137
-0.082251 0.152445 0.050819 102 105 109
0.090721 -0.074260 -0.003511 251 252 250
0.019735 0.174803 0.045372 252 253 252
-0.092800 0.269687 -0.014362 98 128 184
-0.006833 0.103145 0.056235 253 253 253
-0.096528 0.263582 0.001781 119 120 125
-0.079493 -0.170655 -0.041421 96 141 217
0.018545 0.099324 -0.001873 251 253 253
-0.037827 0.210425 0.029857 223 225 221
-0.087408 0.244512 0.044669 118 123 123
-0.076549 -0.135510 -0.031553 95 144 225
-0.047288 -0.224368 0.022831 253 255 253
-0.069001 -0.284480 0.043951 253 254 251
-0.030876 -0.100866 -0.008903 253 254 253
0.031403 0.056477 0.034750 253 254 254
-0.099297 0.162118 -0.020412 92 128 196
0.122233 -0.176667 0.027961 251 253 251
0.004534 0.157690 0.001271 253 254 252
0.106981 -0.142717 0.055124 250 252 250
-0.022851 -0.037765 0.056036 252 254 254
-0.044943 -0.137246 0.030923 253 254 253
0.001668 0.076657 0.061637 254 254 253
0.039615 0.071691 0.031659 251 252 251
-0.098297 -0.099137 -0.010649 98 144 231
0.029135 0.096480 -0.012172 252 253 253
-0.040667 -0.153622 -0.015289 252 253 251
-0.073652 0.268421 -0.038922 101 148 233
-0.096898 0.267486 0.019387 99 145 227
-0.010130 0.065883 0.035666 252 254 252
0.054178 0.034470 0.000459 253 253 252
0.127248 -0.204390 0.044347 254 254 253
-0.101214 0.208859 -0.063208 96 134 205
-0.068642 -0.259056 -0.006116 252 254 252
0.054446 -0.009475 0.023193 253 254 252
-0.049745 -0.158747 0.049822 251 252 251
0.119446 -0.183565 0.039983 252 253 252
-0.100851 0.147283 -0.071920 96 134 200
0.065319 -0.013933 -0.000489 251 253 253
-0.077799 -0.169930 -0.077359 98 145 230
0.065560 -0.014223 0.036821 254 255 253
0.010790 0.156193 0.049385 252 254 253
-0.020703 0.175298 0.018557 253 253 252
-0.093914 -0.231355 0.016090 90 114 157
0.013442 0.274850 0.002665 251 253 252
-0.101638 -0.118509 -0.080316 86 113 174
-0.098585 -0.046417 -0.029866 104 149 231
0.006867 0.232442 0.032403 254 255 254
-0.012870 0.092613 0.033543 252 253 252
-0.081893 0.236191 0.039933 99 142 217
0.027999 0.074243 0.003742 252 253 252
-0.073848 -0.228043 0.019334 104 103 107
-0.043333 0.228806 0.020212 248 249 248
-0.075606 -0.251407 -0.065374 109 136 179
-0.084413 0.041580 -0.027272 101 143 221
0.023930 0.265815 0.031196 254 254 254
-0.096035 -0.205106 0.049805 95 137 208
-0.057849 0.247651 -0.002783 252 253 252
-0.063747 0.282334 -0.017291 199 200 197
-0.096632 0.211307 -0.083879 92 106 130
0.012107 0.091504 0.015609 251 253 253
-0.090144 -0.269489 -0.025725 104 148 231
-0.102808 0.126175 -0.034956 95 132 203
-0.063441 -0.279910 -0.002715 252 253 252
0.038137 0.049605 0.007962 251 252 251
-0.077385 -0.071426 -0.038852 94 128 194
0.024467 0.132007 0.048294 252 252 252
-0.099799 -0.197295 -0.016266 97 136 209
-0.075549 -0.142158 0.004024 128 132 131
-0.077123 -0.180877 -0.032496 95 141 222
0.011012 0.208847 0.056401 253 253 252
-0.096665 0.236818 -0.053278 91 121 182
-0.023080 0.062280 0.027120 201 204 199
-0.081569 0.154902 -0.008635 91 124 182
0.001961 0.135412 0.013726 251 253 251
-0.095708 -0.198694 0.059059 90 113 163
-0.075648 -0.246695 -0.030777 97 147 229
-0.084902 -0.260648 0.047395 96 129 183
-0.090069 -0.269076 -0.007201 97 108 120
-0.074276 -0.278403 -0.012870 251 252 252
-0.051956 0.265106 -0.020192 251 252 252
-0.050312 -0.177763 0.013360 251 252 251
-0.010974 0.022253 0.014467 252 253 252
-0.074143 0.275976 -0.003509 105 108 118
-0.084671 0.026611 -0.009992 110 105 109
0.012140 0.280760 0.013522 252 253 253
-0.088065 0.166898 0.045857 95 135 204
-0.015425 0.017394 0.058349 253 253 251
-0.083996 0.051717 -0.051046 100 137 207
-0.102428 0.076429 0.032534 100 147 231
-0.030700 -0.064061 0.036086 250 251 250
-0.104531 0.090977 -0.055074 98 139 210
-0.097148 0.198212 0.013508 94 127 192
0.019334 0.232619 0.025312 254 254 253
-0.080239 0.141328 0.022687 99 146 232
-0.020055 0.186479 -0.015359 252 253 252
-0.030432 0.169113 0.038225 249 250 250
-0.084941 -0.275756 -0.031412 88 119 179
0.097605 -0.099281 0.012963 252 253 252
0.015361 0.134871 0.056304 253 253 252
0.076871 -0.055023 0.000379 252 252 251
-0.084927 -0.127722 -0.018581 106 116 127
-0.026350 -0.175173 0.028741 197 200 195
-0.072020 0.283452 0.040319 252 252 251
-0.078211 -0.209769 0.016991 97 140 216
-0.019635 -0.043212 0.031928 251 252 252
-0.072301 -0.261245 0.057890 254 254 254
-0.051276 0.241152 0.000177 252 252 252
-0.102919 0.071628 0.022838 89 116 175
-0.060340 -0.256940 0.021607 253 254 253
-0.012192 0.168565 0.006371 251 252 253
-0.036455 -0.104880 0.026878 252 253 253
-0.046678 -0.211842 -0.017334 251 253 252
-0.011938 0.093395 0.058150 251 252 251
-0.098805 -0.122949 -0.051243 92 112 151
-0.101009 0.040928 0.017145 119 127 133
0.009273 0.118367 0.002673 251 253 252
0.006984 0.279091 -0.009619 253 254 253
-0.075952 0.251967 0.050856 113 119 120
-0.076399 -0.229417 0.014357 99 146 231
-0.097947 0.182749 -0.047136 95 133 203
-0.098856 -0.062002 -0.049854 96 122 170
-0.075839 -0.189212 -0.062891 95 142 223
0.044888 0.030998 0.005515 254 254 254
-0.099597 0.160412 0.005553 94 132 201
-0.091436 0.257600 0.042852 93 127 191
-0.077880 0.172852 -0.030759 97 142 221
-0.093643 -0.254483 -0.041376 101 149 231
-0.101384 -0.120432 -0.037419 94 132 198
-0.027802 0.197527 -0.021572 251 252 250
-0.101001 0.050762 -0.006514 98 144 226
-0.096951 0.221049 0.038307 99 132 189
-0.100005 0.059867 -0.068730 120 125 127
-0.076829 -0.233506 0.034597 94 140 223
0.110049 -0.147470 0.002271 253 253 251
-0.051555 -0.202954 0.002648 252 253 251
-0.098416 0.022199 0.012871 108 112 118
-0.081464 -0.093072 -0.083419 107 133 176
-0.099915 0.035070 0.014333 97 132 196
-0.020757 0.179224 0.007547 252 254 251
-0.099712 -0.061777 -0.025578 89 118 178
0.071643 -0.023676 0.025352 252 253 252
-0.097858 -0.225731 0.019825 95 133 198
-0.014848 -0.006778 0.038191 251 252 253
-0.100387 -0.118770 -0.057385 97 144 229
-0.061540 0.285740 0.017094 251 251 250
-0.068708 0.276591 0.056160 251 252 251
-0.075990 0.260638 -0.013777 91 124 187
-0.101297 0.195458 0.030818 86 113 174
-0.020920 -0.151177 0.031871 253 254 253
-0.100212 -0.128271 -0.074202 97 137 207
-0.011422 0.172221 0.021855 206 209 206
0.017824 0.137865 0.016861 251 252 252
-0.005087 0.044887 0.022392 253 252 252
-0.068234 -0.285796 0.045478 253 254 253
0.001164 0.119695 -0.010661 253 254 251
0.076100 -0.073034 0.005757 252 253 252
-0.081712 -0.078481 -0.059998 89 120 178
0.018156 0.105136 0.003920 252 253 252
-0.041961 -0.142585 0.027766 253 253 253
-0.030822 0.210888 -0.017370 252 253 253
-0.082020 0.137588 -0.089902 101 146 225
-0.033978 -0.113998 0.025625 203 203 202
-0.072264 0.241681 0.046498 96 136 206
-0.083920 0.100121 0.018995 91 120 178
-0.096269 0.214675 -0.054208 100 139 210
-0.078013 -0.269751 -0.014926 248 248 248
-0.100215 0.046702 -0.053895 101 145 226
-0.102123 -0.082595 0.012610 91 120 181
0.006008 0.103067 0.061593 251 252 251
-0.098990 0.175756 -0.084045 101 146 225
-0.032636 0.191990 0.021048 251 252 251
0.008829 0.263322 0.035315 252 253 252
-0.038702 -0.107268 0.007030 251 253 252
-0.019289 -0.127709 -0.005559 253 253 253
0.080223 -0.081937 0.050628 251 253 252
0.014125 0.102324 0.009437 251 252 252
-0.097881 -0.146478 -0.037668 98 142 221
0.082479 -0.088961 0.028491 251 252 251
-0.049162 0.224562 -0.012246 251 252 252
-0.095221 0.220187 0.053457 85 111 167
-0.041425 -0.177454 0.057870 252 253 253
0.065875 -0.005780 0.012395 254 254 252
-0.023572 0.004712 0.050091 250 252 251
-0.081521 0.266158 -0.028294 95 104 118
0.016731 0.163720 0.030534 253 253 253
-0.080666 -0.138111 0.014475 94 136 207
-0.081552 0.135749 0.038823 93 134 208
-0.078847 0.198514 -0.056728 94 134 204
-0.006129 0.133133 0.025853 251 251 251
0.031695 0.055458 0.019266 251 253 252
-0.097612 -0.133920 -0.084227 101 148 233
-0.082386 0.268364 -0.050713 99 144 226
0.012593 0.251451 0.038626 253 254 253
-0.016431 -0.008894 0.052941 252 253 252
0.083876 -0.079709 0.062798 249 250 250
-0.076706 -0.228894 -0.019397 100 149 232
-0.104076 0.063856 -0.022231 95 129 194
-0.092359 -0.209507 -0.080954 87 113 170
-0.002663 0.182465 0.005457 252 253 253
0.082546 -0.056820 0.001315 252 253 252
-0.012585 0.105575 0.055804 251 252 253
-0.084172 0.085135 -0.004567 100 146 231
-0.076445 0.269521 -0.004585 100 134 194
-0.089196 0.075142 0.005611 91 126 195
-0.102258 0.047200 -0.032011 100 143 224
-0.085936 0.259277 -0.061244 104 113 114
0.092466 -0.117355 0.047362 252 253 253
-0.076447 -0.263861 -0.001960 99 135 200
-0.065699 0.260325 -0.014728 253 253 253
-0.087347 -0.045723 0.015564 100 145 228
-0.047172 -0.170447 0.056721 251 253 252
0.097702 -0.123413 0.059456 253 254 253
-0.080911 -0.060318 -0.047881 92 127 190
-0.098295 -0.103034 -0.079858 121 124 126
-0.031394 0.214674 -0.015142 252 253 253
-0.074581 0.258712 -0.060773 100 135 201
-0.099508 -0.145697 -0.044870 98 147 230
-0.080823 -0.161440 0.021954 89 119 177
-0.077840 0.273492 -0.043607 98 142 221
-0.048171 0.276681 0.048329 252 252 252
-0.046424 0.280235 0.054882 252 253 252
-0.098002 -0.145202 -0.058063 97 147 229
0.013014 0.258663 -0.024706 252 253 253
0.001750 0.131817 -0.000702 252 254 253
-0.072822 0.275798 -0.003620 93 125 190
-0.095177 0.035110 -0.029470 95 133 208
-0.096691 -0.126697 -0.073733 99 146 230
-0.084067 -0.086932 0.010653 95 141 218
-0.027313 -0.037725 0.030405 250 252 250
-0.083971 0.278317 -0.012678 254 253 254
-0.077468 0.237092 -0.003803 92 128 194
-0.097249 0.207876 -0.058072 94 127 190
-0.098088 0.217119 -0.019072 86 113 174
-0.101559 0.051246 0.002224 98 140 211
-0.102115 -0.049183 0.019484 94 129 194
-0.080992 -0.085934 -0.009190 96 141 226
-0.101932 0.124402 -0.046319 93 122 175
-0.093879 0.042693 -0.027091 111 100 107
-0.101287 0.131111 0.030734 95 129 189
0.121630 -0.200108 0.024255 251 253 251
0.116979 -0.142762 0.015046 252 254 254
-0.069316 -0.270995 0.008331 251 253 251
0.124574 -0.211520 0.028675 250 251 251
-0.093644 0.195802 -0.086477 98 134 200
-0.076750 0.282714 0.053667 251 252 252
-0.067817 0.287180 -0.010116 252 251 252
-0.102688 0.126013 -0.076754 93 124 183
-0.098963 -0.134075 -0.072912 101 148 232
-0.033553 -0.060319 0.017933 252 254 252
-0.070971 0.281253 -0.020083 252 253 252
-0.103755 0.072934 -0.062429 97 139 213
-0.047037 0.266202 -0.014323 250 250 251
-0.096724 -0.195257 -0.018883 95 141 220
-0.091743 0.261421 -0.057710 98 141 219
-0.100548 -0.041232 0.003628 101 147 230
0.069413 -0.066218 0.056780 251 253 252
-0.084946 0.049384 -0.035483 89 118 172
0.074426 -0.039531 0.052971 252 252 253
-0.086514 0.058409 -0.068784 95 131 198
-0.064184 -0.283461 0.042499 252 252 251
-0.100226 -0.056940 -0.032222 99 146 231
0.074962 -0.051193 0.023904 251 252 251
-0.094679 -0.247136 -0.070879 124 130 130
-0.075400 0.220952 0.012635 97 135 203
0.055734 -0.010024 0.010894 253 255 254
-0.077502 0.225257 -0.071123 97 141 218
-0.063982 -0.277286 0.035292 251 253 253
-0.000506 0.175749 0.050157 252 253 252
-0.077904 -0.194825 -0.071091 98 146 230
-0.048554 -0.240046 0.046090 201 205 208
0.116007 -0.172439 0.027416 251 252 252
-0.097861 -0.171880 -0.073992 92 125 193
-0.093619 0.272650 0.009447 96 127 187
-0.032924 -0.082283 0.029517 253 254 253
-0.046028 -0.229417 0.057488 252 254 252
-0.074095 -0.247256 0.052240 109 114 117
0.065442 -0.013993 0.031733 252 253 253
-0.082316 -0.046490 -0.031732 117 124 126
-0.006217 0.166327 0.005544 250 251 251
-0.002279 0.055080 0.060549 253 254 253
-0.080794 -0.269143 0.040230 99 140 218
-0.057309 -0.249610 -0.008086 250 251 251
-0.101587 0.105209 -0.034468 100 147 231
-0.071418 -0.255241 0.037952 252 253 254
-0.093441 -0.238630 0.051369 98 147 231
-0.095261 -0.228830 -0.014511 101 149 232
-0.102880 0.057733 -0.061881 95 136 213
-0.095934 -0.186505 -0.080723 106 106 108
-0.074519 -0.253728 -0.058097 92 119 175
-0.086971 0.144561 -0.086500 113 116 118
0.061745 -0.024376 0.001932 252 252 250
0.086362 -0.059454 0.030503 252 254 254
-0.069119 0.288796 0.045842 252 253 253
-0.011528 0.042606 0.061205 252 253 253
-0.080521 0.285404 -0.008540 254 254 254
-0.098654 0.181631 -0.056302 95 137 213
-0.072219 -0.271065 0.059887 252 253 251
-0.082154 -0.116785 0.049824 115 122 134
-0.087470 0.231383 -0.077890 99 140 217
-0.004858 0.080340 0.057017 253 254 252
-0.077205 0.193256 0.032302 97 141 220
-0.102302 0.114258 -0.081305 112 122 142
-0.080594 0.054895 0.023237 96 137 214
0.013206 0.276507 0.011202 253 254 253
0.013057 0.203916 0.021810 252 253 252
-0.024252 -0.182047 0.028261 206 211 206
0.003601 0.277335 0.007469 251 253 252
-0.034834 -0.179508 0.027915 250 251 250
-0.059728 -0.228655 0.062325 251 253 253
-0.047405 -0.209891 -0.013245 254 254 254
-0.101203 0.134704 -0.059701 101 147 232
-0.080647 0.230255 -0.047444 91 127 191
-0.057625 -0.270437 0.010875 251 251 252
-0.077376 -0.172622 -0.055571 101 147 230
-0.018801 0.037632 0.054880 243 244 244
-0.081146 -0.203954 -0.072919 89 123 195
0.040948 0.069254 -0.004861 252 252 251
-0.034839 -0.135147 0.032032 251 252 251
-0.076977 0.249524 -0.033653 98 144 230
-0.078072 -0.241096 -0.004020 91 125 190
-0.101445 0.104457 -0.026458 95 133 202
-0.103050 0.035151 -0.016159 97 134 199
0.019855 0.233848 0.046459 252 253 252
-0.081646 0.270825 -0.041318 117 95 100
-0.100235 -0.181880 -0.025949 100 145 224
-0.031953 0.238853 0.036714 253 254 253
-0.011538 0.186869 0.047022 205 207 206
0.003388 0.131378 0.002366 251 251 251
-0.099180 -0.157295 0.038860 98 137 205
-0.077676 -0.092905 0.011745 94 140 217
-0.075594 0.247597 0.013052 93 130 197
-0.080240 0.119226 -0.040349 99 146 232
0.065998 -0.025935 0.054047 252 253 252
0.098935 -0.136404 0.051318 249 251 250
-0.093562 0.209109 -0.083898 98 145 232
-0.008729 0.150851 -0.014311 252 254 252
0.020017 0.132207 0.048288 251 253 253
-0.097638 0.249841 -0.020379 98 144 228
-0.026260 -0.115470 0.029346 251 253 253
-0.078524 -0.175812 0.046744 92 134 205
-0.073258 -0.253463 0.005645 97 132 195
0.057599 0.012627 -0.000470 251 251 250
-0.018353 -0.002623 0.004161 252 252 252
-0.093258 -0.227604 -0.014890 94 135 208
0.068226 -0.054635 0.020867 251 254 252
-0.076678 0.271029 -0.031977 100 101 103
-0.089506 0.059111 -0.057631 121 127 133
-0.012115 0.145488 0.017540 251 252 251
-0.076917 -0.259033 0.019622 94 140 217
-0.088312 -0.271024 0.004405 101 148 232
-0.064653 0.265012 -0.006430 252 253 252
-0.080289 -0.106501 0.027123 118 125 130
-0.053363 -0.228181 -0.019215 251 252 251
-0.097284 -0.092324 -0.050061 98 146 231
-0.096411 -0.168477 0.017983 98 146 232
-0.077890 -0.158564 -0.052315 98 147 230
0.049000 0.037438 0.045659 255 255 255
-0.070446 0.270035 0.021336 100 143 219
-0.082573 0.159757 -0.085312 98 143 225
-0.081123 0.073895 0.018090 92 130 205
-0.096784 -0.146441 -0.056475 99 146 230
0.063565 -0.035869 0.011237 253 253 254
-0.001504 -0.135837 0.003234 208 210 203
-0.104321 0.069124 0.015763 97 139 212
0.011331 0.134907 0.014004 253 254 253
-0.081687 0.170423 0.028689 95 134 207
0.027390 0.111775 0.037316 253 254 254
-0.081697 -0.081302 -0.038228 93 133 196
-0.053534 0.136538 0.038101 187 191 189
-0.094368 0.260258 0.030376 94 128 189
-0.086062 -0.064438 0.023264 95 135 206
-0.055981 0.281409 0.000510 252 252 252
-0.010709 0.158318 0.004523 252 252 251
-0.091328 0.170660 0.050044 96 140 220
-0.085547 -0.076184 0.033343 140 146 147
-0.084170 0.034933 0.000221 96 143 221
-0.089023 0.069483 -0.073746 99 139 216
-0.095658 -0.225829 0.045743 99 136 199
-0.027803 -0.042412 0.049880 252 253 251
-0.084858 0.061177 -0.001420 99 145 224
-0.100343 0.140349 -0.009259 100 142 218
-0.073410 -0.257279 -0.059542 116 118 121
-0.092469 -0.246447 0.040424 100 113 127
-0.066628 0.290737 0.037103 253 254 252
-0.081789 0.282702 0.002965 250 251 250
-0.080112 0.250589 -0.066192 95 142 221
-0.021427 -0.086580 0.007211 251 252 252
-0.086501 -0.044085 -0.011982 100 144 229
-0.068486 -0.255409 0.008321 252 253 251
-0.096364 -0.247437 -0.008847 108 116 119
-0.097796 -0.180135 -0.057875 99 148 232
-0.034954 -0.163160 0.001653 250 252 251
-0.019669 -0.002559 0.057045 250 252 250
0.047367 0.042437 0.040776 253 255 254
-0.047271 0.233980 0.059001 251 252 252
0.043848 0.066741 0.025666 253 254 253
-0.091917 -0.254431 -0.047548 103 149 232
-0.000300 0.224379 0.004972 252 252 252
-0.098527 -0.046439 0.019684 96 127 187
-0.080130 0.278089 -0.018995 101 100 104
-0.100926 0.116652 -0.004764 95 136 208
0.050683 0.009770 0.004778 223 224 224
0.010413 0.183562 0.013217 251 252 252
-0.078861 -0.185097 -0.069178 97 143 226
-0.098590 -0.161019 0.034887 91 129 202
-0.098344 -0.212929 0.043538 97 140 217
-0.102005 -0.126683 0.036230 98 135 200
0.015852 0.279545 0.024091 254 255 252
0.013111 0.140522 0.057586 253 253 252
-0.045734 0.249888 0.007717 248 248 249
-0.075092 -0.205541 -0.073687 99 148 233
0.001346 0.167655 -0.005724 253 254 252
-0.097735 -0.128561 -0.079950 106 115 128
-0.093516 0.275046 -0.035993 100 147 229
-0.102028 0.069704 0.023325 100 143 222
-0.095910 -0.064732 -0.046419 111 117 118
-0.100597 -0.111476 -0.038591 94 132 204
-0.083661 -0.101510 0.026061 94 134 203
-0.077632 0.224962 -0.079412 97 140 215
0.048671 0.001268 0.034047 251 252 253
-0.091787 -0.254453 -0.045346 100 146 226
0.022097 0.262911 0.048362 251 251 251
-0.014940 0.029654 0.034429 251 253 251
-0.059734 -0.213928 0.032098 252 252 252
-0.098655 -0.130271 0.030826 131 141 150
-0.103057 0.128365 -0.033960 99 142 219
-0.079135 -0.111309 0.001987 90 124 194
0.112596 -0.136773 0.014266 250 251 250
0.021065 0.122480 -0.005349 252 253 252
0.009197 0.097908 0.052727 252 253 252
-0.076490 0.269818 -0.015034 97 144 223
-0.083771 0.169543 0.053625 94 100 105
0.039394 0.044488 0.045437 254 255 255
-0.104199 0.120271 0.008560 97 140 214
0.042758 0.065482 0.022059 253 254 252
-0.068398 -0.246885 0.030828 253 254 252
-0.016962 -0.014951 -0.001493 254 254 254
-0.081368 0.094485 -0.023322 93 135 209
-0.067660 -0.269500 -0.005155 253 253 253
-0.072845 0.291017 0.056592 251 252 252
-0.099180 0.198848 -0.019968 95 130 194
-0.080354 -0.147159 -0.059460 96 145 230
-0.096332 -0.133527 0.043319 99 146 232
0.056372 -0.011793 0.049537 251 254 253
-0.065720 -0.283325 0.044694 249 250 248
-0.022592 -0.127422 0.009096 251 252 252
-0.079644 -0.118303 -0.005265 99 142 218
-0.101229 0.139691 -0.031748 100 145 230
0.091567 -0.112239 0.018321 252 253 253
0.087354 -0.100275 0.030258 252 254 252
-0.094442 -0.222218 0.020380 94 134 206
-0.101764 0.077775 -0.009351 97 141 217
-0.068664 -0.285638 0.034582 253 252 253
-0.101421 -0.110433 -0.011614 95 137 212
0.010200 0.217746 0.008188 249 250 249
-0.023019 -0.098600 -0.010151 252 252 252
-0.075342 0.278443 -0.026369 101 143 218
-0.100931 0.077452 -0.015237 97 136 208
-0.093816 -0.048545 -0.028947 117 130 143
-0.074202 0.194306 -0.056611 96 133 203
-0.016037 -0.005663 0.054763 253 254 253
-0.093511 -0.111170 -0.069624 118 121 123
0.019085 0.117505 0.029192 253 254 254
0.105239 -0.157531 0.054779 251 251 250
-0.064364 0.266389 0.030526 171 175 175
0.057639 -0.004842 0.055925 251 252 252
0.013581 0.228403 0.052367 253 254 253
-0.080797 0.147627 -0.009635 92 126 189
-0.045391 0.233888 0.054964 251 252 252
-0.084637 0.083657 -0.044160 99 140 213
-0.087023 -0.177224 -0.084230 100 149 233
-0.030469 -0.039752 0.009494 252 252 251
-0.074327 0.269524 -0.007434 103 119 135
-0.081044 0.199832 0.055024 95 135 204
-0.073205 -0.198619 -0.050568 97 139 218
-0.098096 -0.203819 0.049724 98 140 217
-0.050158 -0.183176 0.057500 252 253 252
0.110142 -0.165136 0.041165 253 254 251
-0.036112 0.241435 0.022362 252 253 252
-0.078996 -0.134146 0.000802 99 146 231
-0.027027 -0.060986 0.001269 250 252 251
-0.099043 0.104724 0.016058 97 129 188
-0.090740 -0.229586 -0.054786 92 132 210
-0.023212 0.193434 -0.001869 251 252 252
0.000757 0.176598 0.003516 251 252 252
-0.075945 -0.250182 0.010033 90 124 192
-0.029162 0.198927 0.002765 253 254 253
-0.018950 0.002458 0.056462 249 251 250
-0.069128 -0.247705 -0.027938 250 251 252
-0.078765 0.200044 -0.056889 89 121 182
-0.091070 0.078036 -0.083429 97 137 206
-0.047321 -0.227217 0.008195 251 251 252
-0.098776 -0.107624 -0.058173 101 148 229
-0.080904 -0.235043 0.052272 101 109 114
-0.095128 0.237357 -0.034839 93 129 198
-0.088098 -0.162069 0.043678 97 139 214
-0.066006 0.287463 -0.014130 206 212 221
-0.017133 0.023826 0.010951 252 254 253
0.019145 0.273251 0.009757 253 254 252
-0.076663 0.250810 -0.019129 98 137 210
-0.075752 -0.114314 -0.087870 107 110 113
-0.077209 -0.150268 0.048700 103 89 95
-0.001911 0.151787 -0.002834 252 253 253
0.058267 0.002586 0.050195 253 254 254
-0.083758 0.028246 -0.014289 110 112 112
-0.042611 -0.197949 0.029142 252 253 252
-0.095237 -0.228361 -0.055827 100 144 223
-0.084512 0.091090 -0.052588 98 146 232
-0.079634 -0.146196 -0.054927 97 146 227
-0.091637 -0.131357 -0.086279 92 129 197
-0.043518 -0.159248 0.016779 250 252 250
-0.042915 0.238814 -0.016807 252 252 251
-0.099907 0.146445 0.034573 95 136 211
-0.015937 0.186439 -0.002081 252 253 253
-0.099980 0.067404 0.000833 95 140 218
-0.006868 0.061407 0.052226 252 253 253
0.059828 0.000640 0.021317 252 253 254
-0.077863 -0.203977 -0.023633 90 121 184
-0.080843 -0.149783 -0.078443 99 147 233
-0.051706 -0.209785 -0.003035 250 252 251
-0.097958 -0.118027 0.002519 92 130 205
-0.084290 0.276698 0.018399 100 146 227
-0.100142 0.025147 0.007211 154 158 156
-0.042141 -0.164067 -0.014644 253 253 252
-0.103323 0.088870 -0.033577 91 128 199
0.116724 -0.157463 0.016786 251 252 252
-0.091531 0.172351 -0.086142 86 115 177
0.092081 -0.088576 0.015784 251 253 251
-0.079277 0.258227 -0.061429 100 148 232
-0.076720 0.278352 0.036861 252 253 252
0.008180 0.172212 0.018130 254 254 254
-0.103100 0.091779 0.034256 100 148 231
0.096633 -0.113877 0.012306 253 254 251
-0.090385 -0.274186 -0.023071 95 137 212
-0.076153 -0.165602 -0.083884 97 138 215
-0.082873 -0.134741 0.033774 99 137 204
-0.076339 -0.241678 0.033492 88 121 186
0.103967 -0.149515 0.028091 252 252 251
-0.083181 0.152374 -0.026948 98 145 230
-0.096996 0.184504 0.043496 95 129 191
-0.009289 0.088257 0.062643 253 253 253
-0.100431 0.111972 0.018087 96 140 223
-0.078406 0.133434 0.031785 111 117 123
0.086499 -0.071884 0.021857 252 252 251
0.079771 -0.076198 0.002199 252 252 252
0.018933 0.156258 0.043013 254 254 254
-0.075890 0.277011 -0.005279 96 139 213
-0.090938 -0.269138 -0.044938 104 112 121
-0.082332 0.067860 -0.013544 95 138 215
-0.098907 -0.106337 0.017543 87 119 182
0.015883 0.203736 0.038127 251 252 252
-0.027544 -0.028281 0.035721 251 252 252
0.008364 0.113105 0.020027 252 253 252
-0.101603 0.042312 -0.032204 98 144 225
-0.076039 -0.097624 0.025807 103 106 111
-0.100167 -0.124399 0.018793 97 139 217
0.001295 0.235326 0.006476 250 251 251
-0.056508 -0.269787 0.054917 253 253 251
0.098076 -0.117733 0.001448 252 253 253
0.017694 0.241154 0.042065 251 252 252
-0.013463 0.072227 0.023490 251 252 252
-0.034329 -0.126377 0.037655 251 252 252
-0.085641 0.057783 0.023131 93 121 169
-0.102988 0.131873 -0.043488 99 139 216
-0.091894 -0.038734 0.002723 99 144 225
-0.076434 0.218490 0.024162 90 126 193
-0.078772 0.209391 -0.047211 91 119 176
-0.047473 0.137150 0.026830 210 214 209
-0.093168 0.128561 0.012135 95 135 210
-0.025735 -0.031566 0.016672 251 253 252
-0.091519 0.273872 -0.013866 92 102 110
-0.105641 0.091490 -0.084983 111 113 119
-0.055046 0.249295 0.055584 251 252 251
0.123327 -0.177852 0.043907 251 254 251
-0.076717 0.192392 0.023238 96 139 217
-0.093437 0.156875 -0.089223 111 126 137
0.065935 -0.025336 0.054681 251 252 252
-0.013250 0.043975 0.016417 252 254 253
0.043026 0.068436 0.011161 252 254 253
-0.074349 -0.211521 -0.039043 103 112 116
-0.079400 0.271254 -0.013238 103 76 84
-0.097863 0.209528 0.029927 93 125 183
0.011307 0.128501 0.027072 253 253 252
-0.085470 -0.247483 0.054721 95 140 222
-0.079023 -0.107353 -0.002690 98 143 223
-0.078082 -0.139069 -0.038302 97 146 230
-0.077808 0.232365 -0.069738 91 123 184
-0.027213 -0.006088 0.014470 253 254 254
-0.100527 0.180789 -0.052301 101 148 230
-0.077989 -0.177184 -0.070292 96 144 230
-0.102794 0.045777 -0.044728 108 126 152
0.016209 0.121477 0.050002 254 255 255
-0.099645 -0.103928 0.013017 95 139 214
0.044370 0.023348 0.044986 254 255 255
-0.095994 0.179907 0.028185 100 146 229
-0.079603 0.194376 -0.012597 97 141 222
0.034156 0.052657 0.021325 253 253 253
-0.021549 0.002781 0.058908 252 253 253
-0.078962 -0.198286 -0.020498 99 128 169
-0.079099 -0.278310 -0.008858 93 130 200
0.038437 0.075485 -0.004933 253 254 253
-0.071014 0.283632 0.051169 252 253 253
-0.103411 0.143701 -0.046740 89 120 181
-0.073323 -0.281040 0.042510 252 253 253
0.007604 0.268710 -0.021778 253 252 251
-0.082882 -0.224155 0.056577 96 141 222
-0.002044 0.148674 -0.013703 252 253 251
-0.088796 0.274228 0.034688 113 121 126
0.106131 -0.128018 0.006119 253 254 253
-0.087094 -0.275940 -0.030072 100 141 214
-0.061658 0.264986 0.056450 251 252 251
-0.078178 -0.237798 0.014769 86 115 175
-0.085227 0.109576 -0.056211 97 145 228
-0.022538 -0.071414 0.022092 251 253 252
0.012846 0.236973 0.034554 252 254 253
-0.020459 -0.051192 0.016170 250 251 251
-0.015700 0.124447 0.054091 251 252 252
-0.023105 -0.041149 0.054205 251 253 252
-0.071156 0.276406 0.039301 251 253 251
0.087902 -0.077062 0.018872 253 254 251
-0.084178 0.052125 -0.034654 95 139 215
-0.098377 0.168150 -0.010531 101 147 230
-0.063707 -0.226073 0.003567 250 252 252
0.115082 -0.155649 0.033003 251 253 253
0.021966 0.271098 0.040066 251 251 251
-0.006205 0.171070 0.009567 251 253 252
-0.101687 0.121515 -0.047601 98 142 222
-0.076076 -0.239231 0.003784 101 148 231
-0.094800 0.248445 0.009019 99 135 200
0.048652 0.014241 0.008470 254 255 254
-0.050292 -0.173403 -0.013747 252 254 252
-0.099064 -0.073019 -0.006747 92 124 185
-0.103944 0.095633 0.033696 112 116 125
-0.079620 -0.046552 -0.026340 104 106 109
-0.010072 0.031636 0.028236 253 253 252
-0.093662 -0.242542 0.039057 136 141 142
-0.034809 0.199272 0.032350 251 252 251
-0.097022 -0.221285 0.025465 97 147 231
-0.068411 -0.249838 -0.016086 252 253 254
-0.072856 0.269967 -0.031238 100 109 113
-0.097248 0.211531 -0.020316 95 135 210
0.017124 0.267581 -0.000692 250 251 251
-0.097832 0.036931 -0.032879 102 148 231
-0.014600 -0.014578 0.045381 251 251 251
-0.098225 0.202716 -0.061557 101 146 227
-0.062135 -0.276934 -0.016040 253 254 253
-0.101503 0.128833 -0.053455 100 144 223
-0.077593 0.206899 -0.052447 90 124 191
-0.000086 0.061741 0.056276 253 253 254
0.047410 0.019089 0.009443 253 253 254
-0.091868 -0.102659 -0.086193 98 145 229
-0.037297 -0.213031 0.015281 251 251 252
-0.105308 0.039405 -0.040385 100 132 195
-0.060984 -0.224297 0.032471 252 253 252
-0.027329 0.156072 0.049143 251 252 250
-0.096504 -0.240548 -0.015969 96 129 191
0.060707 0.003329 0.039941 252 253 254
-0.075785 0.241471 -0.012315 100 104 110
-0.083697 0.145202 -0.060080 96 135 203
-0.075521 -0.224501 0.051292 132 136 137
-0.043848 -0.213886 -0.006104 253 253 253
0.025229 0.081285 0.006072 252 254 253
-0.081438 0.221412 0.040949 94 112 150
0.060105 0.004838 0.010183 253 253 253
0.057182 -0.000066 0.016531 253 252 251
-0.075683 -0.266698 0.024051 92 131 206
-0.066011 0.038811 -0.034342 206 208 207
-0.035680 0.194658 -0.016600 253 253 253
0.008079 0.141237 0.054662 252 253 251
0.073384 -0.022073 0.020898 253 254 253
-0.049502 -0.228895 0.004542 251 252 250
-0.018980 -0.050213 0.026511 252 253 251
-0.001250 0.197054 -0.012679 252 252 252
0.089170 -0.099475 0.051203 250 252 251
-0.080602 -0.084696 -0.043761 90 128 198
-0.099636 -0.092978 -0.075548 90 124 187
-0.101296 0.222273 -0.013038 101 146 229
-0.077706 -0.250509 0.039414 98 109 118
0.120572 -0.148725 -0.009213 251 252 251
-0.000698 0.227563 0.008244 251 251 251
-0.055616 -0.221079 0.059809 251 251 250
-0.035892 0.196059 0.018186 252 252 251
0.010308 0.130015 0.049847 247 247 246
-0.007220 0.174246 0.014845 252 253 252
0.010147 0.122118 0.025050 252 253 251
-0.073031 -0.260412 -0.047113 94 136 211
-0.073932 0.268390 0.009719 102 146 229
-0.081890 0.163641 -0.087713 120 131 143
0.018118 0.145512 0.059540 253 254 254
-0.093179 -0.171774 -0.084710 102 139 207
-0.025599 -0.167969 0.000904 220 224 227
-0.036916 0.225776 0.047698 251 251 252
-0.099698 0.147792 -0.064920 96 144 229
0.089808 -0.086941 0.012754 253 254 252
-0.095241 0.148959 -0.087026 121 130 140
0.096188 -0.105040 0.032046 253 254 252
-0.084343 -0.262598 -0.054496 98 129 186
-0.077549 0.282150 0.000647 76 87 105
0.084593 -0.096715 0.028870 253 254 253
-0.075423 0.259499 -0.037070 95 138 216
-0.023215 0.000076 0.017371 252 254 252
-0.094349 0.035265 -0.025438 123 130 137
-0.085882 0.099850 -0.056266 91 123 186
-0.097443 0.209866 0.034044 100 146 228
-0.062097 -0.283521 0.057625 249 251 249
-0.100489 0.041632 -0.026105 92 128 191
-0.081715 0.178314 0.050474 91 125 192
0.016304 0.206447 0.049188 253 253 252
-0.071956 -0.231102 -0.069136 96 140 216
0.009674 0.268119 -0.020215 254 253 254
-0.073253 -0.265136 -0.051806 95 136 216
-0.084968 0.061973 -0.000291 90 125 193
-0.017423 0.047552 0.053662 252 253 252
-0.074944 0.227738 0.021814 96 132 200
0.066851 -0.009140 0.035753 252 254 253
-0.039794 -0.087445 0.001491 252 254 253
-0.080606 -0.279243 0.008752 110 111 117
-0.045143 -0.212688 0.039990 252 253 251
-0.098953 -0.152922 -0.081562 99 135 197
-0.028770 0.195789 0.059927 252 253 253
0.052328 0.006837 0.040576 253 254 252
-0.095758 0.225814 0.020094 97 132 196
-0.078946 -0.215793 0.009641 104 106 111
-0.080635 0.278903 -0.025012 88 116 176
0.006831 0.143395 0.029029 253 253 252
-0.098565 0.267571 0.000674 108 117 126
-0.068726 -0.261317 0.051878 252 253 253
-0.045893 -0.246290 0.032574 250 249 248
-0.091990 -0.267298 0.004394 95 140 221
-0.079302 0.053797 -0.016550 97 137 209
-0.000538 0.123270 0.040166 253 254 251
-0.077003 0.242673 0.049322 85 111 170
-0.095900 0.240001 0.017170 97 143 229
-0.098497 -0.058879 -0.024563 100 142 221
0.062127 -0.027438 0.003416 251 254 251
-0.095260 -0.186258 -0.021840 96 146 228
-0.037358 -0.174524 0.053067 254 254 254
-0.101835 -0.162376 0.047986 116 123 130
-0.018527 0.034982 0.022011 251 253 251
0.099294 -0.139649 0.054288 252 253 251
0.044368 0.046587 0.052259 254 254 254
-0.051067 0.186881 0.022614 193 197 194
-0.097370 -0.189566 0.029286 95 141 225
-0.062545 0.286382 0.023541 252 252 251
-0.051625 -0.241514 -0.017550 250 252 250
-0.083814 0.089323 -0.079487 95 137 218
-0.072270 0.281339 -0.011614 251 252 251
-0.035283 0.244066 0.054956 252 253 253
-0.101189 0.115231 -0.026500 97 126 178
0.029710 0.071552 -0.003526 253 254 253
-0.101738 0.079521 -0.068677 103 148 233
-0.088412 0.274034 -0.039688 98 141 218
-0.056223 0.278623 -0.001129 252 252 251
0.103548 -0.151566 0.042182 250 251 250
-0.079929 0.162530 -0.050905 99 142 223
-0.098725 0.242513 -0.051548 89 121 189
-0.077903 -0.192411 -0.064151 91 126 198
-0.091715 -0.112847 -0.084878 94 125 186
-0.075977 0.214278 0.050355 90 121 181
-0.077232 -0.202507 -0.072617 97 145 232
-0.095924 0.209957 0.045842 91 125 195
0.031957 0.083499 0.050408 252 254 254
-0.081823 0.115194 -0.086991 107 152 235
-0.104569 0.106746 -0.033296 94 128 190
-0.083939 0.071185 -0.037701 99 143 225
-0.079034 -0.276723 0.013178 109 116 122
0.055767 0.036931 -0.001939 250 251 251
-0.084451 -0.262540 -0.056024 98 133 197
-0.081648 0.140153 -0.073816 98 147 232
-0.065930 -0.219968 -0.041833 146 154 150
0.122775 -0.170253 0.037665 252 252 251
0.091790 -0.104179 0.051752 252 253 253
-0.076913 -0.217725 -0.033575 99 144 226
0.000188 0.211705 -0.008326 252 252 252
0.110452 -0.135201 0.000593 252 253 251
-0.076555 -0.157272 0.026944 126 135 145
-0.027982 -0.014496 0.035751 251 253 253
-0.048871 0.256670 -0.022226 253 253 252
-0.074138 0.233620 -0.007750 94 135 209
-0.099731 -0.183636 -0.042944 102 123 163
-0.079787 -0.161558 -0.061338 97 145 229
-0.069139 -0.266661 0.028665 253 254 252
-0.053595 0.280939 0.027478 253 253 252
-0.082331 0.136068 0.013767 95 140 221
-0.095322 -0.234752 -0.036583 95 140 217
-0.101018 -0.180548 -0.020370 99 147 229
-0.084840 0.129545 -0.036582 81 107 167
-0.005745 0.138801 0.053617 252 253 253
-0.019523 0.222892 -0.019498 250 252 251
-0.014831 0.162620 0.008756 250 251 250
-0.057759 -0.214580 0.022921 253 253 253
-0.077738 0.227998 -0.055654 95 141 227
-0.075949 -0.256463 0.050324 96 136 212
-0.079295 -0.176285 -0.079229 98 145 232
-0.074425 0.274132 0.021647 252 254 253
-0.098616 0.236662 0.044649 103 147 227
-0.091579 0.265543 0.024769 94 126 188
-0.098292 -0.120526 0.029019 100 147 232
-0.099272 -0.057796 -0.001534 88 117 178
-0.082580 0.037643 -0.030605 99 144 225
0.015091 0.200845 -0.000369 250 250 250
-0.100638 -0.081896 -0.030076 99 142 220
-0.072622 0.286233 -0.001999 253 254 252
-0.080215 -0.272188 -0.010033 251 253 253
-0.094970 0.239312 -0.066693 103 148 231
0.053121 0.002873 0.001675 253 253 253
-0.006020 0.168621 0.042171 252 253 252
-0.030103 -0.053728 0.036606 252 254 252
0.101278 -0.127004 0.037758 251 251 252
0.098590 -0.133599 0.053014 252 253 252
-0.081489 -0.151773 -0.087822 98 142 221
-0.045582 -0.153207 0.011847 251 253 252
-0.094418 -0.271097 -0.024074 100 142 217
0.046188 0.043390 -0.004479 253 255 253
-0.081882 0.029235 -0.015420 102 149 233
-0.073559 -0.238938 -0.056087 93 137 211
-0.028310 -0.043120 0.015516 250 251 252
-0.095220 0.237579 0.045090 98 130 191
-0.019331 0.088180 0.011993 252 254 251
-0.075856 -0.272088 0.029374 93 103 112
-0.057384 -0.259764 -0.011316 249 250 250
-0.097082 0.237274 -0.069006 91 121 182
-0.066692 -0.281056 0.046892 252 252 251
-0.053203 -0.257336 0.049907 252 252 252
-0.090059 0.277189 -0.027210 95 134 204
0.119231 -0.158321 -0.000592 252 253 252
0.007412 0.173561 0.001301 252 253 252
-0.074949 0.272572 0.015274 161 164 164
-0.081366 0.131918 -0.015395 92 131 204
-0.046927 0.243166 -0.011758 252 252 251
-0.079605 -0.094982 0.029922 110 114 117
-0.098446 -0.061703 -0.024629 94 133 202
-0.029189 0.215025 0.013879 252 253 252
-0.058636 -0.217692 0.053579 252 253 253
-0.074360 0.187127 0.036361 115 121 122
0.130026 -0.202411 0.013670 252 253 254
0.035750 0.083302 -0.005055 253 253 252
-0.078667 -0.221361 0.059484 91 116 164
0.040792 0.063017 0.036163 252 253 254
0.023756 0.104613 0.056841 252 253 253
0.014115 0.098008 0.039421 251 253 253
-0.096599 0.194224 0.014718 93 123 184
-0.078853 -0.226798 0.044377 85 112 170
0.127917 -0.206155 0.040089 253 253 251
0.044696 0.036772 0.010006 253 253 254
-0.097252 0.215347 -0.015045 92 127 198
-0.074717 -0.226486 0.015997 97 145 229
-0.073201 -0.256267 -0.031016 101 148 232
-0.101276 0.138109 -0.084372 94 132 201
-0.079931 0.138682 -0.032329 97 144 229
-0.080588 -0.082058 -0.031336 97 130 192
0.001361 0.082320 0.047356 252 253 252
-0.077894 -0.196542 -0.048763 97 142 224
-0.095363 -0.229075 0.005824 96 142 220
-0.100360 -0.219611 -0.003025 95 126 184
-0.097909 0.247469 0.048506 117 124 133
-0.094699 -0.195788 -0.066198 94 137 217
-0.078991 -0.177671 0.008950 103 151 235
-0.065031 0.283329 0.049274 252 252 251
-0.074861 0.226172 -0.073495 89 116 173
-0.091645 0.214214 -0.054907 96 129 189
-0.064628 -0.267209 -0.024311 253 254 253
-0.060547 -0.283675 0.035902 190 192 192
-0.073013 -0.233692 0.019229 93 131 198
-0.030909 -0.075958 -0.005959 252 254 252
0.035276 0.080157 -0.002076 252 252 252
-0.064740 0.313007 0.058926 255 255 255
-0.040181 -0.238457 0.046576 197 198 194
-0.074238 0.278965 -0.013526 100 139 210
-0.070522 -0.284836 0.041322 251 251 250
-0.096553 0.241236 -0.069124 94 127 189
0.116121 -0.171391 0.053453 252 254 252
-0.086411 0.210301 -0.083038 93 129 194
-0.079697 -0.178258 -0.060364 99 143 226
-0.035137 -0.070659 0.008141 253 254 253
-0.078262 -0.177734 -0.034691 88 119 179
0.048551 0.052706 -0.007405 252 252 251
-0.097230 -0.201123 -0.030235 94 137 218
0.025477 0.078175 0.019531 253 254 253
-0.098752 -0.129326 -0.025224 89 124 195
-0.100161 -0.167244 -0.037222 111 127 146
-0.076932 -0.138726 -0.007618 98 145 231
-0.074329 0.252989 -0.016402 99 144 228
-0.030732 -0.141834 0.045389 253 253 253
-0.080448 -0.142390 -0.079722 132 145 157
-0.075490 -0.177645 -0.083751 101 110 117
0.086842 -0.102529 0.053743 253 253 254
0.080815 -0.047897 0.002871 252 253 252
-0.045412 0.229411 0.001352 247 248 248
-0.075314 0.285553 0.044022 251 251 251
-0.099135 0.155147 -0.017494 99 146 231
-0.080696 -0.262966 0.047860 125 132 133
-0.028739 -0.055107 0.054614 252 254 251
-0.078945 0.162757 -0.054420 117 125 126
-0.085630 -0.165682 0.051082 96 134 201
0.052101 0.031317 0.025071 252 253 253
-0.027126 -0.130876 0.032979 252 252 252
0.107573 -0.160905 0.046126 251 253 251
-0.085297 0.078892 -0.012315 99 146 229
-0.076370 0.251457 -0.060435 107 116 123
-0.010665 0.039950 0.019282 252 252 252
-0.033296 -0.098570 0.031654 249 251 250
-0.019133 0.167764 0.051087 252 252 252
0.055836 -0.001074 0.054412 252 253 253
0.061747 -0.009338 0.056725 253 254 252
-0.101230 0.038291 -0.031926 100 149 231
-0.103403 -0.070663 -0.014410 101 145 226
-0.061206 -0.220177 0.044745 252 253 252
0.039016 0.074955 -0.003063 253 254 253
-0.077961 0.275916 -0.001318 252 253 251
-0.061684 -0.241513 -0.010063 247 248 247
-0.025435 -0.097997 0.027404 251 252 253
-0.089325 -0.126604 0.044540 97 133 197
-0.091728 -0.041589 -0.002541 95 127 183
-0.093600 -0.236961 0.025157 99 146 228
-0.092620 -0.107103 -0.086054 115 113 114
-0.033240 -0.119362 -0.010620 253 254 252
-0.084477 0.112174 -0.076435 91 127 192
0.084804 -0.066597 0.022184 251 252 252
-0.085126 0.084278 -0.070571 99 144 227
-0.072211 0.277599 -0.009635 249 250 250
-0.075902 0.150555 -0.084927 92 131 197
-0.005491 0.028415 0.015237 251 252 251
0.023128 0.085662 0.025483 254 254 253
-0.099372 -0.140824 -0.019814 93 135 204
-0.101099 0.086002 -0.032798 97 144 226
-0.099411 0.242905 0.033735 100 138 206
-0.078491 0.238028 0.039887 125 133 142
-0.075339 0.211268 0.019617 95 140 222
-0.078182 -0.200623 -0.066232 90 117 176
0.037933 0.081403 -0.011728 252 252 253
-0.013774 0.133906 0.003212 252 253 253
-0.080979 0.208567 -0.075565 95 134 209
-0.086044 0.124146 -0.087020 95 140 224
-0.043807 0.270309 0.043609 252 252 252
-0.091095 -0.046563 -0.007240 99 146 232
-0.089185 -0.232650 0.055772 94 140 215
-0.078729 -0.283018 0.048758 252 254 253
