ply
format ascii 1.0
element vertex 1271
property float x
property float y
property float z
property uchar red
property uchar green
property uchar blue
end_header
-0.133658 -0.146407 0.086708 0 0 122
0.149945 -0.413961 0.059462 185 180 182
0.079504 -0.417641 0.000952 7 8 9
-0.124169 -0.156704 -0.102495 234 231 232
-0.098852 -0.226775 0.101115 1 9 126
0.131173 -0.449304 0.051964 176 176 177
0.194607 0.386749 0.057962 203 202 200
-0.113665 0.242373 -0.125491 6 6 8
-0.075791 -0.223310 0.132323 218 218 220
-0.155468 -0.121075 -0.050428 3 0 116
0.184216 -0.404020 0.053490 220 219 219
0.030224 0.368806 -0.079829 5 6 9
0.051189 -0.413483 0.088752 180 179 179
-0.150402 -0.090910 0.057046 2 2 123
-0.137566 0.192135 0.124422 161 161 159
-0.146296 0.101088 -0.002101 6 8 7
-0.061176 0.289921 -0.134913 6 7 7
-0.069943 -0.272839 -0.041290 2 7 128
-0.026302 0.314260 0.028665 0 7 32
0.002149 0.333154 0.128946 156 155 156
-0.153081 -0.042605 0.031792 7 7 6
-0.104495 0.211846 0.014062 1 8 48
-0.154712 -0.114060 -0.088874 251 250 249
0.070023 0.388976 0.035217 0 7 16
0.155633 -0.189761 -0.018993 255 255 255
0.196862 -0.243115 0.006754 255 255 255
-0.039038 -0.337393 0.121383 198 197 197
0.087301 0.389000 -0.010161 0 5 10
0.165629 -0.446831 0.050833 6 8 8
-0.156314 -0.063409 0.015381 4 1 116
-0.033752 -0.284620 0.122914 211 211 209
0.198768 0.296444 0.002077 0 0 53
-0.013912 -0.318881 0.128404 201 199 200
0.010244 0.348965 -0.047629 0 7 17
0.203121 -0.294687 -0.059565 150 154 152
-0.082821 -0.266861 -0.112285 2 3 124
-0.078781 0.270366 0.135665 7 7 6
0.077311 0.417142 -0.044373 174 173 174
0.142537 -0.136383 -0.081742 0 0 54
0.178664 0.165535 0.023234 6 7 23
0.185525 -0.347913 0.045995 186 186 188
0.141100 -0.461729 0.020244 6 7 5
0.058875 0.371740 0.006626 0 5 16
0.192144 0.134376 -0.011829 0 0 53
0.035773 0.387736 0.092426 167 167 166
-0.104180 -0.226980 0.070583 1 6 125
-0.147984 -0.116066 -0.000205 0 3 117
0.051814 -0.371457 0.122259 193 190 192
-0.045963 -0.279757 0.128598 207 207 206
0.143577 -0.213972 -0.063250 0 0 55
-0.125108 0.060837 0.089898 199 196 198
0.175605 -0.429361 0.031199 226 227 226
-0.163141 -0.016494 0.077610 216 215 215
0.113507 0.404748 0.032478 2 5 12
0.175705 -0.445565 0.010446 255 255 255
-0.137643 0.115705 0.108426 6 7 7
-0.054660 -0.334204 -0.142274 7 7 6
-0.158428 0.068160 0.040866 196 196 198
-0.094003 -0.238056 -0.056968 5 5 126
-0.019721 -0.362601 -0.109655 6 7 8
-0.134422 0.171955 -0.022888 0 8 54
0.170845 0.108191 -0.032335 255 255 255
0.188644 0.423109 0.000286 216 213 213
0.181985 0.311387 0.032419 168 166 167
0.051719 0.392306 0.071041 5 8 7
-0.086571 -0.260794 0.109405 210 213 210
0.203296 0.271604 0.009536 0 0 53
-0.092215 -0.286393 0.126102 207 209 208
-0.076570 -0.247400 0.136443 213 213 214
-0.023916 0.325700 0.134749 7 6 7
-0.037534 -0.309227 0.025777 0 14 128
0.137902 0.050277 -0.030585 255 255 255
0.049078 -0.383695 -0.083545 1 8 131
0.031097 0.378297 0.088090 162 159 163
0.003897 0.346174 -0.023793 0 7 18
0.138057 0.413559 0.052975 5 7 9
0.189974 0.305196 0.007746 0 0 52
0.003752 0.353277 0.121902 160 159 160
-0.083104 0.246012 0.043600 0 8 47
-0.147334 0.135459 0.115407 177 178 178
-0.105159 0.211371 -0.019634 0 9 40
-0.051068 0.299177 0.113358 7 7 6
-0.147914 -0.148157 -0.097567 7 9 7
-0.149572 -0.021905 0.005309 221 218 221
0.167065 0.433830 0.007713 175 176 176
-0.150523 -0.040681 0.013657 220 219 221
-0.032855 -0.298739 0.093724 0 21 127
0.177426 -0.101751 -0.036836 254 254 255
0.152208 0.428009 -0.026140 85 87 89
0.136712 0.077427 0.007322 0 2 51
0.159183 0.352197 0.056100 185 184 184
0.177665 0.253824 -0.015384 255 253 255
-0.099475 -0.200908 0.130472 225 223 224
-0.111896 -0.191310 0.042168 1 7 127
0.176517 0.240227 -0.012238 0 0 52
-0.149710 -0.040027 -0.017395 8 5 9
-0.046092 0.310656 -0.139268 7 7 7
0.091355 -0.407833 0.095672 8 8 8
0.092417 0.419987 0.022752 7 8 6
0.163113 -0.438776 -0.005779 255 255 255
0.108678 0.425121 0.024773 171 172 171
0.077828 0.411695 -0.029573 5 7 8
0.134398 -0.073965 -0.071888 0 1 53
0.132615 0.148643 -0.093072 0 0 50
-0.158275 0.112608 -0.058487 6 8 7
-0.127529 -0.034960 0.082232 6 8 7
-0.113843 -0.214933 -0.075443 2 3 125
-0.138425 -0.070184 -0.008188 232 229 231
0.196695 0.233985 -0.009366 0 0 54
0.131870 0.411935 0.089198 171 174 174
0.166892 0.212935 -0.026600 255 255 254
-0.037357 -0.305045 0.031339 0 18 118
0.121978 0.093077 -0.037760 0 0 51
0.054213 0.382621 -0.087361 164 164 164
-0.058491 -0.285375 0.073657 0 13 132
0.166020 0.143626 -0.008869 0 0 54
0.178709 0.452673 0.036770 181 182 181
-0.134804 -0.148422 0.011958 2 1 122
0.175097 0.319322 0.042533 168 169 168
-0.008163 -0.322275 0.113105 202 202 203
0.190000 -0.349878 -0.027600 255 254 255
-0.146109 0.102878 0.019860 0 6 80
0.043985 -0.376384 0.074540 0 28 128
-0.160176 -0.078335 0.021121 231 231 231
0.070672 0.373217 0.093858 5 6 6
-0.148645 0.103207 0.019894 0 8 78
0.164387 -0.084291 -0.008373 0 1 55
0.189108 -0.236470 -0.041209 143 143 145
-0.107505 0.289528 -0.141085 152 154 151
-0.148682 -0.057468 -0.025303 225 227 224
-0.103704 0.217582 -0.012828 0 8 43
0.073012 -0.202877 -0.018068 255 254 255
0.023576 -0.364711 -0.005998 0 17 133
0.208492 -0.434448 0.055336 178 176 176
-0.143215 -0.204925 -0.130385 7 6 6
0.178218 0.282182 0.022695 161 162 159
0.179569 -0.258379 -0.050988 255 255 255
0.102939 0.400509 0.025052 3 8 9
0.118885 0.124579 -0.089044 255 255 255
0.121227 -0.049431 -0.015292 0 2 53
0.196397 -0.138713 -0.030515 1 0 55
0.182466 -0.427239 0.029524 7 7 7
0.164904 -0.282868 -0.060644 253 255 254
-0.158602 0.037247 0.053307 6 8 6
-0.094790 -0.241532 -0.058944 3 3 130
-0.098628 -0.244261 -0.018081 3 3 129
-0.134216 -0.164422 -0.011252 3 4 121
0.155612 0.064384 -0.003840 0 1 53
0.060741 0.381860 0.074567 0 10 25
0.158564 -0.159194 -0.051153 255 254 255
0.079938 -0.093719 -0.009391 255 255 255
0.128498 -0.442349 -0.019727 175 174 178
0.149642 0.150332 -0.003258 0 0 53
0.181524 -0.356553 -0.048939 255 255 255
0.192686 0.376112 0.056142 255 254 255
-0.118157 -0.175939 0.101467 2 4 128
0.176509 0.444985 0.013765 5 8 6
-0.064090 0.286874 -0.087616 0 6 15
0.192354 0.371831 -0.024287 255 255 255
-0.052562 0.278619 0.116270 6 7 8
0.179074 0.381432 -0.014533 197 195 192
0.166717 -0.450263 -0.023349 255 253 255
0.175559 -0.382870 0.036842 255 255 255
0.086359 -0.419928 0.067176 182 182 181
0.157324 -0.158586 -0.071894 255 255 255
-0.142075 -0.132128 0.020991 3 0 122
-0.044129 0.301992 -0.134555 4 5 11
-0.152917 0.082547 0.034913 3 5 90
-0.164034 -0.058839 0.110690 227 227 225
0.199614 0.267391 -0.034246 0 1 56
0.183336 -0.333060 -0.051507 174 175 176
-0.140351 0.083239 0.081309 7 7 7
0.198059 0.392375 -0.000445 199 196 197
-0.043580 -0.310905 -0.013776 2 10 132
0.167460 -0.021131 -0.089915 0 0 52
0.143718 0.047590 -0.001613 255 255 254
-0.102349 -0.185346 0.122638 227 226 228
-0.110831 -0.210173 -0.126434 7 9 8
0.105584 0.406624 -0.045062 6 8 9
0.176247 0.409909 0.051166 254 254 255
-0.142218 -0.061343 0.061542 230 230 230
0.191215 0.361873 0.021286 191 187 185
0.047335 -0.403555 0.066394 9 7 8
0.107109 -0.058203 -0.038039 10 11 14
-0.023284 0.312496 0.050333 0 9 39
0.105027 0.419050 -0.026631 6 8 6
-0.097522 0.197529 0.131297 8 8 6
0.167038 -0.123708 -0.085277 0 0 53
0.001575 -0.358903 -0.094282 4 5 132
0.090628 -0.175416 -0.028218 0 1 49
0.004245 0.376297 -0.121861 164 163 163
-0.094041 0.237583 0.121513 152 152 152
-0.024078 -0.325503 -0.004730 2 14 130
-0.127080 -0.016136 0.011887 219 220 220
-0.133932 -0.187186 -0.088276 2 2 121
0.155366 0.451210 0.060696 6 6 7
0.173672 0.394213 0.042158 255 255 255
-0.073717 0.246594 0.077816 0 10 49
0.183724 -0.423975 0.034070 255 254 255
-0.081646 -0.243890 0.091725 0 13 127
0.139078 0.416942 0.024464 8 8 6
0.099231 0.411932 0.024886 173 172 171
0.084221 -0.422002 -0.021334 179 178 180
0.190141 0.319210 -0.009979 166 165 165
0.171533 0.157594 0.005283 255 255 255
0.115543 -0.180578 -0.024747 0 2 54
0.092722 -0.418312 0.010022 8 6 7
-0.117744 -0.200306 0.056290 0 6 126
0.193870 -0.391168 0.054082 215 214 215
-0.058098 -0.318043 0.109147 7 7 7
0.190492 0.200251 0.002833 254 255 254
0.147879 0.221083 -0.068623 254 255 254
0.082882 -0.125126 -0.056159 0 0 52
0.042582 0.390897 -0.061583 170 169 172
-0.090374 -0.235049 -0.013868 4 6 129
-0.147680 -0.025671 0.000814 220 218 219
0.093732 -0.034982 -0.023028 255 253 255
0.172772 -0.417549 0.013570 225 225 225
0.174570 -0.040564 -0.048931 255 255 255
-0.133164 0.149425 0.108126 113 113 113
-0.085296 0.243281 0.049750 0 8 53
0.093257 0.396376 0.043211 0 3 7
0.074377 0.405826 -0.054771 171 171 172
0.086098 0.393120 -0.004574 0 6 11
0.029846 -0.384294 0.079791 189 189 190
-0.050989 -0.332260 -0.114753 199 199 198
-0.001796 -0.363556 -0.100498 5 7 6
0.184151 -0.293624 -0.041038 169 167 170
-0.038932 0.292904 0.069504 1 8 45
0.186426 -0.278456 -0.046682 156 157 158
0.191230 -0.265784 -0.051406 145 143 145
-0.034082 -0.320281 -0.110019 2 2 131
-0.017406 0.321677 0.058848 2 10 33
-0.144923 0.144789 -0.068137 0 8 48
-0.111068 -0.225653 0.139185 217 217 216
-0.085709 0.252894 -0.044026 0 5 27
0.167215 0.213460 0.000915 255 255 255
-0.142443 -0.095321 -0.035020 7 9 8
-0.147765 -0.175792 -0.125732 5 7 6
0.181189 0.232883 -0.001176 255 254 255
0.165651 -0.299235 -0.000818 105 106 103
0.177325 -0.426601 -0.029287 255 254 254
0.188306 0.215008 0.029598 255 253 254
0.169323 -0.061451 -0.046842 0 2 50
-0.017406 0.320478 0.072448 0 11 38
-0.083916 0.237955 0.087073 0 9 59
0.180616 -0.203261 -0.073670 0 0 54
-0.006452 0.334221 0.103487 6 7 6
-0.020773 0.309785 0.085648 0 11 36
0.079802 0.384491 0.085636 1 10 20
-0.126690 0.090650 0.105039 190 191 191
-0.076899 0.285211 -0.124089 0 2 7
0.201342 0.262922 0.018483 255 255 255
0.129891 0.438528 -0.015462 177 176 177
0.127799 0.007188 -0.052201 255 254 255
0.011770 -0.363381 -0.115629 193 193 192
0.165852 0.050136 -0.054040 0 0 54
0.153870 -0.135627 -0.004734 255 251 255
-0.156171 0.087273 0.092280 6 9 8
-0.090776 -0.260494 -0.041511 2 4 127
0.155499 -0.120897 0.002483 252 252 253
0.131781 -0.450249 0.017902 5 6 6
-0.110191 0.100493 0.106913 5 7 8
-0.054381 0.317997 -0.123999 1 2 4
0.178868 0.257284 -0.026190 144 146 145
0.194698 0.381907 0.021875 255 254 255
0.186756 -0.362511 -0.001167 255 255 255
-0.051747 -0.299560 0.022626 1 9 129
0.014951 -0.387897 -0.090927 6 7 6
-0.074966 0.291250 -0.146465 151 152 153
-0.156027 -0.137809 0.117443 238 237 237
-0.141299 -0.106689 0.102387 6 8 7
-0.127935 0.077680 0.019214 196 193 196
-0.110754 -0.250765 -0.143622 213 212 213
0.080289 0.390635 0.028039 3 4 11
-0.128447 0.191695 -0.067398 0 4 24
-0.152099 0.083140 0.006851 8 9 8
-0.093386 0.206373 0.114891 159 158 159
0.047010 0.367860 0.043477 0 7 18
-0.143774 -0.149961 -0.081212 7 8 8
0.114654 -0.416413 -0.007086 0 25 130
-0.132029 -0.002448 0.058400 7 7 6
-0.051392 -0.331956 -0.139444 200 200 199
0.166354 -0.293205 -0.044695 163 163 164
-0.064478 0.239093 0.127927 7 8 6
-0.164413 -0.005065 0.067723 215 213 214
0.148922 -0.278621 -0.018660 255 255 255
-0.144919 0.075555 0.099909 194 193 195
-0.140843 0.164108 -0.109830 5 7 17
0.147659 -0.457404 0.032216 7 9 8
-0.160001 0.031430 0.037289 250 249 248
-0.144386 -0.138170 -0.099645 238 236 237
0.195383 0.337750 -0.046060 174 173 172
0.121084 0.080826 -0.060281 2 2 46
0.016351 -0.392983 -0.084931 5 6 6
-0.015115 0.320222 0.063132 0 9 38
-0.164391 -0.078459 -0.016195 235 233 232
0.130012 -0.408992 0.068426 5 6 8
0.074123 0.408538 -0.021051 5 7 6
0.163587 -0.459201 -0.008125 255 253 255
-0.153427 -0.123962 -0.036767 1 2 118
-0.073359 -0.279935 -0.035576 4 6 129
0.127259 0.399963 0.062265 8 8 6
0.059162 0.385441 -0.083259 167 168 169
-0.043086 0.305184 0.136376 152 151 153
-0.039676 -0.317135 0.133849 7 6 6
0.075933 -0.155550 -0.017185 0 0 47
0.105225 0.433818 -0.019285 5 5 8
0.170753 0.218395 -0.052094 0 0 52
0.125367 -0.103003 -0.013202 255 255 255
0.154438 0.066361 0.012794 255 255 254
-0.139960 -0.136389 -0.096679 6 8 7
-0.139386 -0.153995 -0.042947 2 2 122
-0.128529 0.094673 0.009933 188 189 187
0.138787 0.040428 -0.033785 254 254 253
0.180141 0.048763 -0.031464 254 255 255
0.145447 -0.447159 0.066648 6 8 8
0.022423 0.357958 0.089288 8 7 8
0.058391 0.376976 -0.017009 0 7 14
-0.128256 0.219232 -0.137304 155 156 158
0.179082 -0.190997 -0.040358 255 254 255
-0.008195 -0.337162 0.012380 3 17 132
0.078250 -0.398081 -0.007353 1 20 130
0.011862 -0.344892 0.085855 1 26 130
0.077779 -0.412566 -0.032847 183 180 183
0.140258 -0.148105 -0.088256 0 0 57
0.170052 0.109593 0.023895 253 253 254
0.034222 0.374750 0.118034 162 163 163
-0.154353 0.094551 -0.022509 5 7 6
-0.166076 -0.065643 -0.034746 8 6 7
0.148800 -0.411102 0.017904 225 225 226
-0.125184 0.209608 -0.138510 157 157 156
0.112700 -0.409563 0.080492 6 7 7
-0.129464 -0.184297 0.006438 2 4 126
0.174896 0.257643 -0.019782 151 151 153
-0.140581 0.074068 -0.043485 189 191 190
-0.099607 0.212492 -0.127551 6 5 7
-0.111932 0.247281 0.119618 5 9 8
-0.021098 -0.345791 -0.120190 196 196 197
-0.153151 0.118493 -0.011774 0 10 65
-0.142171 -0.112283 0.076032 4 0 127
-0.033135 -0.352387 -0.128951 194 194 195
0.087739 0.415528 -0.017993 172 171 173
0.156666 -0.431625 -0.005021 255 254 255
0.213949 -0.255129 -0.011117 125 122 128
-0.109413 -0.207797 0.116575 0 8 127
0.176776 0.411241 0.023462 222 222 221
0.026120 0.381607 -0.118492 163 162 163
-0.123662 -0.229176 0.119241 8 9 8
0.187600 -0.001054 -0.075978 255 255 254
-0.098876 -0.232673 -0.028277 4 7 125
-0.153042 -0.095006 0.109445 7 6 5
0.175613 0.266475 -0.002918 255 255 255
-0.105459 -0.275077 -0.131530 6 6 7
-0.135372 0.108439 -0.037097 7 5 8
0.166432 -0.347203 0.047225 255 254 255
-0.061021 0.292098 0.116498 6 7 6
0.175693 0.353321 -0.023793 182 184 184
0.164858 0.439362 -0.032803 176 174 174
0.191248 -0.393641 0.027333 203 203 205
0.083056 0.381162 0.032331 166 169 169
-0.151075 -0.026829 0.014375 219 218 216
0.095222 -0.032365 -0.029047 255 255 255
0.150007 0.000959 -0.050777 254 254 255
0.145078 0.105942 -0.067246 0 0 52
0.186071 0.259270 0.028280 0 0 51
0.056777 -0.391141 -0.040404 2 15 131
0.205147 0.299228 0.001957 152 152 153
0.171380 -0.104943 -0.063613 255 255 255
-0.128748 -0.190014 -0.040321 5 3 124
0.139346 0.434947 0.059911 7 7 8
-0.086405 0.239161 0.059433 0 7 53
-0.085070 -0.232494 0.097464 1 12 128
0.154339 -0.055501 -0.037901 0 0 52
0.070352 -0.179936 -0.064563 8 9 8
0.139028 -0.044235 -0.032142 0 1 54
-0.121193 -0.016849 -0.003635 227 226 226
-0.134493 -0.111035 0.099630 236 233 234
0.194787 0.277307 0.026519 0 0 51
0.162448 -0.018104 -0.014610 253 252 252
-0.068596 0.254165 0.012561 0 3 33
0.071656 0.403165 -0.031527 173 172 173
0.100370 0.412713 0.029948 170 169 169
-0.160325 0.075088 0.078368 7 6 6
-0.156154 0.130698 -0.054320 177 178 179
-0.107883 -0.226785 -0.114015 5 3 124
-0.076445 -0.254995 0.100735 1 11 130
0.094264 -0.414595 -0.024071 7 6 8
-0.150662 0.049288 0.106317 201 201 202
-0.066948 0.267557 -0.006724 0 6 33
0.135258 -0.206696 -0.028361 1 0 54
0.181466 0.216707 0.024700 0 0 51
-0.141650 -0.202596 -0.114803 225 222 224
0.165430 -0.374402 0.003391 200 200 201
0.111633 0.428331 0.010550 6 8 8
0.108536 0.398091 0.055240 3 4 12
0.167020 -0.038127 -0.019606 0 0 51
-0.142885 -0.018766 0.056817 5 6 8
-0.057260 0.275669 0.048018 0 7 41
0.131376 0.103333 -0.051097 255 255 255
0.172921 0.438656 0.054465 239 236 237
0.063082 0.391340 0.068064 169 170 169
0.121131 -0.113705 0.003329 254 255 255
0.162207 0.423595 0.075835 171 172 173
-0.010099 0.332571 -0.026801 0 6 21
0.060416 -0.395213 0.010488 1 20 132
-0.112560 -0.233409 -0.115468 5 5 8
0.194203 0.256530 -0.040334 255 255 255
0.183963 -0.178369 -0.047985 219 217 217
0.065937 -0.219070 -0.057363 255 252 254
0.174801 -0.320304 -0.041177 175 174 175
-0.059679 0.289934 -0.064074 0 5 20
-0.123780 0.083758 -0.007748 7 8 6
-0.099805 0.188511 0.118588 163 163 164
0.098892 -0.396056 0.099958 185 184 187
-0.062794 0.260780 0.031347 0 9 39
0.170423 -0.399434 0.003187 215 215 216
-0.149272 -0.136178 -0.046586 4 4 118
-0.129730 0.210662 0.101810 1 8 23
0.090145 0.423427 -0.053447 6 7 7
0.020871 -0.353438 0.017792 1 18 131
0.166742 0.022728 -0.066221 255 255 255
0.193258 0.388572 0.021892 254 253 255
0.143581 0.094575 -0.026993 0 0 55
0.187412 0.381950 -0.007125 191 191 189
-0.020767 -0.322733 -0.063288 0 6 131
-0.074303 0.270362 -0.097649 0 3 13
-0.113136 0.267622 -0.145502 8 10 8
0.189318 0.393830 -0.022300 203 204 201
0.168237 -0.095672 -0.085673 6 7 7
-0.100391 0.243651 -0.084301 2 7 22
0.064089 -0.385576 -0.024477 1 18 130
0.187867 -0.214971 -0.002474 2 1 53
0.167647 0.440060 0.028160 235 235 232
0.187551 0.404012 0.008181 210 208 209
0.118193 -0.431356 0.008999 177 179 182
0.090097 0.016572 -0.050523 238 238 239
-0.134292 -0.039801 0.078510 7 5 6
-0.128847 0.239848 -0.133356 7 7 7
0.190191 0.128080 -0.062190 1 0 53
0.141960 0.021933 -0.044085 254 253 253
0.185970 -0.251500 -0.022834 255 255 255
0.187347 0.343631 -0.040049 179 178 178
0.110560 -0.076032 -0.050279 0 0 54
-0.091816 -0.255725 -0.033684 4 7 127
0.174379 -0.288274 0.005338 255 255 255
-0.014390 0.318564 0.041289 0 10 32
0.130829 0.115343 -0.096257 0 0 54
-0.154755 -0.038326 0.066832 221 222 222
0.108140 0.385744 0.083100 104 108 109
-0.120210 -0.202788 -0.089199 2 1 122
-0.130947 -0.171131 0.018555 2 4 122
0.170533 -0.297632 0.033515 254 255 255
0.174603 0.464816 -0.005041 231 234 233
-0.113546 -0.192038 0.114679 9 9 9
0.088022 0.383927 0.090552 164 164 165
-0.066374 0.283101 -0.078812 4 10 16
-0.043941 0.309126 -0.051563 0 5 19
0.000852 0.349832 -0.099758 0 5 8
0.144712 0.433406 0.056898 177 178 176
0.169459 -0.433234 0.008085 184 184 184
0.175568 0.475682 0.013906 1 3 52
0.200730 0.440323 0.028727 6 7 8
-0.133702 -0.154623 0.080685 1 4 127
0.106739 -0.046726 -0.026432 254 254 254
-0.045768 0.302552 -0.144722 154 153 153
0.096645 -0.180609 -0.037218 0 0 52
0.026039 0.363046 -0.106341 161 163 161
-0.096972 0.206346 0.128676 159 158 160
-0.092871 -0.265482 -0.120488 207 205 208
0.054690 0.376729 0.069414 0 11 24
0.119852 0.428860 0.072268 176 176 176
0.196730 -0.369751 -0.011785 196 196 198
-0.131363 -0.165035 -0.102219 8 9 7
-0.095337 0.235988 0.108704 154 155 154
0.001654 -0.375045 -0.121454 190 190 191
0.173211 0.401545 0.063147 255 254 255
-0.115101 0.213763 0.120944 5 6 5
0.106453 0.413685 0.052485 174 170 172
0.130545 0.042019 -0.032443 0 1 53
0.193014 -0.404894 0.001125 220 221 222
-0.094592 0.251322 -0.105700 3 6 9
-0.151237 0.162834 -0.082888 171 170 171
0.196755 0.329562 -0.000560 170 171 172
0.143041 0.125353 -0.070840 6 8 6
-0.115148 0.208530 -0.071342 2 10 32
0.163724 0.353314 0.068629 182 182 183
-0.087504 -0.246931 -0.056445 2 4 126
0.005032 0.343358 -0.075277 0 4 13
0.178773 -0.158575 -0.076422 5 7 8
-0.151287 -0.076909 0.088215 9 7 9
0.170043 0.187148 -0.036404 255 255 255
0.007846 0.342903 0.060446 0 6 33
0.003684 -0.357831 -0.008138 0 14 131
0.032824 0.376795 0.103591 5 8 8
-0.142240 -0.094677 -0.027054 6 6 8
-0.152741 0.059403 0.069187 8 7 7
0.067063 0.382596 0.079879 164 166 166
-0.158557 -0.139376 -0.106507 242 242 239
-0.162541 -0.128583 -0.073247 233 229 231
0.090803 -0.425973 -0.006326 6 7 6
-0.039280 -0.317324 -0.038096 0 10 129
0.166339 -0.132020 -0.029739 0 0 55
0.099072 -0.399584 0.056937 186 185 187
-0.129931 -0.178732 0.015078 4 3 121
-0.084098 -0.212585 0.117798 10 6 9
0.149386 0.150308 0.021234 255 255 255
-0.119780 -0.198220 -0.136495 6 7 7
0.184570 -0.431904 0.002764 230 231 232
-0.006171 -0.335281 -0.050311 1 10 130
0.177889 -0.347337 0.021443 255 255 255
0.127294 0.406460 0.050450 170 170 170
0.014257 0.350269 0.100380 0 10 35
0.139221 0.111426 -0.085615 255 255 254
-0.149819 0.117158 0.090529 181 185 183
0.039305 -0.370474 0.047262 3 22 128
0.183676 -0.341263 0.018301 255 253 254
-0.125937 0.132178 0.106457 6 8 7
0.127444 0.151442 -0.085552 0 0 56
-0.153150 0.096044 0.008631 5 8 5
0.096522 0.414866 0.027986 7 9 8
0.013946 -0.385273 -0.099838 188 187 188
0.173134 0.379375 0.058714 197 197 193
0.140601 -0.070404 -0.011883 255 255 255
0.213813 0.446586 0.021107 6 6 7
0.166313 0.059132 -0.008234 253 253 253
-0.129528 0.180413 -0.096979 162 164 165
-0.141559 -0.034287 0.107853 223 218 223
-0.135674 0.148201 -0.063451 171 173 173
-0.160387 0.084194 0.009466 190 190 192
0.185400 -0.427719 0.021117 226 226 228
-0.140368 0.173172 0.109487 165 167 166
-0.079701 0.305389 -0.129087 156 156 154
0.185608 -0.182892 0.013707 0 0 54
-0.141469 -0.115414 0.011364 1 2 119
0.197509 0.246348 0.034681 0 1 50
-0.083148 0.223657 0.113605 7 7 7
0.170675 -0.023971 -0.037709 255 255 254
0.184823 -0.406473 0.004364 209 208 208
-0.127802 0.102943 0.111137 7 6 7
-0.094295 0.221937 0.134172 6 7 6
0.174159 0.313017 0.029804 255 255 255
0.196359 -0.230521 -0.058726 219 216 215
0.168434 0.209956 0.013623 255 255 254
0.156026 0.453250 0.025006 1 4 51
-0.017161 -0.343903 0.118490 197 198 198
-0.123699 -0.175369 0.004051 2 3 122
-0.105472 -0.219142 0.055735 0 4 128
0.160931 -0.454392 0.000920 157 158 158
0.152418 0.017699 -0.077202 253 253 252
0.186858 -0.268601 -0.058667 255 254 255
0.171281 -0.259692 0.015976 255 255 255
0.185918 -0.437006 -0.024751 228 226 228
0.132612 0.105818 -0.087879 0 0 54
0.144942 0.075489 -0.035424 0 0 50
0.030383 -0.392320 0.110455 8 8 9
-0.063847 0.277804 0.000855 0 7 31
-0.006132 -0.338989 -0.063996 2 7 133
0.166088 -0.403894 0.009360 221 222 223
-0.048819 -0.302616 -0.032617 3 8 129
0.100802 -0.424324 -0.006968 6 7 8
-0.114797 0.246528 -0.121502 6 7 5
-0.124805 0.224729 -0.120231 7 7 7
0.135224 0.176775 -0.080688 0 3 47
0.169316 0.182386 0.024988 255 255 255
0.178365 0.417525 -0.005918 254 253 253
0.111457 -0.417977 0.050072 0 34 126
0.178630 -0.363916 0.041422 121 123 123
0.180650 -0.442359 -0.017940 255 254 255
0.154988 0.421611 0.084164 7 8 6
-0.160456 0.083872 -0.011649 6 6 6
0.139574 -0.107797 -0.065691 254 253 255
0.200551 0.342782 -0.012345 255 254 254
0.098622 -0.390271 0.062182 187 187 187
0.174744 -0.092699 -0.022715 255 255 255
-0.011821 0.312496 0.127933 8 7 8
0.187319 0.256470 -0.051017 255 255 255
-0.035782 -0.359859 -0.114037 194 193 193
0.019921 -0.374086 -0.105515 4 6 5
0.201273 0.222524 0.027628 253 253 253
0.174472 -0.431883 0.044692 177 176 177
0.158662 0.012858 -0.097549 1 2 52
0.200728 0.262986 0.031248 0 1 50
0.020077 -0.367068 -0.064975 4 11 131
0.086680 0.411602 -0.047917 172 174 173
-0.117139 -0.211791 -0.091602 5 1 126
-0.091368 0.252194 -0.096497 1 5 15
-0.150705 -0.089010 -0.009636 3 1 119
0.147720 0.432227 -0.018734 9 10 9
-0.131577 0.129059 0.103154 5 8 5
-0.145704 -0.113403 0.001652 2 0 118
0.178693 -0.308141 -0.041029 167 169 169
-0.077943 0.251420 0.085440 0 9 54
0.188803 -0.280571 0.003755 255 255 255
-0.038179 -0.316678 -0.095623 2 3 130
-0.107339 0.220467 -0.017476 0 7 41
0.198245 0.457130 0.050068 255 254 255
-0.152714 0.068794 0.065150 198 196 199
-0.093099 -0.262321 0.114537 5 9 6
0.172945 -0.179702 0.013730 255 255 255
0.148011 0.201654 -0.063446 0 0 52
-0.118028 0.197580 -0.006554 0 9 47
-0.119634 -0.195425 0.098034 2 7 129
-0.036204 -0.312420 0.067749 0 19 133
0.169524 -0.000742 -0.083833 0 0 55
0.106888 0.401587 0.025842 2 5 9
-0.115769 -0.265813 -0.146327 212 209 211
0.181265 -0.162052 0.003896 255 253 254
0.184228 -0.228360 0.004723 254 254 255
0.057709 -0.406858 0.080031 182 183 183
0.191256 -0.228420 -0.040125 149 149 152
0.178222 -0.408906 -0.042495 214 214 215
0.089657 -0.154397 -0.005422 255 255 255
0.164466 -0.406121 -0.019543 224 224 222
-0.163009 -0.040266 0.046322 220 218 219
0.150157 0.031191 -0.035162 254 252 253
0.010669 -0.353645 0.007214 0 16 131
0.189604 -0.155528 -0.057240 255 254 255
-0.135228 0.129769 0.099590 178 178 179
0.009618 -0.352475 -0.018857 1 13 130
0.091507 -0.067769 -0.032777 253 253 254
0.100466 -0.400002 0.090179 5 8 8
0.081306 -0.106915 -0.045919 8 10 9
0.183911 -0.132804 -0.044264 0 0 55
-0.028645 0.319186 -0.140248 157 156 155
0.167763 -0.061830 -0.092775 0 1 53
0.160159 0.413650 0.038893 174 177 176
-0.133827 -0.192401 -0.126813 229 227 228
0.129724 -0.413647 0.090501 181 182 183
-0.128060 -0.212865 -0.134913 224 222 223
-0.104476 -0.219016 0.103277 2 9 130
-0.057055 -0.275259 -0.118195 210 209 211
-0.131531 0.156728 0.117341 173 174 175
0.182190 -0.352897 0.024907 255 255 255
-0.143161 0.092538 0.023011 187 186 188
0.188494 0.339515 -0.006950 113 114 118
0.129350 -0.410465 0.077629 6 8 9
0.168551 -0.233982 -0.016914 254 253 254
-0.043728 0.341864 -0.130668 157 160 159
-0.160094 0.089668 -0.040346 186 186 186
-0.160332 0.127930 -0.032234 177 176 178
-0.055656 0.295755 -0.111135 0 3 9
-0.103928 0.232854 -0.047213 0 7 32
0.188440 -0.232692 -0.012475 202 203 203
0.160193 0.159589 -0.015659 255 255 255
0.190908 -0.243823 0.003552 155 156 157
0.154640 -0.281997 -0.059950 255 254 255
0.173552 0.099659 -0.001301 255 255 255
-0.064676 0.274118 0.002014 0 5 34
0.197799 0.358049 0.041449 190 191 191
0.177700 0.479785 0.009743 0 0 51
0.144195 -0.065101 -0.024412 7 5 6
0.163880 0.458722 -0.000668 186 187 186
0.003582 -0.358737 -0.066030 3 6 130
0.189049 -0.243966 -0.054131 161 162 164
0.006109 0.364242 -0.118722 6 8 6
0.158443 -0.025854 -0.069600 1 1 54
-0.132182 0.154190 0.041969 0 9 72
-0.152003 -0.108433 -0.040119 5 7 7
-0.099443 -0.272693 -0.127337 5 5 5
0.113447 0.061945 0.000059 0 1 55
-0.090926 0.235543 -0.084541 0 10 23
0.179251 -0.253406 0.011800 151 151 154
0.156549 -0.182199 -0.002380 3 3 47
-0.146104 -0.132706 -0.000919 4 2 121
-0.125590 0.033739 0.090201 203 207 203
-0.131310 -0.053444 0.069816 225 224 225
0.197016 -0.287212 -0.040392 254 254 255
-0.126301 -0.114279 0.108582 8 7 7
0.184735 -0.072808 -0.076865 0 0 53
-0.067044 0.271712 0.057054 0 8 47
0.171493 0.259567 0.010369 255 253 255
-0.153259 -0.103477 -0.048260 4 3 113
-0.165071 -0.059935 0.056126 230 229 229
0.159762 0.438507 -0.022241 2 2 5
0.003967 0.337363 0.069238 2 9 30
0.087199 -0.413347 0.016354 7 7 8
0.223143 0.459413 0.027086 183 185 183
-0.121192 -0.249910 -0.139660 216 216 216
-0.144145 -0.158768 0.124401 7 7 7
-0.139491 0.089364 0.074320 188 187 190
0.183716 -0.423441 0.030499 227 226 226
0.193387 0.326606 0.023500 171 171 171
-0.133689 -0.182746 -0.113115 225 225 226
-0.146004 -0.205371 -0.116082 220 221 222
-0.124458 -0.202160 -0.120857 6 6 6
-0.053586 -0.288191 0.056188 1 16 128
0.163648 -0.193519 -0.034825 255 255 255
-0.117463 -0.187905 0.080723 2 5 128
-0.127654 -0.167888 0.109006 3 8 128
0.050405 0.385988 -0.084272 3 4 5
-0.163099 -0.056648 0.070993 7 8 7
-0.159847 -0.018606 0.055512 217 217 218
-0.165427 -0.035075 0.010606 5 7 7
0.183578 -0.270814 0.010562 163 164 166
-0.051557 -0.308493 -0.094013 4 2 131
0.131996 0.079872 0.014293 255 254 255
-0.140919 -0.046922 -0.024751 233 232 229
0.067073 -0.103143 -0.040116 0 0 52
0.088381 0.412498 -0.018008 7 7 8
0.144457 0.140140 -0.007210 0 1 52
0.052394 -0.396656 -0.063698 186 186 186
0.149688 0.106185 -0.010956 0 0 54
0.197538 -0.340363 -0.006692 255 254 255
0.183698 0.190386 -0.013115 0 2 52
-0.150953 0.139404 -0.034017 0 10 61
0.186185 0.393609 -0.000841 255 254 255
-0.127145 -0.182554 0.134200 225 222 225
-0.018086 0.323740 0.033037 0 6 33
0.145175 0.020649 -0.018369 0 0 52
0.139926 0.150454 -0.043108 255 255 255
0.175227 -0.101084 -0.078649 6 8 5
-0.097254 -0.294718 -0.143065 203 202 203
-0.096557 0.246668 -0.103414 0 4 15
0.191553 0.427026 0.041263 218 215 215
-0.137710 -0.139761 0.069216 2 4 123
-0.093273 0.216613 0.132558 5 7 5
-0.050058 -0.297564 0.076034 0 15 127
0.134675 0.420274 -0.035027 171 171 171
-0.140602 0.083426 0.020315 5 6 6
-0.155453 -0.002048 0.097039 6 7 6
0.160453 0.061456 -0.066629 1 2 52
0.064335 0.407654 -0.064611 170 169 170
0.185573 0.167923 -0.053871 254 252 253
0.084505 -0.426690 0.001405 5 6 6
-0.094691 -0.243978 -0.089951 6 3 128
0.165480 -0.242424 -0.026343 244 241 241
0.117854 -0.001606 0.005931 254 255 255
-0.036148 0.320613 0.034734 0 8 33
-0.147953 0.147726 -0.064234 174 175 176
-0.017900 0.347967 -0.130006 6 7 6
0.175521 -0.182323 0.008284 255 252 255
0.026619 0.356310 0.096723 1 7 28
-0.136456 -0.147297 0.130248 227 224 227
-0.029470 0.325925 0.101834 5 8 11
0.138581 0.072995 -0.064113 0 1 54
0.054540 0.375105 0.081072 6 8 8
0.195253 0.421913 0.055834 219 218 218
0.072295 -0.405362 0.094336 184 185 185
-0.108971 0.223970 -0.051320 0 7 34
-0.024515 0.325555 -0.076261 0 4 15
0.061401 0.362622 0.098579 160 160 160
0.158405 0.018322 -0.035851 0 0 52
-0.129232 0.006929 0.098840 214 212 214
-0.076162 -0.284769 0.120773 7 8 6
0.126918 0.091734 -0.085821 1 0 53
0.101517 -0.190960 -0.058064 255 255 255
-0.050564 -0.311066 0.121375 6 9 9
-0.044257 -0.297630 0.077911 2 17 130
0.172355 -0.330200 0.022040 185 185 186
0.109598 0.417990 -0.006315 173 173 173
-0.163015 -0.078258 -0.033257 233 231 232
0.160085 0.208682 -0.036056 1 0 53
-0.143160 -0.106870 0.096820 0 1 124
-0.136261 -0.023325 0.013720 6 6 6
0.068987 -0.421353 -0.010887 6 5 8
0.205886 0.235429 -0.046888 2 4 53
-0.064845 0.259435 0.105634 0 8 57
0.180047 0.207284 -0.050118 0 0 55
-0.126961 -0.193040 -0.107867 8 7 7
0.128341 -0.441135 0.085023 11 9 10
0.142189 0.009282 -0.049203 0 2 52
0.126941 0.211227 -0.110710 1 2 51
-0.067809 -0.263344 0.118991 210 209 210
-0.114624 0.228519 -0.139620 7 7 7
-0.132409 -0.067420 0.083213 225 224 223
0.106095 -0.418851 0.000553 6 6 6
-0.040150 0.307096 -0.016926 0 6 28
0.176116 0.272441 0.032065 255 255 255
0.017769 -0.373563 0.100710 193 192 192
-0.057273 -0.288185 -0.123492 7 7 6
0.047340 0.404643 -0.105187 10 11 9
-0.090392 0.239137 -0.007422 1 11 37
0.013771 0.368343 -0.119604 162 161 161
0.123297 0.400731 0.064794 9 9 9
0.207360 0.229746 -0.028512 255 255 255
0.055120 0.366664 0.002981 0 8 18
-0.139086 -0.167738 -0.111899 7 6 8
-0.039910 -0.340161 -0.113420 195 195 196
-0.076636 0.279534 0.128858 7 6 6
-0.128837 0.035814 0.024666 208 207 209
-0.136277 -0.054165 0.082496 8 9 9
0.066907 -0.403375 0.058488 6 8 10
0.013450 0.340119 0.046585 0 7 27
0.146995 -0.435206 0.079532 6 8 6
-0.090221 0.235775 0.011715 0 5 44
-0.125219 -0.156692 -0.095040 236 233 233
0.188983 0.376381 0.005445 195 195 196
0.038891 0.383339 0.093293 164 162 163
0.038956 -0.376942 -0.081368 186 186 186
-0.004227 0.326562 0.104522 153 154 155
0.171990 0.417980 0.014985 252 251 252
-0.124941 0.187445 -0.054106 4 14 41
0.125682 0.032632 -0.018713 254 255 255
-0.077082 0.263258 -0.010161 0 6 31
-0.139473 -0.013009 0.019269 8 7 7
-0.058191 -0.299187 -0.072969 4 4 131
0.186210 -0.288456 0.005227 0 4 57
0.048651 0.382962 -0.102466 166 166 165
0.184200 0.430845 -0.012736 217 215 215
-0.010528 0.365476 -0.111991 8 10 7
-0.129767 0.055699 0.020647 22 24 31
-0.123612 -0.177043 0.049349 0 2 127
0.187093 0.037370 -0.083941 175 174 171
0.083429 0.386927 0.036058 0 6 15
0.183902 -0.449042 0.055525 6 6 7
0.187119 -0.183906 -0.029836 251 250 251
-0.129148 -0.206376 0.117599 8 8 7
-0.128424 0.160181 0.033825 0 10 68
0.089079 0.411452 0.100835 169 170 170
0.079299 0.417691 0.034873 3 4 5
-0.161198 -0.081284 -0.055548 235 234 232
0.079255 -0.197397 -0.045781 0 2 54
0.183434 0.294330 0.034288 163 162 163
-0.138597 -0.174530 -0.097565 5 3 120
0.110639 0.405636 0.014214 2 4 8
-0.023304 0.314673 0.066668 0 10 36
0.167106 -0.016704 -0.077667 255 254 255
0.118745 0.413252 0.078189 6 8 6
0.170469 -0.281779 0.018301 164 167 166
-0.004105 0.356469 -0.130397 5 6 7
0.157105 0.447948 -0.026848 7 7 8
-0.030413 -0.323288 0.128489 5 7 5
0.188553 -0.009712 -0.062854 0 0 52
0.156698 -0.425602 0.056270 179 178 180
0.172914 0.270581 0.013887 255 255 255
0.119941 0.069091 -0.017513 0 0 56
0.119996 0.415106 0.094837 7 7 8
0.202571 0.296945 -0.059086 89 88 88
-0.092216 -0.244283 0.013857 0 8 127
-0.047312 -0.301268 0.026506 1 13 130
0.188582 -0.367285 0.024836 255 255 255
0.010739 -0.388640 -0.103036 186 188 188
-0.168640 -0.065716 -0.012717 7 6 8
0.079960 0.385854 -0.052194 0 2 3
-0.128687 0.145274 -0.082433 5 4 10
0.174492 -0.045113 -0.030398 253 254 255
0.188410 0.126168 -0.069811 255 255 255
0.176640 0.014021 -0.027448 0 0 50
-0.022686 -0.346609 -0.136832 8 5 8
-0.141866 -0.078867 -0.004622 239 236 233
0.179819 0.447838 -0.006264 6 7 8
0.117409 -0.408992 0.074793 7 7 7
-0.036279 0.306535 -0.075037 0 6 18
0.034426 -0.378653 -0.031186 0 12 130
-0.133750 -0.133478 0.082250 4 4 123
0.179017 -0.324731 -0.009866 254 255 254
-0.142756 0.065652 0.062147 198 196 198
-0.012921 0.331865 -0.106180 0 2 10
0.103688 -0.137060 -0.056601 255 254 255
0.105465 0.402173 0.087681 110 105 100
-0.009159 -0.360282 0.111983 197 197 196
0.193356 0.423356 0.066460 177 178 177
-0.050699 0.295434 0.020082 0 10 35
-0.110196 -0.277894 -0.143526 6 8 6
0.153161 0.058671 -0.071696 0 0 53
0.151055 0.426365 0.040479 9 9 8
0.186095 0.232112 -0.053531 255 254 255
0.156710 0.411189 0.048697 230 229 228
-0.035238 0.305062 -0.046745 0 4 19
0.061006 -0.387517 0.103536 7 6 8
0.031915 -0.359014 0.125040 5 5 5
0.180014 0.484489 -0.014908 247 244 244
-0.084569 -0.260268 0.058402 0 12 126
0.022040 0.365705 -0.105318 2 4 7
0.160551 -0.293015 -0.025050 253 253 253
0.136506 0.122640 -0.092887 254 254 253
-0.167853 0.030719 0.010355 200 199 200
-0.139284 0.167256 -0.064602 2 15 45
-0.094709 -0.243787 0.024488 1 6 128
0.001312 -0.357736 -0.115656 191 190 192
-0.113889 -0.204203 -0.115932 5 7 7
0.139705 0.218714 -0.078744 255 254 254
-0.153999 -0.084249 0.040780 3 0 122
0.152786 0.453996 -0.015998 232 233 231
-0.125914 -0.149911 -0.109627 244 240 240
-0.145623 0.116245 -0.024246 0 8 66
-0.003861 0.343687 -0.073669 1 5 15
-0.083774 -0.223619 0.119127 5 7 6
-0.113317 0.214466 0.132675 7 8 8
0.105173 -0.422899 0.007736 6 8 10
0.158492 -0.117004 -0.052015 0 0 53
0.171009 -0.409555 0.008485 221 221 221
-0.129283 -0.143227 0.071086 0 0 123
-0.143805 -0.083421 -0.018423 7 8 7
0.108211 -0.035354 -0.022032 0 0 58
0.171429 -0.009521 -0.101064 255 255 255
-0.057106 0.273612 0.092233 0 8 53
0.164381 -0.455267 0.069462 7 7 5
-0.091969 0.237847 -0.125774 6 6 7
-0.079969 0.262832 0.124932 6 8 7
-0.148478 -0.127070 0.122208 232 228 231
-0.135647 -0.188955 0.123356 6 7 5
0.114538 0.016962 -0.038358 254 255 255
-0.021757 0.342971 0.123606 158 157 158
0.096583 -0.420072 0.011539 180 182 183
-0.065226 0.268091 0.132446 153 153 153
-0.039203 -0.292803 0.056915 2 16 130
0.160441 0.122423 -0.007600 0 2 52
-0.008058 -0.360305 0.131686 192 192 192
0.178100 -0.431653 -0.038383 212 211 212
-0.041122 0.311682 0.110942 6 7 7
-0.060106 -0.263150 0.126398 212 211 212
0.021546 0.351484 -0.009078 0 5 17
-0.152442 0.096822 0.059075 7 9 9
0.035292 -0.400814 -0.097335 6 6 9
-0.116549 -0.257716 -0.128148 215 213 213
-0.126674 0.083442 0.085398 6 5 6
0.162812 -0.182345 -0.050349 0 0 53
0.121715 0.429017 0.072316 6 7 8
0.172977 -0.306027 0.020323 180 181 182
0.109974 -0.427183 0.088312 7 6 5
0.177245 -0.437852 -0.005549 255 255 255
-0.063912 0.270490 -0.018799 2 9 30
-0.101816 0.252486 -0.122658 1 4 8
-0.009855 0.350892 0.118666 160 160 161
0.192605 0.376387 -0.031599 255 255 255
-0.136393 0.160924 -0.030315 0 10 56
0.175138 -0.362429 -0.016136 254 252 254
0.089939 0.431187 0.068965 7 8 7
-0.064477 0.272490 0.029879 1 7 42
0.179489 -0.238829 -0.051752 253 254 255
0.098905 0.399760 -0.015778 170 171 171
0.171617 -0.462663 0.002354 255 254 254
-0.140715 -0.130573 0.122252 6 6 8
0.172969 0.183406 0.020176 0 0 51
0.206009 0.299120 0.004654 0 2 55
-0.135346 -0.143191 -0.020733 4 4 120
-0.075758 0.262774 0.074956 0 10 55
-0.161339 -0.064115 -0.025381 6 7 7
-0.114369 -0.185157 0.140894 6 6 7
-0.044077 -0.309172 -0.065295 4 6 129
0.129436 -0.438539 -0.023874 176 177 178
0.143357 0.194051 -0.060533 0 1 50
0.190616 0.280665 -0.042596 255 255 255
0.047969 -0.371437 -0.018773 5 15 126
0.185008 0.253249 -0.051591 254 255 255
-0.086747 0.268907 -0.144178 151 152 152
0.174477 -0.467980 0.021326 5 7 6
0.168039 -0.421284 0.058805 6 7 8
-0.151775 0.064111 0.049662 6 7 8
0.178446 0.097255 -0.072716 10 10 10
-0.021976 0.329642 0.108749 155 156 158
-0.023611 0.328912 -0.104091 2 5 10
0.158895 0.071440 -0.029851 252 252 252
0.140914 -0.038698 -0.000011 1 1 53
0.133074 0.031623 -0.004684 0 1 54
0.143156 -0.410194 0.072464 185 184 184
0.068471 -0.397668 -0.017458 3 18 131
-0.042400 0.304066 -0.053385 0 3 20
-0.094514 -0.216359 0.134641 217 215 217
0.175926 0.317014 -0.043551 166 167 168
0.128482 0.436736 0.031316 176 177 177
0.185332 0.424066 0.038255 3 5 7
0.193494 0.265341 0.033483 0 2 52
0.114810 0.397748 0.067548 170 169 171
-0.090887 0.241194 -0.010815 0 6 37
-0.063420 -0.289059 -0.120990 3 0 129
-0.066953 0.276438 -0.015573 0 7 29
-0.088520 0.249741 -0.001096 0 9 36
0.102702 0.406889 0.000444 3 5 9
0.170864 -0.092692 -0.002495 0 0 53
0.141279 -0.421958 0.044554 113 112 106
0.151850 0.108533 -0.050164 254 254 255
-0.029601 -0.320599 -0.076542 1 7 128
-0.153715 0.054809 0.071593 7 9 9
0.157576 -0.084001 -0.089206 0 0 57
-0.131911 -0.039434 0.061691 6 8 6
0.163781 -0.456352 0.045480 9 9 8
0.016506 -0.379667 -0.101940 187 187 189
0.176532 -0.418028 -0.027393 217 216 219
0.173613 -0.160361 -0.039622 0 0 52
-0.139051 0.137508 0.045978 0 6 76
0.174789 0.455344 0.004817 6 8 5
0.176571 0.231670 -0.021320 7 7 6
0.126852 0.209443 -0.120620 0 0 55
-0.123449 -0.207811 0.117367 6 9 8
-0.059050 -0.287020 0.037562 0 13 129
0.254333 0.462606 0.031847 7 9 9
0.130912 0.409721 -0.030722 169 170 171
-0.109022 -0.192171 -0.121707 227 226 226
-0.147817 -0.064011 0.059425 3 3 118
-0.144461 -0.097139 -0.008858 2 1 111
-0.155441 -0.045069 -0.006524 221 221 222
-0.153967 -0.135730 -0.101487 243 240 238
0.193983 -0.306838 -0.063597 255 253 255
0.106620 0.070710 -0.060322 255 255 255
-0.060209 0.304126 -0.149500 152 152 153
0.095385 -0.417760 0.077630 182 183 183
-0.149583 -0.101230 0.042773 1 0 121
0.183091 0.442747 0.034802 231 231 232
-0.133367 0.150243 -0.097403 5 6 6
-0.076886 0.261128 -0.138436 5 8 6
0.037387 0.364043 0.079259 4 7 7
-0.147508 -0.061160 0.061228 228 226 228
0.156641 -0.434813 0.061270 7 7 6
-0.112415 0.220925 -0.040241 1 8 35
-0.107027 0.226935 -0.062968 0 7 28
0.175689 0.113798 0.002814 0 1 51
-0.011851 -0.335341 -0.019024 3 12 131
0.181728 0.251890 -0.016751 153 155 155
0.076100 0.403129 -0.057391 170 171 172
0.177638 -0.097082 -0.027408 0 0 52
0.173770 0.027707 -0.030795 0 0 49
-0.104737 0.226523 -0.048527 0 6 32
0.149711 -0.441980 0.068275 178 177 180
-0.133881 0.179765 -0.086486 4 15 37
0.168273 0.217707 -0.013305 252 251 251
0.082996 -0.187513 -0.054022 0 0 58
0.170073 -0.121816 -0.019928 1 2 50
0.064979 0.383834 -0.012761 0 5 13
-0.075844 -0.254520 0.099315 0 13 130
0.147190 0.187618 -0.061634 255 253 254
-0.155145 0.011548 0.032405 212 209 213
-0.057814 -0.305411 -0.140514 7 5 8
0.176978 -0.116159 -0.009109 253 251 252
0.117984 0.080957 -0.007144 255 254 255
0.159009 0.437962 0.068189 178 180 177
0.119005 0.081980 -0.093919 0 0 54
0.051140 -0.218751 -0.071568 0 2 58
-0.128495 0.063413 0.052765 6 6 6
0.172688 0.395175 0.045159 212 212 211
0.166380 -0.275003 -0.062966 162 162 161
0.176496 0.253223 0.028640 154 155 155
-0.142943 0.052831 -0.001672 205 202 203
-0.124715 0.159259 0.105583 173 174 174
0.129843 -0.428656 -0.019857 7 7 9
0.070799 -0.386499 0.104368 5 6 6
-0.071281 0.278035 0.017056 0 8 38
0.150041 0.198351 -0.013547 255 255 255
-0.160568 0.000313 0.074116 7 7 8
0.151259 0.141239 -0.026265 0 0 56
-0.147137 -0.152129 -0.082172 5 6 6
0.193110 0.272264 0.020841 0 1 53
-0.136145 0.079160 -0.045344 190 193 192
-0.067253 -0.304361 -0.129089 206 204 205
0.190245 -0.355345 -0.008708 255 255 255
0.059172 0.394332 -0.066822 168 170 171
0.185218 -0.392348 -0.008586 253 253 253
-0.051034 -0.287842 -0.007902 4 7 129
-0.160429 0.075841 0.036715 6 8 6
0.192444 0.419543 0.030378 255 255 255
-0.035299 0.316788 -0.130026 7 7 7
0.078318 -0.412484 0.093403 181 181 184
0.135608 -0.413589 0.066939 183 184 186
0.176519 -0.356359 -0.019330 255 254 255
-0.124935 -0.227077 -0.128709 218 219 220
-0.149754 -0.091369 0.029786 1 3 120
0.138338 0.083279 -0.079147 255 255 255
0.099669 -0.401619 0.098633 6 5 6
-0.001121 -0.335331 0.075332 0 23 131
-0.158734 -0.140867 -0.060853 9 8 7
-0.026673 0.345469 -0.117350 158 157 158
-0.145175 0.058051 -0.016824 198 200 199
-0.135415 0.129864 -0.072450 181 181 183
-0.096698 -0.199230 0.130071 225 222 224
0.138641 0.207542 -0.064948 0 1 54
-0.041439 -0.335442 -0.111174 7 7 7
0.059741 -0.391242 -0.053676 0 10 131
-0.141013 0.199954 -0.128461 5 6 8
0.191304 -0.398682 0.009552 254 253 255
0.168904 0.205183 -0.022384 255 255 255
-0.144175 -0.108957 -0.041206 6 6 6
-0.101485 0.205042 0.104487 0 7 72
0.194386 -0.328153 -0.049737 140 139 141
-0.167149 0.099020 -0.009954 6 7 7
0.114002 -0.011023 -0.019869 0 0 52
-0.061329 -0.310015 -0.137465 7 6 8
0.108651 -0.091749 -0.035261 0 0 56
0.188848 -0.449428 -0.002773 236 234 234
0.176433 0.208108 0.019707 0 1 52
-0.097818 -0.240692 -0.125310 6 7 7
-0.070276 -0.265553 0.094746 0 16 125
-0.044699 -0.344435 -0.140443 5 5 7
-0.136926 -0.183694 -0.106180 7 7 6
-0.138168 0.113880 0.067766 0 2 88
0.188883 0.401593 -0.009314 255 254 254
0.147979 -0.080661 -0.030596 0 0 53
-0.016045 -0.327372 -0.129409 6 8 6
0.079814 -0.413108 0.070541 6 9 5
-0.024077 0.305795 0.132804 153 155 153
0.179248 -0.191917 -0.063569 255 255 255
0.175924 0.033106 -0.085411 255 255 254
-0.069665 0.256280 0.070114 0 8 50
0.154947 -0.061474 -0.081335 0 0 54
0.207391 0.430313 0.061217 175 174 174
0.032432 0.366058 0.054895 0 9 23
0.128014 0.031955 -0.027148 0 1 53
-0.124394 -0.240363 -0.141870 7 8 7
0.076104 -0.411742 -0.024134 6 6 6
0.144936 -0.250167 -0.068145 253 252 255
-0.067046 0.284592 0.124825 6 7 6
0.071155 -0.425002 -0.028134 6 7 8
0.154772 -0.147197 -0.019730 0 0 54
-0.134325 -0.045129 -0.012073 5 7 9
-0.114009 -0.215640 -0.111698 4 0 124
0.172470 -0.431656 0.011959 255 255 255
-0.159716 -0.011646 0.023649 8 10 9
-0.127621 -0.102121 0.101717 6 9 5
0.182306 -0.190844 0.005052 253 254 255
0.090226 -0.122972 -0.049247 255 254 255
0.175709 0.232954 -0.043185 255 255 255
-0.148122 0.100776 0.113320 6 6 7
0.167585 -0.047823 -0.012802 1 2 52
-0.130348 0.184416 -0.051853 0 9 45
-0.159178 0.032459 0.067293 208 207 208
0.065775 0.376330 -0.070530 105 109 110
-0.114174 0.208575 -0.051830 2 11 35
-0.144618 0.117959 0.009723 0 4 74
-0.034284 0.323290 -0.102820 1 2 14
0.147901 0.130084 -0.024430 255 255 255
-0.136207 0.106390 0.107369 6 8 8
-0.104006 0.238174 -0.120875 0 6 13
-0.112604 0.240232 -0.110395 154 154 153
0.187778 -0.405046 -0.006930 255 255 255
-0.141103 0.024962 0.017172 212 210 212
-0.166504 0.058536 0.009254 7 8 9
0.061547 -0.379989 -0.022445 2 17 130
0.170012 -0.417952 -0.003773 222 221 222
-0.159639 -0.120988 -0.068234 6 7 5
-0.094608 -0.226737 0.115749 0 6 126
0.121912 0.426606 -0.049846 172 173 172
-0.143317 0.074547 0.048140 7 8 7
0.026910 0.373826 0.105747 163 161 163
-0.136122 0.052810 0.023067 200 201 201
0.139697 -0.417464 0.061127 7 8 8
-0.128205 0.149562 -0.101343 169 169 170
0.164925 -0.009383 -0.097383 9 9 9
0.189729 -0.186907 -0.071744 0 0 53
-0.077127 0.257843 -0.066888 1 7 21
-0.067728 -0.288615 -0.035228 1 8 129
0.129145 0.098520 -0.057482 255 255 253
-0.124153 0.040604 0.074660 205 203 205
0.173911 -0.274820 0.001502 255 255 255
0.108221 0.415195 0.018560 172 172 172
-0.100246 -0.239233 -0.087230 5 3 124
-0.131357 0.129997 -0.055334 6 5 5
-0.072766 0.278863 0.104927 4 7 5
0.176015 0.370369 0.013104 255 255 255
0.171716 0.223244 -0.015150 0 3 52
-0.046176 0.310020 -0.114124 0 2 8
0.169003 -0.104741 -0.039094 238 239 239
0.177134 0.285936 0.038100 255 255 254
0.020633 0.348285 0.060212 0 11 29
-0.074102 -0.265023 -0.035002 3 8 127
0.126033 0.036597 -0.030788 255 252 255
0.169624 0.039175 -0.036017 255 255 255
0.188674 -0.443428 0.055196 180 180 180
0.180551 0.370745 0.005698 201 197 197
0.048472 0.371669 -0.086409 0 1 10
-0.134173 0.045201 0.055128 204 202 204
-0.127352 0.142879 0.070527 2 8 82
-0.091983 0.225296 0.000302 0 5 37
0.055468 -0.387318 -0.058999 3 9 130
0.175873 -0.017317 -0.049591 0 0 55
-0.126055 -0.142086 0.106091 6 6 8
-0.039591 -0.345901 -0.111843 195 195 197
-0.161224 -0.023339 0.028805 6 8 8
-0.144955 -0.019195 0.106957 217 219 217
-0.155653 0.050718 0.096105 7 7 6
-0.147762 -0.191848 -0.118821 6 8 7
-0.158058 -0.074915 -0.002659 6 7 8
-0.098434 -0.237889 -0.098838 4 4 128
0.193810 0.461861 0.032337 6 7 5
0.136631 0.098776 -0.027880 255 255 255
0.186830 -0.462205 -0.022064 229 226 227
0.174848 -0.121715 -0.050569 228 227 228
-0.125789 0.137993 -0.066863 179 178 178
-0.045540 -0.303561 -0.131567 206 205 206
0.124047 0.227369 -0.118777 0 0 52
0.192798 -0.360319 0.041619 196 195 195
0.169181 0.015107 -0.092622 5 9 5
-0.048759 0.295170 -0.054590 0 7 19
0.003442 -0.347499 0.046268 0 20 133
0.108278 0.019417 -0.011328 0 0 53
0.155251 0.048904 -0.024130 0 0 52
0.176167 -0.148444 -0.072111 7 9 10
-0.120375 0.180869 -0.104074 7 6 7
0.165908 -0.379670 -0.001832 254 255 255
0.194769 0.275453 0.038397 255 254 255
-0.017920 -0.323383 0.044286 0 16 130
0.105328 -0.421791 0.024958 181 180 180
0.141741 -0.187774 -0.017088 255 255 255
-0.134608 0.119431 -0.040941 5 6 5
0.023153 -0.350871 0.121428 196 193 196
0.172134 0.458169 0.046490 255 254 255
0.107471 -0.429977 -0.029172 6 9 6
0.199530 0.209412 -0.039781 0 0 55
-0.143974 -0.111683 0.078950 1 2 126
-0.102968 0.225548 -0.029271 0 8 36
-0.008954 0.333797 0.010751 0 7 25
-0.131587 -0.039798 0.025869 228 224 225
0.152321 0.213327 -0.037333 254 254 255
0.182339 0.216584 -0.009135 255 255 255
-0.135738 0.034078 0.096730 206 206 207
0.183273 0.439988 0.054315 254 255 255
0.181085 0.315769 0.006987 255 255 254
-0.006540 -0.321806 0.109180 0 24 126
0.187088 0.443898 0.036266 5 6 6
-0.139739 0.059779 -0.025606 207 202 205
0.065655 0.382578 -0.036383 0 5 9
0.201001 -0.452349 0.037816 173 174 177
0.015190 -0.347465 -0.007049 0 16 130
0.065340 0.379307 0.114563 165 166 165
-0.119120 0.171144 0.077305 0 8 76
-0.135307 -0.163649 -0.078222 2 0 121
-0.127903 0.219744 0.134777 154 156 153
0.098594 0.405018 0.012357 1 4 7
-0.139704 -0.080062 0.108536 6 7 6
0.207220 -0.452696 0.042523 6 8 9
-0.131087 -0.174765 -0.009623 3 2 125
-0.058323 -0.299364 -0.043641 4 10 130
0.192866 -0.321622 0.023440 255 254 255
-0.130056 0.118408 -0.069468 179 178 180
0.170418 0.200381 -0.041826 254 255 255
-0.097987 -0.230861 0.064622 0 7 128
-0.136141 0.179836 -0.087761 9 9 7
-0.141092 -0.138419 0.060210 2 4 123
0.137154 -0.412074 0.066240 5 5 8
0.176116 -0.067379 -0.029062 0 2 52
-0.147882 0.087283 0.048553 0 5 86
0.114960 -0.029522 0.007458 255 255 255
-0.106237 0.253383 -0.149815 5 7 7
-0.115022 -0.138934 0.123707 238 236 233
-0.135029 -0.139872 -0.086955 6 8 7
0.105746 -0.436282 0.065062 177 177 179
0.182319 -0.431468 0.047378 230 230 230
-0.126868 -0.178856 0.058302 0 6 125
0.090165 -0.397403 0.084285 7 8 6
-0.136085 -0.132349 0.095860 0 1 126
0.162965 0.279980 0.038690 158 159 158
-0.133736 -0.065384 0.076897 6 6 8
-0.004741 0.337335 -0.014436 1 6 21
0.174989 0.290532 0.027155 91 94 93
-0.108985 -0.215672 0.118830 8 8 6
0.007518 -0.343288 -0.014389 3 13 129
0.090327 0.394643 -0.044492 3 5 6
0.012166 -0.354376 -0.079509 2 4 131
0.197352 0.257911 -0.040863 1 1 54
-0.138693 -0.212146 -0.128244 6 9 6
0.149638 -0.440434 0.023478 81 84 79
-0.095053 0.223418 0.133146 5 6 6
-0.160259 0.087602 0.034951 7 5 6
0.145730 0.415857 0.076785 171 172 173
0.053528 0.367957 0.023270 0 6 16
0.112295 0.033758 -0.045366 1 4 51
-0.117394 -0.221908 -0.049646 4 4 124
0.199872 -0.321033 0.018332 178 179 180
0.188788 -0.359335 0.043546 195 197 197
-0.088164 0.204481 0.111592 161 161 161
-0.140269 -0.130249 0.098034 3 0 128
0.121605 0.412973 -0.005250 170 172 171
-0.111351 0.210967 -0.005887 0 8 46
0.128357 -0.420331 0.056026 23 47 130
0.139533 0.076236 -0.070214 253 253 253
0.168511 -0.419185 0.011337 255 255 255
0.184805 -0.408173 -0.000610 255 255 255
-0.115518 0.228990 -0.071516 2 8 29
0.187014 -0.102315 -0.037241 255 254 255
0.173817 -0.418735 0.026175 255 255 255
-0.136295 -0.157149 0.016811 0 1 121
-0.017725 0.337710 -0.119457 154 157 155
-0.021970 -0.340636 -0.101682 4 4 130
-0.120502 0.078093 0.117946 200 198 198
-0.129288 0.000790 0.074577 7 7 6
0.152492 -0.124912 -0.075815 0 0 53
0.164968 -0.233820 -0.035894 0 1 53
-0.163345 0.042796 0.032112 7 9 7
-0.112951 0.182291 0.072917 0 6 75
0.188436 0.404068 0.038773 215 214 216
0.119126 0.408515 -0.013674 1 4 9
