ply
format ascii 1.0
element vertex 1218
property float x
property float y
property float z
property uchar red
property uchar green
property uchar blue
end_header
-0.095846 -0.126173 0.077393 37 34 39
-0.104172 0.148831 -0.084565 91 105 134
0.066180 -0.351941 -0.013965 253 254 253
-0.109868 0.077217 -0.033249 53 70 135
0.021675 0.314732 -0.034139 23 24 26
0.067076 0.067819 0.030286 252 253 253
0.065677 0.005944 -0.031362 253 253 253
-0.077426 -0.231389 -0.080113 31 40 138
0.079168 -0.329121 0.004980 209 209 210
-0.127795 0.045037 -0.016844 25 26 107
-0.107255 -0.168502 0.082612 241 242 241
-0.119111 0.106397 0.088372 149 151 149
-0.088804 -0.232584 -0.071420 27 31 89
0.082718 0.067088 0.010667 253 253 255
0.007677 0.316916 -0.002054 23 23 23
-0.063770 0.212975 -0.084673 27 31 43
0.038862 -0.328905 0.072540 28 27 29
0.064075 -0.337030 -0.011909 233 233 234
0.058473 0.098345 -0.031504 253 255 254
-0.012642 0.286235 0.076691 26 21 25
0.076601 0.010452 -0.027944 252 252 252
0.098583 -0.234004 -0.005794 201 200 199
-0.041044 -0.289071 -0.003687 20 27 120
-0.091114 0.189229 -0.106054 172 172 172
0.017347 0.127330 -0.060336 253 253 253
0.068693 0.198050 0.040256 167 167 165
0.089917 0.119528 -0.009118 251 252 251
0.089819 -0.273682 -0.011205 187 187 186
0.082125 -0.260272 0.010523 201 202 200
0.077066 0.302045 -0.025796 244 245 244
0.093965 -0.286198 0.042245 205 207 205
0.074666 -0.036527 -0.039884 24 25 30
-0.116249 -0.094714 -0.069417 27 29 30
-0.121092 0.103124 0.044069 28 34 125
0.023768 -0.328329 0.069654 25 29 28
0.117591 -0.196780 -0.043032 248 248 248
0.046244 0.330490 -0.005706 96 102 120
-0.000071 -0.324092 0.083273 203 203 202
-0.116168 0.021913 0.017867 240 241 240
-0.045054 0.233261 0.087817 29 28 31
0.069915 0.257878 -0.002685 248 250 248
0.058536 0.226029 0.002252 118 121 119
-0.021420 -0.314118 -0.046374 21 33 125
-0.074926 0.207945 0.059324 25 29 108
-0.040080 0.244219 -0.097151 28 28 29
0.086720 0.288432 0.059092 251 252 252
-0.016422 -0.316134 -0.032550 43 60 140
-0.009724 -0.320210 -0.018580 26 39 143
-0.000293 0.299796 0.075746 185 185 186
-0.114981 -0.110581 -0.023657 18 21 125
0.111401 -0.152126 -0.023698 250 251 250
-0.077384 0.196209 -0.103523 31 28 31
0.112776 -0.165673 -0.001200 252 253 252
-0.024445 -0.323015 -0.074247 33 31 34
0.037574 0.347594 0.037069 22 23 22
0.107732 -0.162578 -0.005044 252 254 253
-0.055674 0.236686 0.020064 17 24 95
0.010193 -0.012089 -0.026001 253 255 252
-0.105317 0.045004 -0.023079 29 29 30
-0.090704 0.142252 -0.092196 26 25 28
-0.113703 0.110609 0.078759 35 47 129
0.090106 -0.357015 0.046509 184 186 183
-0.106778 0.035830 -0.007410 26 30 30
-0.023545 0.254996 0.089358 24 24 29
0.085570 0.320075 0.046870 251 251 250
0.035819 -0.344659 0.003371 31 53 137
0.078352 0.357406 -0.024925 253 251 252
-0.022960 -0.319079 -0.068632 20 24 127
-0.095702 0.066944 0.054519 26 27 30
-0.121391 -0.014373 0.072898 233 234 233
0.032779 0.290370 0.027457 28 22 52
0.088814 0.113603 0.010924 250 252 251
-0.128437 -0.091556 -0.046105 243 244 244
0.035739 -0.354934 0.043320 33 28 31
0.068591 -0.328250 0.042199 230 231 230
-0.104722 -0.188711 -0.099618 37 38 39
0.062106 0.240806 0.055905 253 253 253
0.074158 0.012637 0.005988 251 253 251
-0.036602 0.277377 0.068426 28 29 34
-0.006557 -0.310477 0.057700 27 26 28
0.025948 0.339717 -0.005780 22 23 24
0.070108 0.194305 0.006629 251 252 250
-0.056397 0.278568 0.065734 26 29 30
0.049361 -0.343314 0.053081 245 247 246
0.054030 -0.351948 0.039257 31 28 29
-0.047519 -0.286420 0.001413 19 30 127
0.083544 0.076883 -0.011116 26 29 61
-0.112508 0.053846 0.068603 217 218 215
0.029261 0.311881 0.075334 24 21 25
-0.113766 0.110211 0.062844 17 21 118
-0.118804 0.038981 -0.003577 23 26 109
0.096662 -0.086905 -0.041878 250 253 250
0.032018 -0.341454 0.053290 40 74 154
0.087542 -0.257164 0.041084 254 254 254
-0.123233 -0.116800 0.087603 29 30 32
-0.077674 0.195920 -0.096930 168 168 166
0.109598 -0.223380 0.025028 176 176 174
0.082421 0.134397 0.038175 253 253 253
0.077264 0.206620 -0.014768 167 167 167
-0.082835 -0.222239 0.041000 18 27 125
0.058973 0.357444 0.015680 242 242 242
-0.014130 -0.311940 -0.077243 215 216 214
0.062453 0.078155 -0.040614 19 21 60
0.050952 0.333650 -0.019439 221 222 222
0.067980 0.332985 0.056645 252 252 252
-0.103689 0.114489 -0.073459 29 30 31
0.051236 0.076305 -0.043261 253 254 253
-0.103565 -0.165620 -0.047164 31 35 138
-0.056162 0.252298 0.011206 21 27 87
0.060508 0.358160 -0.009296 244 245 244
0.095623 -0.343843 0.049303 143 143 142
-0.105595 0.114831 -0.012851 25 25 107
-0.096754 0.193168 -0.026632 18 22 91
0.089265 -0.163559 -0.030782 21 23 63
-0.096080 -0.166198 -0.095214 30 28 30
0.034370 0.305443 0.074475 24 24 26
-0.036082 -0.296283 -0.063026 20 27 131
-0.083453 0.198316 0.056852 18 22 91
0.073951 0.250254 0.047316 219 220 220
0.079248 0.198646 -0.028255 182 182 183
-0.127316 0.065381 -0.036504 28 31 31
-0.112294 0.069419 -0.015418 23 25 107
0.044750 -0.355341 0.046556 28 27 28
0.089368 0.238802 -0.017107 185 185 185
-0.052611 -0.291276 -0.069014 28 38 120
-0.065506 -0.237550 -0.030860 27 38 143
0.115337 -0.268996 0.007247 131 133 128
0.104819 -0.282835 0.022375 225 224 223
0.110921 -0.187320 0.025570 250 250 251
-0.047463 -0.279614 -0.029540 27 33 126
0.054231 0.326245 -0.018955 195 194 194
0.111720 -0.212902 -0.029930 250 251 249
0.040821 -0.313973 0.054793 28 29 30
-0.126453 -0.052991 0.036328 246 248 249
0.060394 0.321163 -0.030575 252 252 251
0.000017 0.288528 0.021802 20 30 56
-0.112626 -0.179806 -0.082552 32 29 33
-0.062761 -0.255989 -0.047613 21 29 127
0.056765 -0.348174 0.017652 252 254 252
0.068231 0.364081 0.017139 251 252 251
-0.109582 0.099829 0.037708 17 23 111
-0.073907 -0.251175 -0.032405 20 28 125
-0.004849 -0.328702 0.068639 54 81 159
-0.046602 0.241492 -0.083080 22 23 28
0.056873 0.150349 0.031610 251 252 252
0.049829 0.335148 -0.023125 209 210 209
-0.014936 0.290503 -0.059637 193 193 193
0.068207 -0.266225 -0.004738 253 253 252
-0.108494 0.117197 -0.001130 16 20 111
-0.028510 -0.290997 0.057449 23 34 123
-0.051375 -0.277404 -0.071234 21 26 129
0.046210 0.297977 0.004514 253 254 253
-0.076957 0.244694 0.090383 162 163 164
-0.001644 0.312754 0.059306 27 26 27
-0.089178 -0.196821 0.060241 29 39 134
-0.104687 -0.022807 0.037773 25 26 28
-0.109552 -0.099362 -0.013427 24 28 118
0.089637 0.242543 -0.023192 135 135 137
-0.117021 -0.111360 -0.018908 26 29 115
0.045343 0.354484 -0.011772 253 254 252
-0.108192 -0.203624 -0.092927 243 244 244
0.024918 0.328484 -0.024319 143 144 149
0.067739 -0.021128 -0.041170 252 253 252
0.067470 0.245289 0.030651 249 250 249
-0.109015 -0.063274 0.040413 251 252 251
0.114164 -0.198560 0.001868 177 176 177
0.103262 -0.246217 0.038402 250 251 250
-0.040352 -0.282300 -0.069638 32 42 134
-0.055236 -0.291142 -0.076985 212 214 214
-0.055165 -0.294580 -0.038042 26 33 130
0.065776 0.063162 -0.042705 253 255 253
0.076741 -0.336184 0.048199 110 125 160
-0.013811 -0.312676 -0.036205 21 37 127
-0.123323 0.004112 0.009494 216 217 218
-0.049668 0.264868 0.086029 29 28 32
-0.114517 -0.044583 -0.007829 250 252 250
0.062660 -0.354964 0.058183 24 25 26
0.067199 -0.350541 -0.005072 189 189 188
-0.067583 0.255087 -0.095629 27 27 28
0.023198 -0.336880 0.062040 224 225 224
0.077566 -0.345864 0.045683 250 251 251
-0.042887 0.275668 -0.000653 21 29 63
0.105641 -0.257303 -0.026760 251 251 250
0.080945 0.269723 -0.016714 249 250 249
-0.000173 0.322980 0.010678 29 29 29
-0.048039 0.231296 -0.028171 20 27 60
-0.010731 0.305797 -0.066446 190 188 187
-0.096909 -0.059837 0.064662 26 26 27
-0.105272 -0.034298 0.013017 27 30 32
0.063460 0.280416 -0.000331 251 252 250
-0.095613 -0.175655 0.091830 247 247 247
0.057071 0.318456 0.054272 27 26 25
0.090651 -0.342098 -0.006478 251 252 254
0.074066 0.127710 -0.035643 251 251 250
0.009723 -0.305829 0.090065 27 25 29
0.083398 0.120791 0.014170 252 253 254
0.084102 0.215950 0.045729 250 250 250
-0.106958 0.000728 0.053188 227 229 230
-0.033119 0.265640 0.074055 26 26 29
0.023464 -0.322368 0.077906 24 25 28
0.095346 -0.324656 0.035438 223 223 222
0.069644 0.051047 -0.026426 253 253 253
-0.080447 0.205181 -0.013529 19 22 79
0.010388 -0.325567 0.045746 32 54 142
0.106078 -0.240831 -0.014012 177 177 178
-0.097156 0.174854 -0.097339 26 31 42
-0.110042 0.076804 0.006015 19 23 112
0.078469 -0.036985 -0.034952 26 24 29
-0.100973 0.004206 0.061872 235 236 236
-0.057256 -0.265783 -0.041349 22 29 123
-0.042561 -0.282669 0.041596 27 45 132
-0.109671 -0.195028 0.078056 30 32 35
-0.085087 0.235422 0.092053 28 28 30
-0.078308 -0.242039 -0.069509 17 22 121
0.045141 -0.335747 0.029363 201 202 202
0.055097 0.351742 0.046073 251 251 251
0.043614 0.329435 -0.028934 24 22 22
-0.028853 0.285279 -0.074373 27 27 28
0.058438 -0.328945 -0.028064 252 254 253
0.020789 -0.351812 0.044756 31 31 33
0.087196 -0.342042 0.044285 27 28 29
-0.102986 -0.112041 -0.068915 250 251 250
0.072824 0.232005 -0.019726 190 190 190
0.061911 0.377666 0.059758 255 255 254
0.069020 -0.346372 0.061390 30 28 29
0.041949 0.342401 0.012810 26 26 27
0.039208 -0.358878 0.035599 199 199 198
-0.062520 0.260972 -0.093985 27 29 29
0.097303 -0.298023 0.050198 252 254 253
-0.034914 0.272205 -0.089761 26 28 28
-0.067005 -0.251802 -0.058743 25 28 123
-0.104616 -0.082308 -0.028895 253 253 253
0.046774 -0.323540 -0.006619 24 27 27
0.085310 0.255548 -0.030225 221 220 219
-0.085747 -0.227674 -0.027420 17 23 123
0.064191 0.097979 -0.014210 253 255 253
-0.108006 -0.136798 -0.040533 19 22 100
-0.120367 -0.139297 -0.068164 30 31 32
-0.028084 -0.292256 0.010394 24 36 132
-0.080213 0.192050 0.033816 21 24 103
0.088264 -0.229189 0.029989 252 252 252
-0.083348 -0.194258 -0.087253 32 33 34
-0.022701 -0.298279 -0.089563 27 28 28
0.108114 -0.183394 0.027618 253 253 254
0.102509 -0.061719 -0.036334 248 249 249
-0.046675 0.262642 -0.089783 174 173 175
-0.006679 0.315835 0.063852 197 197 197
-0.117158 0.059824 0.027247 26 33 122
0.031567 -0.340459 0.075118 29 28 29
-0.110770 -0.077519 0.083977 249 251 248
0.079212 0.201490 -0.016578 166 168 166
-0.083408 -0.197515 0.069461 24 36 121
0.077418 0.060158 -0.007544 250 251 251
0.092882 -0.206201 0.010557 252 253 252
0.092949 -0.316471 0.041969 247 249 247
-0.084063 -0.175265 0.058090 35 50 139
-0.015349 0.301648 -0.065804 25 27 26
0.049079 0.200959 -0.027819 180 179 180
0.077633 -0.254756 0.014329 191 192 192
0.024663 0.068671 0.030851 251 250 251
0.076400 0.016905 0.021632 251 252 252
0.073409 0.206036 0.049380 237 236 234
-0.117850 0.097780 -0.067773 199 200 200
-0.122431 -0.106610 0.009748 30 37 127
-0.117638 -0.148919 0.086026 240 241 240
0.074806 0.122215 -0.033452 252 253 252
0.035026 0.324942 -0.015147 250 252 250
-0.068173 -0.277714 -0.090853 43 47 47
0.088893 -0.146081 -0.005099 252 253 254
-0.096664 -0.122509 0.076637 29 39 87
-0.101483 0.008703 0.032202 27 30 31
-0.012497 -0.312595 0.063345 38 60 147
-0.106740 -0.145319 -0.095666 31 29 28
-0.088823 -0.159462 -0.075160 251 251 250
-0.063945 0.192077 -0.100074 25 27 29
0.116422 -0.144406 -0.010563 223 224 223
-0.111562 0.080816 -0.035596 21 24 105
-0.063849 0.255066 -0.093876 173 173 174
0.083580 0.128474 -0.038881 26 28 32
-0.103196 0.058906 -0.038925 206 207 205
0.066292 0.106620 -0.006280 253 254 253
-0.114508 -0.114233 -0.034598 27 32 34
-0.116821 0.052695 0.004987 20 26 114
-0.093592 0.206374 0.064674 26 32 99
-0.004418 0.303369 0.060394 27 28 29
-0.095620 0.145165 0.062621 16 21 109
0.012089 -0.327945 -0.041647 28 25 28
0.075060 0.256909 -0.030766 223 222 224
-0.110310 0.015226 -0.009727 251 253 253
-0.072947 0.194432 -0.058749 21 22 78
-0.114902 0.076179 -0.032387 16 19 109
0.074031 0.343401 0.044042 228 228 228
-0.093353 -0.184883 0.026485 24 32 133
0.013774 -0.330965 0.072311 35 68 146
0.037354 -0.358108 0.039876 249 251 250
0.078867 -0.317160 -0.016342 219 220 218
0.083475 0.368398 -0.004657 220 222 221
-0.126308 0.020582 0.068064 218 217 218
-0.081379 -0.223621 0.047669 20 29 125
-0.007253 -0.319858 0.012743 26 41 126
-0.097617 -0.178121 0.029105 22 32 121
-0.073748 -0.255138 -0.110133 29 27 29
-0.082589 0.186030 -0.091828 29 28 32
-0.057921 -0.269594 -0.100467 224 224 224
-0.101424 0.136279 -0.071716 25 25 84
-0.115994 -0.134674 -0.009417 23 26 133
-0.087478 0.177948 -0.094477 184 184 184
0.081817 -0.293405 0.056230 244 245 244
0.082828 -0.220536 0.006831 253 254 253
-0.116820 0.082046 0.044561 22 28 122
-0.079703 -0.195850 -0.073537 242 242 243
-0.021070 -0.307025 -0.052458 21 31 131
0.060457 0.215027 -0.020894 252 255 254
-0.086810 0.167849 0.089897 179 181 181
-0.077670 -0.236075 -0.074136 24 28 109
-0.054558 -0.261318 -0.101255 29 29 29
-0.089901 -0.206413 -0.027324 20 26 109
-0.100166 -0.147958 0.082303 28 30 32
-0.122441 0.059806 -0.036967 17 18 100
0.072337 0.357230 0.040614 249 249 249
0.068723 -0.348508 0.060922 250 253 254
0.082763 0.370486 0.032723 244 244 244
-0.055005 0.223798 -0.102050 25 28 28
-0.098303 0.151895 -0.014729 31 39 108
-0.084829 0.160981 -0.088677 195 194 194
-0.016259 0.285679 -0.084643 24 23 25
-0.113238 -0.101046 0.018456 23 25 126
-0.022932 -0.327212 -0.068669 202 203 202
-0.123459 0.065836 0.012361 25 31 120
0.023891 -0.324045 -0.009880 66 86 150
-0.111827 0.058230 -0.016822 21 30 102
0.083206 0.338831 -0.011367 215 217 218
0.057532 0.313152 0.010224 226 226 225
-0.123709 0.048859 0.034760 29 32 130
0.079663 -0.167734 -0.036749 25 27 31
-0.109176 0.108495 0.006420 20 21 108
-0.123888 0.022442 0.045468 27 29 29
0.054894 -0.344815 -0.013889 250 252 249
0.010506 -0.333203 0.036387 45 71 161
0.031012 0.355658 0.031187 23 24 21
0.105908 -0.252782 0.010557 172 174 173
0.076216 0.248626 -0.011473 251 253 251
0.086728 -0.017603 -0.027263 253 253 253
-0.056570 -0.267731 -0.014540 21 28 123
-0.086042 -0.183172 -0.083215 27 25 26
0.047434 -0.348174 0.025338 49 76 155
-0.058977 0.210516 0.087277 30 28 26
-0.020357 -0.303643 0.082263 42 66 152
0.063802 0.197140 0.010700 253 255 253
0.038251 -0.347036 0.004626 28 25 28
0.052957 0.345246 -0.012049 231 232 232
0.090861 -0.142737 -0.000238 253 254 251
-0.101813 0.005190 0.061142 252 254 252
0.083679 -0.084391 -0.045020 250 251 250
-0.045295 0.238651 -0.096391 173 173 175
-0.048069 -0.276350 0.022891 33 48 144
0.071392 0.354129 0.007082 252 253 252
-0.113073 0.014868 0.003482 26 31 29
0.002068 -0.037193 -0.031237 253 254 253
-0.120273 -0.077854 0.035022 22 27 125
0.070595 0.293236 -0.020875 252 254 253
0.111991 -0.156121 0.017058 252 253 252
-0.126135 -0.040703 0.019850 235 236 237
0.080814 0.121791 -0.006099 253 254 252
0.049473 0.320451 -0.017861 221 220 220
-0.113798 0.092446 0.077190 40 51 140
-0.092887 0.154671 0.079519 25 31 106
-0.103116 0.001137 0.019210 29 32 32
0.095198 -0.197002 0.033671 253 255 254
0.073073 0.292532 -0.022403 212 212 212
-0.129601 -0.008956 0.033604 226 227 228
-0.116937 0.065725 0.012477 17 21 110
-0.096951 -0.101213 0.083919 25 26 28
0.071363 0.359371 -0.026426 247 248 246
0.073765 0.351537 -0.016108 252 253 251
0.057719 -0.353969 0.047432 144 146 144
0.097518 -0.214242 0.017226 179 180 179
0.096059 -0.261381 0.003750 187 187 187
0.090141 -0.269438 -0.004622 218 219 218
-0.106223 -0.069934 0.079177 251 253 252
0.065080 0.012612 -0.030078 251 252 251
-0.041699 -0.299530 0.064032 33 40 52
-0.115749 -0.126336 0.068902 27 34 132
0.065668 0.067103 0.001398 252 253 252
-0.112887 0.108652 -0.025595 23 28 106
-0.107509 0.058759 -0.012596 23 29 113
-0.075348 0.232583 -0.014186 30 29 81
0.060030 -0.099024 -0.045643 26 27 33
-0.100106 -0.079238 0.039958 30 31 31
-0.041930 -0.293612 -0.038130 22 26 119
0.088664 -0.336392 -0.002780 242 244 243
0.071119 -0.326338 0.030429 226 227 226
0.120378 -0.180423 0.018992 164 164 161
-0.106872 -0.119117 0.018485 18 25 118
0.033589 0.325019 0.052661 228 228 228
0.063574 -0.328762 0.054935 25 26 26
-0.052911 -0.269293 -0.030009 22 37 125
-0.103379 -0.084197 0.004170 251 253 251
-0.115897 -0.090596 -0.020823 23 23 95
-0.109585 0.116975 -0.058503 26 32 77
0.050264 0.039531 -0.000129 253 255 253
-0.122629 -0.067139 -0.015284 29 26 29
-0.017985 0.288888 -0.085009 26 28 28
0.043599 0.326855 -0.008195 197 198 196
-0.057992 -0.254080 -0.071731 22 24 122
-0.021803 -0.307302 -0.052987 26 34 135
-0.076890 -0.183187 0.011337 19 25 129
-0.123720 -0.063669 -0.020133 29 31 32
0.082814 0.354070 0.033357 252 254 252
-0.122752 -0.065264 0.038985 239 240 238
-0.109202 -0.146780 0.038838 24 29 114
-0.068929 -0.216171 -0.067711 45 58 76
-0.076442 -0.205872 0.090102 26 37 120
0.067694 0.065852 -0.033056 251 252 252
-0.111166 0.119607 -0.030355 23 26 117
-0.066441 -0.262579 -0.070362 23 28 121
0.103359 -0.213051 -0.014003 188 188 187
0.111276 -0.218546 0.022798 188 188 187
0.057889 -0.137443 -0.035449 251 252 254
0.041395 0.029160 -0.028716 252 253 252
-0.070703 -0.254732 -0.059508 19 26 126
0.075986 -0.348192 0.041908 172 170 168
0.018416 0.323670 0.046645 252 254 252
-0.123962 0.125797 -0.088717 168 168 169
-0.121896 -0.041886 0.022679 229 230 229
-0.034743 0.259876 -0.073684 20 22 29
-0.045988 0.261101 0.015554 25 31 76
0.071039 -0.312680 0.053904 250 251 250
0.032880 -0.354007 -0.023065 121 124 123
0.106448 -0.109800 -0.035490 253 253 253
0.104407 -0.134984 0.023098 251 253 251
0.079163 0.302912 -0.018661 253 254 253
-0.126274 -0.105413 -0.056957 229 231 229
-0.105649 -0.157718 -0.043020 21 26 120
0.036042 0.337076 0.047094 25 26 25
-0.057149 -0.218803 0.065484 28 50 122
-0.116078 0.097679 -0.062474 20 21 96
0.088009 -0.293207 -0.023717 208 209 208
0.043461 0.328038 -0.008289 22 25 24
0.087603 -0.318415 -0.001650 251 252 251
-0.104799 -0.142036 -0.028165 20 22 123
0.042297 0.300746 0.067589 191 193 191
-0.094476 -0.205578 -0.035989 18 23 120
0.062370 0.152541 -0.022999 171 171 171
-0.044734 -0.272559 0.006952 30 43 133
0.091084 -0.262515 0.030512 253 254 252
-0.028360 -0.329698 0.021273 234 236 234
0.068313 -0.338969 0.060154 241 242 242
-0.120685 -0.099602 -0.012745 19 25 109
-0.109539 0.076198 0.055616 29 36 121
0.083247 -0.301450 -0.021992 118 122 122
-0.105050 -0.146529 0.060400 27 35 136
0.106063 -0.235230 -0.026572 186 186 185
0.082938 0.177801 -0.002840 251 253 252
0.075063 0.340198 0.059147 251 251 251
-0.063422 0.250329 0.083790 25 28 28
-0.081269 -0.205656 0.088137 30 47 128
-0.114205 0.077204 0.036434 22 28 114
-0.008327 0.303437 0.061608 28 31 33
-0.111341 0.101941 0.077989 17 22 115
-0.109350 -0.041434 0.010028 242 243 243
0.109510 -0.128598 -0.034028 249 252 251
0.070729 0.091586 -0.014203 253 254 253
-0.032456 -0.279758 0.043531 30 50 147
0.076418 -0.356596 0.026637 185 185 184
0.033246 -0.328559 0.078850 28 26 27
0.078947 0.360679 0.056959 250 250 251
0.062320 0.028530 -0.036638 254 255 254
0.062964 0.353238 0.052228 248 249 248
-0.087654 -0.202662 0.038805 22 35 123
-0.057523 0.233544 0.055452 21 27 99
-0.104371 0.176983 -0.105481 27 27 27
-0.057298 -0.138560 0.002345 253 254 253
-0.071585 0.173503 -0.097135 24 25 25
0.056342 -0.353449 -0.013647 252 252 249
-0.033120 0.286574 -0.084731 180 179 179
-0.039849 0.263557 -0.012372 20 29 52
-0.095243 0.129086 -0.077620 194 193 192
0.067435 0.202112 -0.015638 251 253 252
-0.049441 0.219134 -0.096014 26 26 29
0.089743 0.281179 0.039822 252 252 251
0.085673 -0.340977 0.058293 25 26 28
0.088439 0.370036 0.009421 227 225 226
-0.110567 0.111660 0.024841 17 23 101
0.074030 -0.052676 -0.013168 251 253 251
0.055298 0.166777 -0.021329 166 166 166
0.004122 -0.328964 -0.010499 33 46 147
-0.122420 0.025335 0.040590 26 27 30
0.103474 -0.222756 -0.034667 211 210 210
0.105851 -0.183886 -0.040740 254 253 252
-0.082117 -0.197553 -0.057470 35 45 133
0.080027 0.301787 0.054781 249 249 249
0.031303 0.288570 0.039720 25 21 21
0.093969 -0.247011 0.021638 174 174 174
-0.114939 0.102203 -0.073182 27 25 27
-0.017132 0.295725 0.057694 24 26 27
0.055709 0.328637 0.048696 22 19 23
-0.075829 -0.243889 -0.084043 228 228 229
0.071504 0.181317 0.034413 161 161 160
0.083933 -0.057770 -0.047808 254 255 253
0.017313 0.018910 -0.042959 251 253 251
-0.101139 -0.117604 0.093040 243 243 243
-0.111798 -0.053927 0.002439 252 253 252
0.059153 0.223358 -0.015150 171 172 172
0.011588 -0.336628 0.000907 36 55 152
-0.114048 -0.054346 0.082443 241 243 242
-0.003802 -0.316403 0.077238 50 78 147
-0.103106 0.152508 -0.005375 20 25 91
-0.040077 0.211755 0.082430 28 26 26
-0.108253 -0.160084 0.090775 237 238 237
-0.118607 0.070711 0.003632 20 23 106
-0.114547 0.044351 -0.044327 34 35 33
-0.092624 -0.103584 -0.033057 250 251 253
-0.094399 0.158434 0.000976 21 26 109
0.064973 0.328986 -0.003284 207 207 205
-0.108202 -0.039757 0.015238 242 243 242
0.097702 0.361849 0.003761 218 218 216
0.002431 0.322029 0.016801 188 189 188
0.031947 0.347546 0.009438 252 253 252
-0.113243 0.109010 -0.008897 20 27 112
-0.099783 -0.156813 -0.069829 252 253 252
0.067078 0.156602 0.028686 251 251 251
0.083927 0.285884 0.015206 222 223 223
-0.104707 0.000757 0.030587 249 250 249
-0.069007 0.250969 0.082641 27 27 30
0.037478 0.336402 -0.017928 23 23 25
-0.061985 -0.268154 -0.026827 21 28 122
-0.054495 0.251700 -0.092733 25 25 27
-0.050535 -0.271091 0.085632 36 54 140
0.067419 0.218699 0.024111 177 177 176
0.052396 0.119103 0.007560 253 254 252
-0.095496 -0.183063 0.098495 235 236 234
0.082775 0.219001 -0.033198 250 252 251
-0.116569 -0.112353 -0.019966 21 22 118
-0.084983 0.219318 -0.096808 24 26 27
-0.074244 0.180093 0.083996 28 32 31
-0.107801 0.126731 0.074455 32 40 122
-0.010253 -0.333293 -0.040316 25 34 133
-0.053594 -0.103425 -0.006798 251 254 254
-0.111567 0.100419 -0.022550 21 22 102
-0.106497 -0.019002 0.073776 239 240 240
0.122651 -0.159728 0.027407 250 252 252
0.009641 0.336208 0.042114 24 25 24
0.070326 -0.358631 -0.002545 207 208 208
0.063848 -0.008424 -0.040994 254 255 254
-0.090045 -0.231614 -0.106191 28 27 28
0.092379 -0.059055 -0.017422 251 252 252
0.094429 -0.254984 -0.027819 156 157 158
0.067034 0.263544 -0.004995 154 155 155
0.061329 -0.338138 -0.012047 30 26 29
-0.112037 -0.053502 0.061378 233 235 232
0.081477 -0.025666 -0.015216 253 254 253
0.072040 0.259785 -0.003187 251 252 251
-0.121135 -0.018231 0.075489 233 235 235
0.099331 -0.187370 -0.032578 25 25 29
0.082166 0.263566 0.005010 207 207 206
-0.094687 -0.166464 0.024514 23 29 120
-0.093540 -0.208649 -0.036987 24 25 118
-0.049348 0.254857 0.086254 183 183 183
0.010257 -0.330724 0.045928 50 73 160
-0.042693 0.293033 -0.081892 26 27 27
-0.113225 -0.141726 0.035425 24 30 129
-0.097870 -0.173920 -0.075201 249 250 249
-0.101283 0.112546 -0.085649 30 30 29
-0.097648 0.139574 0.085770 40 53 122
-0.081010 0.247688 -0.095697 30 27 28
-0.078471 -0.242638 -0.032065 19 25 123
0.112694 -0.162361 -0.041922 251 252 251
-0.126520 0.041811 0.030017 29 29 31
0.016998 -0.335872 0.031571 29 46 141
-0.107478 -0.209891 -0.081051 28 29 32
-0.121991 -0.059864 -0.017068 28 30 31
-0.081236 0.186346 -0.096739 178 177 177
-0.073303 0.210727 -0.103340 175 176 177
-0.094041 -0.228965 0.093571 230 230 230
-0.020443 0.307795 0.028201 27 28 37
-0.112640 0.042425 -0.045195 30 31 32
-0.085727 0.199153 -0.017869 21 26 94
0.014067 0.322798 -0.013268 33 24 22
0.086391 0.201488 -0.007844 252 252 251
-0.108287 0.135399 0.081882 21 27 108
0.085260 0.185207 0.010120 253 254 254
0.017237 0.324285 -0.022600 196 196 196
-0.121303 -0.077137 0.066249 241 243 240
0.065183 0.254546 0.028500 251 252 250
-0.082571 -0.200907 0.088008 220 220 220
0.085330 0.211376 -0.003684 158 158 158
0.079522 -0.255749 0.042601 247 249 248
-0.071563 0.223793 0.048431 23 26 83
0.083197 -0.342146 0.010749 194 195 194
-0.092900 -0.219841 -0.091708 230 231 230
-0.096869 -0.158466 -0.068722 251 251 251
-0.109901 0.186806 -0.097193 160 161 163
-0.104314 -0.193271 -0.102079 27 26 26
-0.094997 0.171038 -0.015610 21 26 88
0.101883 -0.224407 -0.013888 226 227 225
0.076182 -0.343674 0.009935 202 202 203
-0.119672 0.111256 -0.047194 25 30 111
-0.124470 -0.070629 0.019213 19 25 124
-0.043112 -0.291574 -0.073820 32 30 34
0.081988 -0.010571 -0.012723 250 251 251
0.011962 -0.319272 0.072337 39 66 146
0.120781 -0.152966 -0.024850 247 248 247
0.110888 -0.219561 -0.031199 185 185 183
-0.113254 -0.167255 -0.096634 239 239 239
-0.084133 -0.231658 -0.053805 19 23 121
0.083675 -0.061360 -0.037242 253 255 253
0.089217 0.350577 -0.009937 219 219 216
-0.008892 -0.337408 -0.057347 58 72 92
0.106807 -0.076770 0.004249 247 248 247
0.054275 0.062531 -0.035189 27 27 26
-0.019775 0.303482 -0.069350 23 24 24
-0.094758 0.029234 0.074162 252 253 253
-0.117172 -0.058552 -0.014337 33 35 34
-0.043032 -0.279043 0.089337 30 33 34
0.112620 -0.206001 -0.029387 249 250 251
0.027033 0.334304 0.040212 23 23 23
0.084454 -0.267863 -0.021111 197 199 198
-0.105585 -0.095669 -0.040075 29 26 27
-0.109913 -0.140473 0.016016 23 30 123
0.076935 0.340406 -0.001727 251 252 251
0.066071 -0.350976 0.011175 30 30 28
0.032164 0.318044 0.054190 201 202 201
0.090578 -0.312138 -0.022290 248 248 247
-0.121690 0.012651 0.013873 28 30 31
0.074565 0.348974 0.014404 207 209 206
-0.050952 -0.268524 -0.087779 32 26 30
0.051639 0.047193 -0.046406 253 254 253
0.074867 0.329558 0.040209 199 199 199
-0.024308 0.301220 -0.061020 27 26 25
-0.103986 -0.185963 -0.066749 23 29 122
0.082256 0.124424 -0.032716 25 25 27
0.072676 0.244653 -0.010853 251 252 250
-0.003419 -0.318793 -0.038509 22 28 134
-0.047791 -0.263280 -0.014140 37 51 136
-0.015324 -0.323464 -0.015669 25 37 127
-0.089835 0.179211 0.010503 27 33 99
0.029933 0.319697 -0.030553 195 195 193
-0.113934 -0.159392 -0.090110 235 236 235
-0.042351 0.274239 -0.091075 33 31 29
0.057609 0.354109 0.047969 253 254 253
0.062014 -0.347783 0.008850 251 252 250
0.107222 -0.079530 -0.030554 249 251 251
-0.071409 0.242304 0.096199 28 28 30
-0.026057 0.259665 0.090828 24 25 26
0.109639 -0.150713 0.002519 252 253 254
0.039371 0.062119 -0.027268 251 252 251
0.111559 -0.197119 0.034121 252 253 254
-0.113300 0.002163 0.059740 238 239 239
-0.027913 -0.285224 0.086147 51 75 158
-0.114598 0.045836 0.010334 20 24 122
-0.037297 0.290587 -0.065168 23 24 26
-0.009908 0.299983 0.009908 24 23 32
0.050811 -0.352256 -0.009255 29 27 26
-0.094161 0.216602 0.094403 162 164 163
-0.083673 -0.216823 -0.053920 20 23 129
-0.106380 0.106738 -0.002625 32 41 119
-0.103715 0.154427 0.040882 29 36 105
-0.111109 -0.130593 -0.088578 29 28 29
-0.104792 -0.172117 -0.095600 238 239 238
0.005845 -0.043270 -0.003870 253 254 253
-0.130008 0.030316 0.012195 30 34 47
-0.077327 0.173229 -0.108597 25 27 28
-0.013893 -0.305070 0.066527 33 53 134
-0.065773 0.215456 0.000395 32 44 115
-0.114496 -0.088589 0.077035 26 27 30
0.062766 0.296502 -0.003274 239 239 240
-0.124079 -0.004091 0.071944 32 33 33
-0.057438 0.240400 -0.105147 28 26 26
0.069891 0.303914 -0.023602 250 251 249
0.098914 -0.071791 0.005076 225 226 226
0.005806 -0.336520 0.026739 32 34 35
-0.057696 0.253613 -0.093122 171 171 172
-0.114687 0.118031 -0.043386 20 25 90
-0.115186 -0.087311 -0.018993 28 25 29
0.082460 0.234369 0.032320 188 189 187
0.068587 0.204900 -0.001623 178 177 177
-0.070855 0.196615 -0.101356 26 24 27
-0.090693 -0.127695 0.070001 27 32 74
0.014342 0.313284 -0.048870 197 197 195
-0.120100 -0.136565 -0.082891 234 234 233
0.030329 -0.350480 0.025348 30 33 29
-0.080655 0.215650 -0.102376 25 25 27
-0.116115 -0.070100 0.072177 239 240 240
0.073719 -0.071203 -0.039472 253 254 252
0.095176 -0.298686 0.039340 230 232 233
-0.054629 -0.248597 0.012883 29 46 129
0.084521 -0.347537 0.046658 253 254 255
0.095845 -0.279169 -0.001598 242 244 243
0.062111 -0.328763 -0.016872 183 180 175
0.063484 0.147665 -0.029253 164 164 165
-0.105412 -0.148637 0.077429 29 34 34
0.079841 -0.205228 0.027908 253 254 251
0.069864 0.220502 0.040702 215 213 213
0.114953 -0.147937 -0.002136 223 225 224
-0.116355 -0.139851 -0.051935 25 29 121
0.090670 -0.252338 -0.014177 251 252 252
0.085599 0.364719 0.001527 250 251 250
-0.098330 -0.111946 -0.053059 252 251 252
-0.111891 -0.076878 0.062853 26 26 27
-0.107049 0.090878 0.063403 27 35 113
0.051559 0.330774 -0.031377 25 22 25
0.096810 -0.300533 0.036778 240 241 240
0.071091 0.009546 -0.033775 24 22 28
-0.117267 0.077705 -0.071532 206 206 207
0.103475 -0.148871 -0.003692 25 26 50
-0.032404 0.278169 0.072988 180 181 181
0.070665 -0.041020 -0.049116 25 25 30
0.067148 0.161609 0.031597 252 253 252
0.088410 0.180883 -0.006499 251 253 252
-0.054149 0.231484 0.096563 29 25 28
0.056575 0.285393 -0.014065 253 253 251
-0.129969 -0.082631 -0.039307 29 28 29
-0.111681 0.135638 0.040495 25 29 99
-0.098706 -0.161079 -0.083783 31 30 33
0.058068 -0.345342 -0.012413 201 204 202
-0.083567 0.197327 0.063543 26 28 97
0.099304 -0.075916 -0.041180 247 248 248
-0.071678 0.214101 0.007641 23 24 91
0.088831 -0.084996 0.009474 22 28 73
0.073482 0.113647 0.040594 253 254 255
0.056741 0.292444 -0.020646 214 215 214
0.005335 -0.315693 0.051662 28 53 134
-0.043978 0.254250 -0.089790 161 161 162
-0.110739 0.118735 -0.023684 20 21 83
0.092040 -0.222030 0.005849 184 185 184
0.108616 -0.137189 -0.029034 20 24 64
-0.114117 -0.015449 0.016683 240 241 240
0.020491 0.334812 0.023010 23 25 23
0.058187 0.273790 -0.021256 251 253 250
0.099985 -0.347545 0.049917 138 140 138
0.076802 0.160764 0.040314 252 254 253
0.049237 0.361287 0.041527 249 250 250
0.089008 -0.194263 -0.032235 167 168 168
-0.119703 -0.080763 0.000368 250 251 249
-0.085418 -0.201790 0.095313 241 242 241
-0.052736 0.252362 0.070921 21 28 99
-0.106613 0.156191 0.059927 19 23 113
0.072122 -0.092804 -0.013325 253 254 253
0.052001 0.180491 -0.004972 194 194 195
0.091663 -0.296808 -0.028970 249 250 250
-0.113205 -0.135365 -0.035393 20 25 126
-0.120425 0.091467 -0.076420 195 197 195
0.009573 -0.349836 0.017188 32 29 32
0.080505 0.331518 0.057186 251 251 251
-0.004389 0.317232 -0.006139 23 25 26
-0.003212 -0.319381 0.019597 46 65 158
-0.104966 0.161146 -0.046010 27 36 78
-0.115283 0.053271 0.000549 32 40 75
0.071294 -0.346148 0.010406 199 202 200
0.066557 0.311268 0.040570 21 21 24
-0.090809 -0.200913 0.101262 221 221 220
0.084121 -0.306980 0.044235 225 225 225
-0.098624 -0.088170 -0.026140 254 254 253
-0.079592 0.197660 -0.095439 165 164 164
0.084254 0.143030 -0.027746 250 251 251
-0.103305 -0.155526 0.096494 26 28 31
-0.125614 -0.007393 0.021736 233 234 234
0.099887 -0.035036 -0.002399 252 253 252
0.101612 -0.303602 0.021430 198 200 199
0.080054 0.259494 0.044573 251 252 251
-0.088896 0.218728 -0.100203 167 168 168
0.083331 0.029214 -0.032714 250 250 250
-0.081757 0.216024 -0.070170 26 29 53
0.094672 -0.204541 -0.035336 253 254 252
0.053869 0.334555 0.002946 203 204 204
0.004824 -0.320663 0.027854 27 44 131
-0.072174 -0.210339 0.000486 20 26 128
-0.073395 -0.225793 -0.085010 23 23 135
-0.111626 -0.097150 -0.065161 30 32 79
-0.033695 -0.283535 0.082640 30 48 134
-0.097118 -0.175587 -0.076174 29 39 103
-0.107950 0.065076 0.070572 222 223 224
-0.114824 0.104994 0.033624 18 23 110
0.094672 -0.291685 0.019685 220 221 221
-0.047768 -0.275080 0.077469 39 57 145
0.055562 -0.332070 -0.017223 251 253 253
-0.125537 0.006784 -0.003061 230 231 231
-0.091166 -0.233448 0.098196 29 30 32
-0.088191 -0.182009 -0.075031 28 28 31
-0.074119 0.254750 -0.093669 30 28 30
0.095161 -0.074567 -0.007715 251 254 253
-0.096642 -0.069887 0.003199 254 254 253
0.071144 0.341594 -0.019955 222 221 222
-0.057736 -0.266309 -0.092355 249 250 249
-0.111215 -0.102733 0.089621 29 30 32
-0.110953 0.099907 -0.039814 18 22 92
-0.099011 -0.169424 -0.077822 22 24 84
-0.118146 -0.051397 0.069413 28 30 32
-0.114406 0.061519 0.069905 221 222 220
-0.103936 0.144366 -0.072894 17 20 97
0.072440 0.106658 0.008547 20 22 63
0.065276 0.209810 -0.019698 172 172 171
0.071904 0.285916 0.049401 212 215 215
-0.104003 -0.096996 -0.012913 250 250 250
0.068571 0.292602 0.040850 250 252 251
-0.027558 0.276825 0.092798 178 179 180
0.116032 -0.217766 -0.005638 190 192 191
0.105790 -0.238686 0.030392 228 227 228
-0.112787 0.172189 -0.093559 162 162 164
0.076631 0.292590 0.055525 169 171 171
0.015124 0.322263 -0.034714 197 197 195
-0.066388 0.243882 -0.042134 44 50 66
-0.099782 -0.167300 -0.063477 25 33 102
-0.089530 -0.234030 -0.073286 22 25 118
-0.052531 -0.261678 0.038782 22 32 127
-0.081842 -0.167193 0.088762 28 27 30
0.077121 0.258453 -0.017536 117 122 130
-0.072662 -0.233671 -0.109822 28 26 28
-0.121952 0.060897 -0.020808 19 24 113
-0.114725 -0.103180 -0.033827 27 28 113
-0.112665 0.063955 -0.011367 17 23 108
0.089866 -0.277557 0.040298 207 210 208
-0.122601 -0.013813 0.036218 232 233 233
-0.119756 0.149434 0.084227 26 28 59
0.098751 -0.235813 -0.021714 191 193 192
0.076607 -0.024996 -0.013235 26 25 29
0.040889 0.287851 -0.024596 252 252 252
0.101352 -0.243286 -0.011950 179 180 180
0.088084 0.340156 0.004059 249 250 251
0.070664 0.098934 -0.005454 253 254 253
-0.118584 -0.079482 0.079462 33 35 36
0.090345 0.157503 0.020111 251 252 252
0.073242 0.370502 -0.016367 226 226 227
0.062549 0.087785 -0.002297 253 255 253
0.082841 0.310570 0.033738 174 172 174
-0.123429 -0.027823 0.013341 243 244 244
-0.027820 -0.312810 -0.065815 210 210 209
-0.102713 0.127304 0.079801 21 24 116
-0.111142 -0.130861 -0.079902 238 238 236
-0.035768 -0.282475 0.038473 33 48 134
-0.041398 0.276325 -0.089937 178 177 177
-0.122339 -0.102546 -0.034460 27 31 32
-0.015395 -0.313548 0.051376 41 61 145
-0.127226 0.049445 0.012550 30 27 32
0.073745 -0.017340 -0.018551 252 253 253
0.043706 0.121371 0.026056 253 254 255
-0.105109 -0.058516 -0.005190 20 21 74
-0.009808 -0.316837 0.083630 29 29 30
-0.081555 0.182395 0.096556 29 27 31
-0.108184 -0.162612 -0.023957 21 25 117
0.107918 -0.109965 -0.035415 251 252 250
0.008394 -0.338972 0.037557 29 32 33
0.105722 -0.191420 -0.017455 244 246 245
-0.125470 0.017982 -0.003482 223 222 222
-0.068939 0.232995 -0.099402 26 25 27
-0.120318 -0.103778 -0.029243 25 30 30
0.012953 0.309961 -0.048621 191 190 190
-0.024054 -0.304590 -0.009969 22 33 131
-0.104782 -0.177831 0.072041 29 39 137
-0.117185 -0.036900 0.070548 27 28 29
0.080878 0.329125 0.045877 220 220 219
0.062366 -0.338416 -0.016022 250 251 251
0.060309 0.210197 0.017900 253 253 252
0.079798 -0.275086 0.004267 252 254 253
0.025099 0.307172 0.055698 190 190 190
-0.105358 -0.143790 0.014406 27 33 131
-0.038422 -0.278366 0.048229 32 52 149
0.041946 0.114193 -0.001203 252 254 253
-0.104312 0.008566 0.074525 26 25 29
-0.109439 -0.080672 0.060963 238 239 239
-0.102943 0.107690 -0.000566 37 49 124
-0.071125 -0.241212 -0.026156 18 26 124
-0.123429 -0.027717 0.039450 27 29 28
-0.110749 -0.001850 0.075862 27 26 30
0.027014 0.308057 0.034433 21 30 53
0.068700 0.098369 -0.039447 25 25 30
-0.097358 -0.171894 -0.029610 17 23 120
0.086727 0.252689 -0.001823 170 170 170
0.028041 0.294601 0.047524 29 18 22
-0.107255 0.156177 0.009332 29 34 100
-0.123401 -0.058616 0.081975 243 245 245
0.108892 -0.240599 0.026653 252 253 253
-0.082804 -0.249639 -0.089885 19 21 115
0.094864 -0.354568 0.050423 152 155 151
-0.034161 0.258396 0.036255 22 28 70
-0.014533 0.280640 0.079323 23 25 26
0.085784 0.258949 0.039561 212 210 209
-0.084920 0.184224 -0.020197 26 31 103
0.111223 -0.219541 0.000957 239 240 240
-0.086619 0.253343 -0.096382 26 30 29
-0.080688 0.160829 0.097031 29 26 29
0.061188 0.289733 0.021490 217 215 214
0.092454 -0.315316 -0.006094 250 252 250
0.042636 0.326324 -0.003615 28 25 26
0.076198 -0.041796 -0.016519 26 26 29
-0.007145 0.320135 0.052809 185 185 182
-0.063201 -0.243612 -0.018955 22 30 123
-0.054451 0.236846 0.012400 23 24 68
-0.110027 0.117565 0.062807 19 24 112
-0.068704 -0.246477 0.038373 25 38 124
0.090380 -0.255804 -0.012818 185 186 186
0.106402 -0.106372 -0.004130 19 21 68
-0.111250 0.053581 0.026126 27 34 120
0.081125 0.348443 -0.005123 206 206 205
0.093699 -0.059114 -0.001271 253 254 253
-0.041538 0.221225 0.069451 16 22 103
-0.058057 0.226528 -0.096189 26 26 28
0.115842 -0.152767 0.011194 254 253 254
-0.120676 0.134880 -0.095363 45 47 46
-0.019687 -0.288350 0.084325 35 62 148
0.032157 -0.007040 -0.008400 252 254 252
0.055657 0.232264 0.028546 253 254 252
0.034187 0.021821 -0.048324 252 254 253
-0.054736 0.262570 -0.086771 188 188 188
-0.025293 0.304274 0.067532 24 27 26
0.076450 0.241126 -0.014224 199 197 197
0.080781 0.215613 0.041857 192 189 189
0.077822 -0.220794 0.000741 249 250 250
-0.031965 -0.295129 -0.002863 32 46 133
-0.043111 -0.270836 0.077932 32 52 134
-0.081946 0.210387 -0.033076 28 29 76
0.060965 -0.315766 -0.012707 251 254 253
0.049632 0.179338 0.023202 249 249 248
0.081100 -0.319502 0.057717 228 228 228
0.103627 -0.278272 0.009447 216 215 215
0.002352 -0.296113 0.057857 96 114 160
-0.120877 0.004652 0.030237 232 233 233
0.066329 -0.290776 -0.004470 30 39 78
-0.103164 -0.203052 0.095364 225 225 224
-0.118039 -0.119642 -0.061250 27 30 121
-0.099532 -0.179772 -0.077880 234 234 234
-0.110769 -0.102429 -0.024462 252 254 254
-0.107890 -0.086142 0.086727 26 27 27
-0.110719 0.153820 -0.068176 29 37 74
-0.077975 -0.201681 -0.088778 252 251 252
0.070369 -0.315704 0.010010 222 224 223
-0.103712 0.116592 0.065375 26 33 117
0.069812 0.285168 -0.028357 250 251 250
-0.043024 -0.289049 0.015061 34 49 140
0.099214 -0.275570 0.025249 175 175 175
0.018816 -0.335725 -0.001262 34 53 154
-0.119954 -0.078518 0.006153 19 23 126
0.053083 0.342719 0.059350 252 254 252
0.003426 -0.323265 0.050332 32 57 151
0.021048 0.325786 -0.023156 207 208 209
-0.118484 0.074236 -0.008688 22 23 122
-0.118020 0.056814 -0.004829 19 22 114
0.002805 0.284265 0.057244 27 29 30
-0.021665 -0.280886 0.097300 28 27 29
-0.042716 -0.316975 -0.090108 29 28 27
0.057616 0.240972 -0.000725 251 254 252
0.028786 -0.334123 0.046215 52 78 163
-0.051615 -0.264219 -0.094292 29 29 32
0.074065 0.189649 0.042618 170 170 168
-0.042449 -0.279737 0.088287 45 68 143
0.050507 0.317959 0.069326 25 24 26
0.076394 0.302533 0.051624 227 228 227
0.086552 0.280980 0.051025 249 249 250
0.081696 0.275040 -0.013325 228 229 228
-0.035659 0.288980 -0.072429 169 168 168
0.090158 -0.245235 0.016910 158 161 159
-0.092776 -0.185007 0.076782 29 33 35
0.051464 0.336392 -0.002242 22 25 22
0.108050 -0.249276 0.016709 189 187 188
-0.047767 -0.289592 0.086337 207 209 207
0.077036 0.321778 -0.013481 252 252 252
-0.123368 -0.053398 0.077806 240 243 242
-0.012309 -0.308999 -0.043827 208 208 206
-0.110295 0.070761 0.045194 23 31 120
-0.098823 -0.153973 -0.091166 30 32 38
0.064360 0.181121 0.030789 165 166 166
0.083326 0.340784 0.020757 205 206 205
0.072806 -0.348690 -0.002672 29 27 28
0.071246 0.152770 -0.020639 169 170 169
-0.074463 0.203619 0.023364 22 25 85
-0.112231 -0.086312 -0.004082 24 27 30
-0.081731 0.199618 0.004921 26 32 92
-0.120111 0.042722 0.060233 19 24 112
0.054767 0.318868 0.042102 27 26 26
-0.104529 -0.158338 -0.080456 21 21 117
-0.090173 0.085744 0.073233 29 30 31
-0.077882 0.230800 -0.091848 186 185 186
-0.080212 -0.238693 0.019214 21 31 124
-0.101726 0.144314 -0.058135 20 22 96
-0.114809 0.064106 0.013246 25 33 109
0.079272 0.260218 0.031286 252 253 251
0.067963 0.038753 -0.022626 250 252 251
-0.085483 -0.221038 0.010709 30 38 139
-0.105705 -0.158944 -0.042591 23 25 125
-0.090948 0.199854 -0.108489 28 28 29
-0.077058 0.187095 0.072754 19 24 104
-0.029730 -0.303671 -0.086801 207 208 207
-0.112828 0.165671 -0.090058 24 32 72
0.088434 -0.336426 0.050823 29 28 30
0.081792 0.288913 -0.009872 251 252 251
0.076101 0.236597 0.001671 233 233 232
-0.112348 -0.002314 0.047669 233 235 233
0.102388 -0.213518 0.006430 214 215 213
0.103296 -0.224996 -0.029694 250 251 250
0.044272 0.304005 0.060773 26 28 29
0.038635 0.343356 0.045747 28 26 23
-0.030716 0.294275 -0.079301 28 25 23
0.072509 -0.292112 -0.004697 253 255 253
-0.113810 0.160770 0.093970 28 28 28
-0.113357 -0.040604 0.006883 240 240 240
-0.126598 0.043529 -0.002934 27 30 28
-0.018319 -0.308769 0.070519 34 61 148
0.076448 -0.351053 0.007395 203 204 205
-0.103300 0.121942 0.066713 19 26 111
0.100576 -0.198578 -0.018777 164 165 164
-0.011131 0.310785 -0.072303 28 28 28
0.084857 -0.348366 0.021386 254 255 254
0.079529 -0.337975 0.002987 27 28 27
-0.067301 0.239017 -0.053399 25 27 53
-0.111230 -0.152105 0.082172 29 40 135
-0.060168 -0.262611 -0.089586 234 235 237
-0.092463 0.160095 -0.097089 171 171 171
-0.089641 -0.069094 0.011255 253 254 253
-0.004702 0.286831 0.063022 24 24 26
-0.057418 -0.231917 0.061385 40 57 136
0.074157 0.275506 0.050128 247 248 248
-0.014800 -0.310335 0.015307 24 36 125
0.072389 0.368996 -0.006177 245 246 245
0.121416 -0.193552 0.001870 165 165 164
0.035504 -0.342763 0.019770 37 64 147
0.086943 -0.068023 -0.038115 249 251 250
-0.107487 0.100204 -0.085135 27 30 29
-0.056718 -0.276085 -0.095606 216 215 217
-0.104035 0.149419 0.056230 27 27 105
-0.114653 -0.121045 -0.001007 23 25 124
0.081259 0.058860 0.024160 250 252 250
-0.098424 -0.210615 0.083194 31 32 34
-0.105143 -0.092428 -0.005456 252 254 254
-0.043856 -0.246956 0.099560 222 223 221
0.113625 -0.109570 -0.021771 250 252 251
-0.107241 0.111806 0.017854 20 28 107
-0.073333 -0.122126 0.059675 29 31 31
0.092633 -0.288073 -0.025521 208 209 209
-0.017862 0.239526 0.071016 26 27 29
-0.110029 -0.145602 0.073327 18 24 109
-0.033604 0.249435 -0.084830 195 195 196
0.009964 -0.316801 0.059305 37 66 153
0.105694 -0.117318 -0.001733 252 254 252
-0.055754 0.277649 -0.084216 28 29 29
-0.085461 -0.193815 0.096916 26 26 28
-0.059935 -0.246015 0.081616 28 44 127
-0.098207 -0.188294 -0.101866 30 32 32
0.093073 0.340481 0.048122 199 200 197
-0.004092 0.279490 0.086850 24 25 27
0.084610 0.297178 0.030288 252 253 253
-0.005873 0.311076 0.075171 193 193 193
-0.113221 -0.150244 -0.076268 248 249 249
0.038454 0.010708 0.010029 253 254 253
-0.124574 -0.069305 0.026478 29 31 33
0.086955 -0.245762 0.008921 157 159 157
0.090881 0.304804 0.050073 249 250 249
-0.104482 0.188399 -0.109450 29 31 32
-0.015385 -0.293989 0.041283 39 60 147
-0.020598 -0.286916 0.061418 69 81 96
0.085968 -0.165170 -0.026531 252 253 252
0.005582 -0.294185 0.084385 25 28 28
-0.048116 0.247860 0.055084 29 36 104
-0.100106 0.176006 0.072966 23 29 107
0.061922 0.195753 0.044830 253 254 253
0.090731 0.166498 0.037709 250 250 250
0.032960 -0.075731 -0.002963 24 30 95
0.027781 0.335983 -0.030932 208 209 209
-0.101325 0.067469 -0.070418 30 30 32
-0.033992 -0.256177 0.083837 29 31 34
-0.090652 -0.129554 0.092953 26 26 29
0.105038 -0.271843 0.037764 162 162 162
0.109837 -0.239380 0.008606 167 168 167
0.079411 0.101260 0.009357 26 26 29
0.077188 0.333858 0.012036 218 219 218
0.084631 0.372868 -0.003787 248 250 249
-0.098196 0.161745 0.066898 20 27 108
0.024617 0.282599 0.010218 20 20 28
-0.111883 0.020965 -0.024918 27 25 26
-0.046619 0.213739 -0.097116 25 25 26
-0.001695 0.316292 -0.043732 192 190 191
0.059949 0.205231 0.017554 176 176 177
-0.104742 0.113487 -0.087468 29 27 28
-0.000391 -0.313508 0.072591 20 43 120
-0.015750 0.304146 0.052084 186 186 187
-0.052855 0.218716 -0.097894 28 27 29
-0.113026 0.078510 0.077914 240 242 242
0.064049 0.168708 0.028079 253 253 254
0.093020 -0.094913 -0.012026 249 251 249
-0.002677 0.301665 -0.022479 23 25 27
0.059370 0.312309 -0.014773 252 252 251
0.084556 0.285747 -0.024229 208 209 206
0.112735 -0.144723 -0.029437 213 213 210
0.096935 -0.081950 0.009668 251 251 250
-0.115188 0.082969 -0.040618 17 20 101
-0.005846 0.318873 -0.011046 27 26 25
-0.110486 -0.131796 -0.087404 29 28 29
-0.115325 -0.059297 0.025487 227 229 229
-0.035184 -0.286749 0.090031 223 224 224
0.109054 -0.222900 -0.017974 179 180 180
0.065441 0.012433 -0.048613 24 25 27
-0.091462 0.188016 0.095198 171 173 172
0.080585 -0.007518 -0.032979 252 252 252
0.038665 0.221798 0.004614 22 27 76
-0.120320 -0.092855 0.028552 23 24 116
-0.060709 -0.234102 0.085449 28 46 140
-0.124113 0.061910 -0.050894 211 212 212
-0.032545 0.282825 -0.034844 37 39 50
-0.100272 -0.003078 0.073529 245 247 247
0.099511 -0.235829 0.021226 218 220 219
-0.069742 0.229713 0.075199 25 29 96
-0.084174 -0.235855 -0.031401 20 26 125
-0.043239 -0.256319 0.076437 28 32 34
-0.113362 -0.123315 0.079077 247 249 250
-0.123088 0.002852 0.076636 247 248 248
-0.070875 -0.266171 -0.052861 35 45 135
-0.043904 0.276122 -0.078919 28 27 28
0.072472 0.243207 -0.014995 187 189 187
0.042236 0.325689 -0.002395 26 24 26
0.077785 0.037679 -0.018686 250 250 250
0.088885 0.373041 0.006305 250 250 250
-0.041321 0.264080 -0.088141 174 173 173
-0.018054 -0.320525 -0.057941 29 28 28
-0.125135 0.078969 -0.073780 32 35 34
-0.117056 0.123419 -0.072646 32 39 88
-0.105798 0.140649 -0.006276 26 33 109
-0.124745 -0.083448 -0.035408 29 27 30
-0.114639 -0.088195 0.086527 229 230 229
0.107288 -0.178061 -0.020490 26 24 30
-0.110493 0.037714 -0.010247 35 45 77
-0.070730 -0.220337 0.097157 46 66 142
-0.100546 -0.187283 -0.090253 224 225 223
0.055233 0.116869 -0.039823 30 31 32
-0.094949 -0.161037 -0.009085 28 39 127
-0.108142 -0.124537 0.079885 23 27 132
0.062654 0.313843 0.060282 188 188 187
0.033688 0.043505 -0.055288 27 27 29
-0.107097 -0.187794 0.074370 28 28 31
-0.112698 0.101166 -0.006199 22 25 97
0.072867 0.245838 0.051980 252 252 251
0.086984 -0.302951 0.003007 203 204 203
-0.115538 -0.091717 -0.004231 25 26 87
-0.058878 -0.200083 -0.028422 21 31 115
0.091023 0.364914 -0.001822 253 253 252
-0.099740 -0.175060 -0.074190 23 28 121
-0.124154 0.047955 0.034868 30 34 34
0.055316 0.201748 -0.020785 163 164 165
-0.105463 0.054021 0.014882 52 61 70
0.081653 0.247126 0.040344 202 200 200
-0.063740 0.238568 -0.094188 37 36 37
0.063973 0.309314 -0.005180 252 254 254
-0.087936 -0.197614 0.100178 29 29 34
-0.044838 -0.299805 -0.076747 19 24 129
-0.108273 0.126236 0.054619 17 20 116
-0.068844 -0.251513 -0.021336 29 41 134
0.006068 -0.323574 0.003234 44 64 149
-0.125079 0.072328 0.029836 23 29 112
0.029562 -0.349317 0.050053 26 27 27
-0.125611 0.091482 0.087181 199 200 198
-0.120776 -0.077098 0.039499 227 228 227
-0.045573 0.247439 0.095622 168 170 170
0.074214 0.362039 0.042834 222 224 222
-0.108633 -0.034869 0.080100 250 252 252
-0.107740 0.113873 0.029745 18 22 99
0.059497 0.146599 0.031070 23 26 80
0.062384 0.101156 -0.035686 249 251 250
0.069019 -0.004221 0.003132 253 254 253
-0.075833 0.223235 0.093368 165 166 166
0.052622 -0.350591 0.042027 109 124 154
-0.120905 -0.048174 0.080401 237 238 239
-0.060219 -0.273548 -0.084458 216 215 215
-0.051308 -0.240432 0.074887 37 52 131
-0.121323 -0.069730 -0.004228 250 251 251
0.075001 0.237295 0.012326 252 254 253
-0.099212 0.129734 -0.057772 22 28 88
0.090164 0.346313 0.015544 206 206 204
-0.108503 0.101114 -0.023932 18 24 114
0.001954 -0.343681 0.014060 212 213 213
-0.009064 -0.303958 0.067803 34 56 135
0.028137 0.337137 -0.002980 29 27 23
0.054530 0.345368 -0.001389 252 254 252
-0.095780 -0.087686 -0.038584 253 253 253
-0.103867 -0.171209 -0.064418 22 24 110
0.070785 -0.309582 0.026087 253 254 251
-0.042553 0.220885 0.091896 26 26 29
0.055030 -0.351135 0.017348 29 27 29
-0.081884 0.191021 -0.089046 25 29 32
-0.115643 0.131564 0.079053 27 29 29
0.090360 -0.056580 0.002224 252 252 251
0.076995 -0.332694 -0.012596 250 252 250
-0.114005 0.153195 -0.108280 29 32 30
0.079276 -0.210008 0.012537 20 25 80
-0.044600 -0.293161 -0.074728 17 23 121
-0.110486 -0.096492 -0.064456 28 31 30
-0.030983 0.281913 0.067529 29 29 30
0.045455 -0.341311 0.069359 27 27 30
0.077042 -0.362766 0.018269 253 254 255
-0.099831 -0.001682 0.063997 244 246 245
0.058732 0.270081 -0.025204 217 218 217
0.071592 0.185301 -0.017318 172 172 171
-0.105409 -0.029464 0.048047 236 237 237
0.065930 -0.348342 -0.007168 32 31 28
-0.043061 -0.287718 0.014194 38 52 78
0.012832 -0.336130 0.030861 35 55 143
0.068256 -0.329860 0.057133 229 229 230
-0.094993 0.127170 -0.097889 29 27 29
-0.125064 0.011553 0.026990 246 248 247
-0.099586 0.132841 -0.086033 192 192 191
0.034218 0.066025 -0.018996 253 254 252
-0.103551 -0.136009 -0.065602 239 240 241
-0.107811 -0.095514 -0.033504 242 243 240
0.118009 -0.210918 -0.042869 251 250 250
0.048965 0.202634 -0.024327 251 252 251
0.028060 0.320613 -0.005376 21 26 29
-0.083808 0.210841 -0.105157 29 27 36
0.001364 -0.319665 0.036326 31 50 141
0.044647 0.147483 -0.028438 253 254 253
0.086271 0.203116 -0.012557 176 177 177
-0.100005 -0.173116 -0.043332 18 22 127
-0.101432 0.045272 -0.020121 55 78 145
0.092780 -0.330273 0.030913 242 243 246
-0.035666 -0.296127 -0.045200 34 44 140
-0.115189 0.105047 0.056850 18 27 102
-0.097155 0.203957 -0.108230 33 35 36
-0.081238 -0.257040 -0.099812 217 218 219
-0.090950 0.141139 -0.099885 30 28 28
-0.109311 0.098207 0.024396 19 29 99
-0.118597 -0.039122 0.062521 236 237 236
