ply
format ascii 1.0
element vertex 1238
property float x
property float y
property float z
property uchar red
property uchar green
property uchar blue
end_header
-0.102968 0.175620 -0.107895 13 13 13
0.148826 0.289936 0.017022 190 190 191
-0.142085 -0.108668 -0.025437 10 9 119
0.145974 -0.164975 0.005259 254 254 253
0.131502 -0.391184 0.032708 255 255 255
0.012003 -0.346377 0.002088 9 19 124
-0.107390 -0.160699 0.105221 12 13 14
0.126671 0.374904 -0.011125 225 224 223
-0.144414 -0.070238 0.028562 8 6 118
0.034824 -0.073214 -0.014856 253 255 255
-0.006048 0.310442 0.086428 162 160 161
0.104022 -0.388329 -0.010865 12 14 13
-0.139331 -0.082146 0.039210 10 8 122
0.104690 -0.390348 0.065585 188 191 189
0.147057 -0.314371 -0.034754 253 255 253
0.127677 0.400249 0.024023 12 12 13
0.122457 0.259002 -0.018691 252 251 251
-0.118365 -0.204653 0.116751 226 225 225
0.149299 -0.263887 -0.001074 10 9 50
0.031998 -0.138176 -0.030012 10 12 56
0.098911 0.115422 -0.023810 11 12 13
0.134576 0.343646 0.000029 201 201 201
-0.117713 0.119780 0.008851 10 13 70
-0.124548 -0.013673 0.040381 12 13 13
-0.024195 -0.290115 0.113003 14 15 16
-0.127018 0.131873 0.041137 5 7 94
0.047924 -0.380688 0.036164 192 194 194
-0.146624 -0.069313 -0.024268 237 236 236
-0.102116 -0.208288 -0.047611 10 11 124
0.141101 -0.212550 -0.042032 255 255 255
-0.153521 0.051291 0.010853 208 208 209
0.040094 0.352209 0.091553 13 12 13
0.089061 0.180920 0.004500 8 8 60
0.150167 0.405056 0.014882 254 255 253
-0.138045 0.101584 0.026478 9 9 94
-0.133946 0.116218 0.096375 13 13 13
-0.011741 -0.331277 -0.106267 12 12 13
0.128015 0.383346 0.044565 13 12 13
0.139226 -0.340276 -0.020276 255 254 255
0.027329 0.317860 0.098237 12 12 12
0.136386 -0.223770 -0.028756 226 225 225
-0.136593 -0.128245 0.070653 6 9 121
0.154656 -0.243114 -0.029628 216 215 215
-0.006985 -0.334092 -0.038229 7 15 124
-0.138800 0.043472 0.009030 12 13 13
-0.061529 0.277227 -0.118625 13 14 15
-0.086119 -0.235122 0.025945 9 15 122
-0.121634 0.170727 -0.096682 12 13 16
-0.151522 0.030183 0.055454 211 211 212
-0.142560 0.010968 0.055186 12 13 13
0.100465 -0.408939 -0.004026 181 179 179
-0.038048 -0.298988 -0.061389 6 13 129
-0.135700 -0.127660 0.043087 7 8 124
0.138102 0.269759 -0.018489 254 253 252
0.140261 0.352656 -0.028634 253 255 253
0.116382 0.394847 0.058423 253 254 253
-0.074043 -0.216902 0.114904 12 12 14
0.134394 0.234920 0.010559 157 155 156
-0.150290 0.048927 0.073704 207 207 207
0.031750 -0.171439 -0.019804 10 13 72
-0.083427 0.255970 0.106913 158 159 158
-0.054058 -0.275108 0.011915 9 18 124
-0.147372 -0.107744 0.093077 12 14 14
0.008512 0.314251 0.107337 165 165 165
0.071969 0.389947 0.011133 15 13 14
0.126905 -0.366719 0.009351 224 225 225
0.113117 -0.380437 0.004121 190 192 192
-0.128358 -0.160201 -0.084813 8 5 117
0.102003 -0.068963 -0.045370 255 254 254
0.095484 0.112857 -0.078086 6 7 52
-0.022625 -0.314517 0.068353 11 27 129
0.108050 0.080165 -0.076425 15 14 16
0.086059 0.361974 0.024192 11 12 13
0.109511 0.104343 -0.006514 255 255 255
0.057210 0.355164 0.089452 171 172 171
0.119697 0.242800 -0.046290 150 152 150
0.068948 -0.069068 -0.048828 12 12 17
0.153523 0.405315 0.012909 250 250 249
0.107362 0.125945 -0.077965 13 12 14
-0.062204 0.282160 0.096500 14 13 13
-0.107579 -0.202654 -0.023750 12 19 120
0.127852 -0.264142 0.007717 254 255 254
0.140993 -0.382022 0.058398 194 193 194
-0.026233 -0.308313 0.112032 212 212 213
-0.112204 0.195713 0.111222 12 12 14
-0.078792 -0.218609 0.097947 217 216 218
-0.114298 -0.175366 -0.033368 12 16 125
-0.053121 0.246995 0.105981 156 157 156
0.096768 0.101773 -0.076929 13 14 19
0.153084 -0.217417 0.009571 254 255 254
0.044440 -0.360857 0.047671 8 29 130
-0.025010 -0.319816 -0.085817 6 10 124
-0.128242 -0.019964 0.023666 225 225 226
-0.101915 -0.221139 -0.099782 7 6 122
0.068745 -0.362538 0.067090 12 14 13
0.088089 0.159790 -0.044578 253 253 253
0.049910 -0.087500 0.016274 255 255 254
-0.148235 0.036068 0.039498 212 210 213
0.119359 -0.398527 -0.000890 11 12 12
-0.141671 -0.094490 -0.030491 14 12 15
-0.140086 -0.025712 0.034854 13 13 13
0.012350 -0.346713 0.102747 197 199 199
-0.098508 -0.227134 0.030033 8 12 123
0.127497 0.368056 0.032887 221 221 221
-0.109938 0.187425 0.086221 6 12 87
0.104461 -0.006072 -0.036033 251 251 251
0.044473 0.360812 0.083666 11 13 14
0.149300 -0.285052 0.016760 182 182 183
-0.098864 -0.229862 -0.125520 224 222 222
0.144297 -0.388238 0.050195 11 12 13
0.112946 -0.038915 -0.008247 254 255 254
-0.080561 0.227057 0.057404 6 15 63
0.120062 -0.009317 -0.073059 6 5 50
-0.114862 0.170399 0.095017 5 9 93
0.157461 -0.254592 0.023696 162 163 164
0.111004 -0.077144 -0.012266 254 255 255
0.143854 0.379009 0.053499 217 216 216
0.100824 0.051013 -0.019832 6 9 56
0.010668 0.343946 0.066292 13 13 13
-0.107212 -0.206063 -0.005477 6 10 121
0.081910 0.081168 -0.022281 5 7 52
0.131655 -0.415092 0.013269 14 14 15
0.158618 -0.306297 0.039723 204 204 205
-0.149670 -0.011250 0.022790 225 225 225
-0.136290 0.102524 0.004942 9 11 89
0.117094 0.160332 -0.015913 254 254 253
-0.012128 0.303609 -0.096124 11 13 15
-0.101930 0.151123 0.098582 14 13 14
0.048091 -0.176796 -0.016870 6 7 55
-0.120871 0.000871 0.067934 14 13 15
-0.077517 -0.221120 0.117408 226 226 227
0.149124 -0.318738 0.041844 254 255 255
0.144205 -0.187471 0.019382 254 253 254
0.147084 -0.336910 0.002333 177 176 176
-0.135320 -0.145971 -0.098386 15 16 15
0.077202 0.077318 -0.012782 14 15 15
0.151358 -0.227699 -0.057646 151 152 152
0.002195 -0.340088 -0.019622 8 19 125
-0.108625 0.112574 0.104636 191 190 189
0.130017 -0.383836 -0.014099 254 254 255
-0.019338 0.297837 0.109676 15 13 14
-0.116313 0.156981 0.089877 8 12 92
0.147640 -0.381800 0.012437 99 104 103
0.141222 -0.367385 0.056908 223 223 223
-0.065116 0.238211 0.107004 15 14 16
-0.069504 -0.258125 -0.122574 15 14 16
0.095585 0.364051 0.043371 14 11 12
-0.007440 0.314961 0.091191 12 13 13
0.065446 -0.062208 -0.047438 255 255 255
0.126233 -0.156561 -0.063154 255 255 255
0.120710 -0.036384 -0.066348 13 11 15
0.100919 0.150589 -0.004633 253 254 253
-0.130714 -0.149212 -0.092025 11 12 13
0.039350 0.336710 0.004215 7 12 25
0.055124 -0.114988 -0.003220 5 6 59
-0.057137 0.240721 0.115873 13 13 15
-0.041585 -0.291947 0.100813 211 209 211
0.003442 -0.361505 -0.085118 12 13 13
-0.145553 -0.105637 -0.079077 12 12 13
0.126130 0.188630 -0.037806 6 6 49
-0.099528 0.173370 0.111470 172 173 173
0.118787 0.237763 -0.008492 255 255 255
-0.107181 -0.222059 -0.109887 10 8 121
-0.130024 0.102849 0.073354 6 10 104
0.089330 -0.376937 0.032184 191 192 192
-0.127496 -0.147942 0.117555 237 236 236
-0.129054 0.164719 -0.116051 13 14 13
-0.074037 -0.249698 0.096008 215 216 217
-0.141989 -0.030603 0.092745 244 244 244
-0.152390 -0.069319 -0.026885 237 236 235
-0.064113 -0.290896 0.116410 13 14 16
0.145618 -0.291924 -0.041921 255 254 254
-0.014079 0.304663 0.100990 10 11 12
0.112879 -0.246725 -0.012929 252 255 254
0.136174 -0.370300 0.009508 231 232 232
0.062557 -0.123180 -0.031736 253 255 254
0.098492 0.057909 -0.057976 255 255 255
-0.110905 0.170716 0.086170 8 10 96
-0.113238 -0.200625 -0.011652 7 11 121
-0.128888 0.002796 0.023546 217 218 217
0.080609 0.047654 0.007044 4 7 52
0.142602 0.404074 0.047244 200 202 200
0.099023 0.383617 -0.005311 185 184 184
-0.121458 0.077568 0.078919 198 197 198
-0.129996 0.123543 0.084845 6 8 102
0.120881 0.407423 0.015475 11 13 10
0.098278 -0.377629 0.067125 12 11 14
-0.125507 0.137698 0.107125 185 186 186
-0.139853 0.051197 0.024219 13 13 13
-0.036463 -0.285435 0.094591 14 13 15
0.042238 0.328018 0.083721 167 167 165
-0.100062 -0.218560 0.084152 8 15 125
0.136953 0.219057 -0.030714 253 254 253
0.140273 -0.202937 -0.030990 153 153 155
0.096517 0.107721 -0.053383 5 5 51
-0.044534 -0.309346 -0.118139 15 14 16
0.144007 -0.169828 0.013584 253 254 252
-0.115441 -0.162718 -0.091930 14 14 14
-0.139773 -0.130868 -0.068698 13 14 15
0.131206 0.266945 -0.002225 203 201 204
-0.141683 0.070960 0.077873 13 15 14
0.151431 -0.222473 -0.053737 136 137 137
-0.109868 0.221780 -0.103070 151 151 153
0.119337 -0.054540 -0.027072 4 5 51
0.138719 0.343014 0.020424 208 209 207
0.116417 0.378666 0.041916 10 11 12
0.146118 -0.342683 -0.026084 204 206 204
0.131980 -0.277125 -0.039170 172 172 170
0.048828 0.185266 -0.101821 10 6 53
0.119450 0.385270 -0.003812 234 234 234
-0.128010 0.046870 0.005169 13 13 14
-0.120734 0.208108 -0.112884 164 165 165
0.045327 -0.384409 0.004787 192 190 190
0.078831 0.018073 -0.036615 254 253 254
-0.135551 0.019074 0.020491 216 217 217
-0.129421 -0.157280 -0.003821 8 9 122
-0.105086 -0.194156 0.117491 232 232 232
0.124230 0.386882 -0.006316 226 226 227
0.138056 0.219626 -0.000842 12 8 15
0.087194 -0.385258 -0.012249 12 11 13
0.112056 -0.144781 0.000619 254 255 253
0.132376 -0.342807 0.016899 218 218 218
0.074655 0.001647 -0.029373 253 254 253
-0.121335 0.111756 0.084154 189 188 192
0.146863 0.298364 0.014118 253 253 252
0.123856 0.345323 -0.002314 253 255 253
-0.054665 -0.282301 0.043332 7 18 123
0.133058 -0.404749 0.022720 255 255 255
-0.105826 0.192405 0.017106 10 17 63
0.082467 -0.021672 -0.063681 7 5 51
-0.047627 0.287104 0.109075 162 162 162
0.001088 -0.361841 -0.089854 16 13 15
0.100362 -0.028877 -0.006766 255 255 255
0.152948 -0.339438 0.037642 209 212 211
-0.131833 -0.118053 0.090160 14 14 15
0.119049 0.374240 0.001362 229 229 227
-0.130217 -0.036867 -0.000165 232 233 233
-0.025492 -0.325078 -0.101930 203 203 202
-0.041460 0.261854 0.111232 12 11 11
-0.103515 0.202547 -0.107106 153 153 154
0.058038 0.379635 0.015914 183 183 182
-0.086157 -0.247937 0.117599 14 15 16
0.125531 -0.371047 0.021996 231 231 230
0.131765 0.405487 -0.002516 237 238 239
0.147247 -0.385089 0.039825 234 236 236
-0.098933 -0.185516 0.117620 15 16 16
0.038768 0.360902 -0.077523 13 13 11
0.088078 0.000097 -0.065900 13 13 15
0.128343 -0.178731 -0.052644 253 253 253
0.140484 -0.282421 -0.051680 254 255 255
0.073743 -0.390020 0.042919 13 14 15
0.154206 -0.256788 -0.038583 165 165 166
0.146474 0.227537 -0.029155 254 254 252
-0.125032 -0.135991 0.113593 14 12 14
0.051015 -0.385125 0.039573 14 13 14
0.131710 0.250892 -0.036544 145 148 146
-0.023419 -0.301517 0.088316 8 30 127
0.040773 -0.124247 -0.046524 9 10 54
-0.108411 -0.206911 -0.043591 11 12 124
-0.120076 0.150757 0.084018 5 9 96
0.083356 0.123773 -0.075882 8 8 47
0.137102 0.258401 0.023852 173 171 172
-0.125738 0.047898 -0.012006 13 12 14
0.095203 0.141780 -0.076898 5 6 52
-0.097506 0.205357 -0.118005 12 12 13
-0.072775 -0.245618 -0.099387 220 219 221
-0.104738 0.186655 -0.056156 7 11 52
0.084038 0.367556 0.083855 14 13 13
-0.039517 -0.296940 -0.028985 9 19 126
0.078986 0.364277 0.081782 12 14 13
-0.142090 0.073384 -0.025734 12 11 12
-0.023354 -0.350384 -0.097734 13 12 15
0.129820 -0.195578 -0.004385 7 7 54
-0.020785 0.280717 0.090873 12 14 13
0.133916 0.403065 0.032978 6 9 67
-0.126115 0.087315 -0.025765 193 192 192
0.054259 -0.378441 0.080713 12 14 13
-0.079682 -0.252552 0.005694 6 12 124
0.128776 0.341231 0.030167 254 255 254
0.132970 0.171714 0.023940 253 253 251
0.015834 -0.337007 0.095649 10 44 136
0.037789 0.331651 0.072828 12 12 11
0.095993 0.170619 -0.049152 252 252 252
-0.137519 0.136873 -0.091087 13 13 13
-0.093911 -0.224676 0.079670 5 13 123
-0.048886 0.293866 0.101000 11 12 13
0.074438 0.008165 0.006691 5 7 55
0.109255 0.381864 0.005362 15 11 15
-0.131591 -0.139590 0.042133 7 12 121
0.080786 -0.037728 -0.055551 12 13 16
-0.131248 -0.131877 0.109721 251 248 250
0.092287 0.000146 -0.016125 255 255 255
0.066993 -0.009160 -0.018788 254 255 254
0.125259 0.257628 -0.026656 184 183 183
-0.105287 -0.212571 -0.059553 9 10 125
0.137591 0.260025 -0.013906 215 214 210
0.109476 0.366649 -0.006914 178 179 178
0.143842 0.380574 0.009215 254 255 255
-0.002692 0.311583 -0.101634 168 169 170
-0.122825 0.053759 -0.044439 16 17 17
0.037419 -0.362131 0.011085 11 28 129
-0.126613 -0.190074 -0.108337 230 228 228
0.109639 0.096457 0.021183 253 254 254
-0.011157 0.313155 -0.099981 13 13 14
0.152398 -0.257857 -0.011724 170 171 172
-0.065483 0.290168 -0.118123 14 12 13
-0.044553 -0.294247 0.015194 12 22 129
0.128717 0.172509 -0.015373 254 255 255
0.138379 0.338374 -0.025128 251 251 251
0.112413 0.213649 -0.049587 251 252 253
-0.129920 0.063158 -0.031870 15 15 15
-0.094453 0.207242 0.075671 6 13 75
-0.128977 0.150718 -0.106077 13 13 16
-0.126904 -0.068954 0.101488 245 245 245
-0.143757 -0.083786 0.086298 237 239 240
0.147726 -0.191512 -0.059638 12 12 15
0.145598 -0.382735 0.037761 219 219 220
-0.057227 0.264424 0.000597 8 13 43
0.119134 -0.067746 -0.043731 6 7 51
-0.136137 -0.103884 -0.072427 245 245 245
-0.125139 0.166279 0.029316 9 14 79
0.051542 -0.387449 0.060546 187 186 187
-0.074675 0.262409 0.100461 155 157 157
0.152568 -0.243272 -0.036556 205 206 206
-0.090845 0.248717 -0.112894 13 12 14
-0.068693 -0.312669 -0.121075 204 205 204
0.123251 0.410867 0.011776 5 4 53
-0.140495 -0.048119 0.045410 13 12 14
-0.112790 -0.248575 -0.121160 217 218 216
-0.028796 -0.311000 0.111807 205 206 205
-0.052619 0.269617 -0.126271 155 156 155
-0.123469 -0.112423 -0.054819 232 230 231
-0.135243 0.119525 -0.066415 12 18 60
-0.101154 0.194499 0.104586 154 155 152
-0.136521 0.097838 0.083299 15 15 15
0.037223 -0.363084 0.000081 6 20 129
0.120251 0.134546 0.019102 254 254 254
-0.125236 -0.125638 -0.077456 13 14 13
0.117434 -0.082003 -0.066517 12 14 19
-0.105333 -0.197600 -0.061306 7 7 123
0.149184 0.298925 -0.001654 253 254 253
-0.085713 -0.248013 -0.081204 9 8 123
-0.012007 0.329896 -0.082459 11 11 13
-0.139317 0.118040 -0.043191 9 18 67
-0.138371 0.091436 0.030790 6 7 102
0.126784 -0.378022 0.017389 225 225 225
-0.100798 -0.227535 -0.117471 7 7 123
-0.145167 0.066104 -0.004742 199 197 198
0.124595 0.379820 0.011265 9 9 11
0.102430 -0.389225 0.069399 13 14 15
0.128135 0.183860 0.008974 7 7 55
0.157006 -0.333605 0.002105 245 245 245
0.133456 -0.400808 0.056175 12 12 14
-0.058748 0.266599 -0.073967 4 8 20
-0.116060 -0.189226 0.079735 7 11 120
0.052448 -0.175713 -0.045655 252 252 252
0.101240 0.164414 0.003303 255 255 255
0.147226 0.317342 0.003086 251 252 251
0.114650 0.006998 -0.047468 253 253 253
0.105601 -0.376696 0.072612 188 189 190
-0.155092 0.046725 0.043115 12 14 14
-0.047676 0.252900 0.101485 156 158 156
0.167653 0.397378 0.044965 190 191 189
-0.139316 0.045604 -0.022529 14 14 15
0.114992 -0.405050 0.043050 179 177 179
0.144754 0.262060 0.042762 169 168 168
-0.141495 0.088861 0.029807 9 10 102
0.147372 0.352087 -0.022390 209 209 210
-0.126720 0.129386 0.090434 14 15 15
-0.044584 -0.314182 -0.098168 14 16 17
0.122373 -0.201935 0.002945 11 14 58
0.097724 0.110710 -0.058765 255 254 255
-0.127726 -0.031088 0.013325 225 224 225
0.128052 -0.385973 -0.006649 255 255 255
-0.118715 -0.173509 -0.040088 7 9 121
-0.084923 -0.251213 -0.005595 9 13 121
0.043047 -0.036184 -0.000662 254 255 254
-0.007025 -0.327702 0.045939 10 28 125
0.114062 0.379339 0.029166 14 14 12
-0.148510 -0.088401 0.099569 230 230 230
-0.053801 -0.291993 0.056736 11 24 126
0.036871 -0.348326 0.101140 13 14 14
-0.091573 -0.277293 -0.129694 214 214 214
-0.113517 0.177567 -0.012596 9 15 59
0.133371 -0.042766 -0.055701 255 254 254
-0.142124 -0.096263 0.012760 8 6 117
-0.121093 0.135832 0.107423 13 15 16
0.137383 -0.363505 -0.029863 255 254 255
-0.140377 -0.079246 0.013004 10 8 118
0.072207 0.366298 0.081829 10 11 12
0.134030 0.422673 0.020855 250 247 250
0.047987 -0.351626 0.082502 11 11 14
0.009749 0.326117 -0.091032 166 166 167
0.137562 0.241823 -0.010423 7 9 51
0.050446 -0.369845 0.021370 8 29 126
-0.124111 -0.136428 -0.084224 239 238 238
-0.101727 0.239699 -0.115141 12 11 15
0.137901 -0.396495 -0.019800 253 254 252
-0.058417 -0.277985 0.015545 10 19 126
0.154565 0.288615 0.029926 254 253 253
0.033042 -0.166284 -0.032438 253 255 255
-0.143173 0.097115 -0.046424 189 190 190
0.127458 0.199121 0.011675 254 255 255
0.124711 -0.057563 -0.040155 254 255 254
-0.106816 -0.154188 0.114878 15 13 15
-0.017004 -0.327204 0.111620 202 201 201
-0.122198 -0.227664 -0.107423 220 220 218
0.115372 0.216214 -0.020505 255 255 254
0.142934 0.197932 0.020347 254 254 254
-0.102938 -0.211210 0.027900 7 11 121
-0.128802 -0.031390 0.022106 224 224 224
0.023719 -0.353750 0.074622 200 202 200
-0.144761 -0.050969 0.100639 15 16 15
0.151271 -0.387600 0.059112 122 123 119
0.071605 -0.380527 -0.021484 10 24 125
0.120153 0.180930 -0.027302 5 7 51
0.059604 -0.392678 0.040702 14 16 16
-0.123046 0.119304 -0.090216 14 13 14
-0.007451 0.305488 0.012056 6 13 34
0.108330 -0.073413 -0.043593 4 4 49
-0.104864 0.203939 -0.025167 9 16 47
-0.057334 -0.254040 0.117840 214 214 215
0.138117 0.401100 0.037276 8 6 53
0.131535 -0.407911 -0.009160 115 115 102
0.074827 0.376079 -0.028781 184 184 185
0.137370 -0.340766 0.059156 254 253 255
0.131609 -0.357649 -0.014395 221 222 222
0.133733 0.310326 0.014856 201 198 199
0.175234 0.389809 0.031466 200 201 199
-0.134381 0.110730 0.016845 10 10 91
-0.138163 0.105865 0.076421 5 7 105
0.141789 -0.410876 0.031235 175 175 174
-0.145175 0.001369 0.067064 219 219 219
0.038059 -0.371488 0.002209 12 14 13
-0.110957 0.175297 0.119581 14 14 16
0.060264 0.349932 0.073055 11 11 11
0.068623 -0.379963 -0.016550 192 192 192
-0.037107 0.286147 -0.106794 11 12 13
-0.137609 -0.106366 0.019269 6 8 119
-0.156939 0.025775 -0.006879 12 12 13
0.090942 0.119125 -0.000526 255 255 254
-0.125450 0.155576 -0.037478 4 10 56
-0.143261 0.075055 -0.063874 202 201 202
0.070058 -0.394712 -0.028659 186 187 187
-0.139267 -0.098117 0.078040 6 6 119
-0.100368 -0.201456 0.076404 7 13 124
0.088318 0.003112 0.019460 254 253 252
-0.035415 -0.298611 0.096937 206 208 207
-0.120148 0.162054 0.050786 6 12 86
0.152696 -0.304244 0.013481 253 254 255
0.124228 0.343079 0.047397 215 214 215
-0.126266 0.010598 0.016606 224 224 225
0.125843 -0.282291 -0.014534 255 255 253
0.090229 -0.057247 -0.049757 254 255 253
0.135113 -0.383786 0.027630 253 255 254
-0.024312 0.291003 0.001305 4 13 33
0.133021 0.388927 0.017703 11 11 12
-0.008583 -0.306858 0.096310 203 205 204
0.085479 0.129468 -0.062755 253 254 253
0.117366 -0.390800 -0.020164 252 255 255
0.012342 0.313985 0.086399 13 14 15
-0.080809 -0.254268 -0.115708 13 12 14
-0.148772 -0.097913 -0.026353 5 8 111
-0.130643 0.143970 -0.029505 6 12 63
-0.089774 -0.252914 0.117371 218 220 219
0.152541 -0.219442 0.012019 252 253 252
-0.131231 0.036226 0.007736 13 12 14
0.138662 0.277942 0.041811 185 185 185
-0.055723 -0.294977 -0.109457 9 7 125
0.105208 0.052645 -0.080587 14 14 14
-0.108656 -0.203636 0.053280 8 12 121
0.054405 0.358579 -0.037922 11 13 14
-0.123938 0.073237 -0.053083 199 199 200
0.102027 0.156278 -0.072370 254 255 255
0.000345 -0.340846 -0.069727 9 13 123
-0.105949 0.191640 0.093323 10 13 14
0.124425 0.297014 0.016845 254 255 255
0.155749 -0.359424 0.039202 255 255 255
-0.141900 -0.149540 -0.082371 12 12 13
0.133447 0.247958 -0.023882 160 161 161
-0.063070 -0.259272 -0.018176 8 16 125
0.110943 0.227036 -0.009376 255 255 255
-0.015257 -0.327891 -0.039569 9 14 128
0.107770 0.171214 0.025814 255 255 255
-0.039187 -0.290330 0.086294 10 28 128
-0.122940 -0.123078 -0.047148 13 14 16
0.126458 -0.383559 0.033556 189 188 190
0.108206 0.091516 -0.010260 253 254 253
-0.111870 0.169695 0.097465 177 178 179
0.061469 0.372757 -0.031121 12 13 13
0.096618 0.383992 -0.022379 14 13 13
0.111276 0.344980 0.040422 11 13 15
0.130752 0.221056 -0.041277 158 157 159
0.082777 -0.380393 0.026954 11 38 137
0.134216 -0.207905 -0.043629 149 151 150
0.057792 0.372463 0.013828 13 14 13
0.148978 -0.286380 0.041770 255 253 255
-0.120053 0.093476 0.085495 13 12 14
0.131347 0.381230 0.053298 254 254 254
-0.084299 0.230891 -0.116632 11 12 16
-0.150696 0.036490 -0.008993 213 213 213
-0.139868 0.082162 0.027611 6 7 98
-0.141303 0.019489 0.080068 12 14 14
-0.148182 -0.005231 0.048481 14 13 14
0.075225 0.360435 0.019562 11 13 14
0.149472 -0.296517 0.011339 253 254 254
0.136481 0.427391 -0.013624 254 254 254
0.114442 -0.385174 0.000241 12 13 12
0.128090 0.300967 0.015879 254 254 253
-0.103523 0.203525 -0.118083 161 163 162
0.083987 -0.053379 -0.040759 9 9 57
0.069035 -0.035501 -0.013018 6 7 54
0.056799 0.188578 -0.100650 11 13 14
0.130165 -0.383099 0.056895 253 255 255
0.125856 -0.070217 -0.021304 253 253 253
-0.139023 0.123451 -0.059992 186 186 186
0.128082 0.216857 0.036528 5 5 52
-0.042531 -0.288610 -0.100067 11 10 121
0.146293 -0.203411 0.029517 7 7 54
-0.080694 -0.304443 -0.124125 204 205 206
-0.139819 -0.023256 0.049519 221 220 221
-0.090133 -0.232047 0.059786 5 13 121
0.121941 0.200217 0.002623 252 253 253
-0.140717 0.062679 0.002132 13 14 14
-0.133599 0.096093 -0.022711 9 11 66
0.007532 0.329884 -0.102864 12 11 14
-0.121385 -0.203244 -0.108175 12 12 13
-0.137214 0.079836 -0.012744 12 11 11
0.153011 -0.304753 -0.031889 190 190 189
-0.084442 0.220326 0.088142 5 11 75
-0.023072 0.296444 -0.041328 8 12 25
-0.017880 0.302538 -0.087155 10 14 15
0.044910 -0.164102 -0.021918 6 7 57
0.026162 -0.128776 -0.048851 255 255 255
0.120324 0.207851 0.020866 154 154 155
0.134380 0.320931 0.039900 255 254 253
-0.106140 -0.240400 -0.125692 15 16 14
-0.122242 0.003345 0.035159 215 215 216
-0.119607 0.161505 0.085391 5 10 94
0.041816 -0.347684 0.098282 13 12 15
0.151901 -0.362020 0.003017 228 227 229
-0.131489 -0.131681 0.055824 7 8 119
0.105511 0.120253 0.020821 253 254 252
-0.102604 0.198378 -0.014602 5 15 52
-0.140458 0.062974 0.062410 9 10 107
-0.132408 -0.115979 -0.033410 9 9 118
-0.034470 -0.311640 0.111559 11 12 13
-0.086881 -0.234799 0.030571 6 14 124
0.130454 0.346435 0.028449 216 216 215
0.144777 -0.181731 -0.019860 233 234 234
0.070420 0.376981 0.006489 110 111 110
0.042671 -0.114290 -0.012215 5 9 60
0.087836 0.359422 0.028523 176 178 176
0.127522 0.400852 0.052160 12 10 11
0.007917 0.319270 0.036259 7 13 29
-0.038407 0.281800 -0.041070 5 11 28
0.138975 -0.349788 -0.034874 252 255 252
0.119944 0.384130 -0.024564 14 14 11
-0.087366 0.223915 0.009644 9 16 49
-0.125356 0.005533 0.035735 12 13 14
0.125094 0.219904 0.045251 255 254 255
0.155134 -0.401790 0.037048 14 13 13
0.013416 0.329771 -0.103879 176 176 177
0.131727 -0.390702 0.048564 187 189 189
-0.072146 -0.256594 -0.075827 12 12 124
0.149760 0.409559 0.051837 255 254 254
-0.140912 -0.080629 0.000699 7 7 116
0.063117 0.347625 0.060006 13 13 13
0.125961 0.309052 -0.004236 255 254 254
0.096833 -0.387703 0.058662 41 67 141
0.122019 -0.359642 0.011860 244 245 244
-0.120988 0.185330 -0.098730 13 14 15
0.105473 0.185766 -0.022012 14 11 14
0.057424 -0.065904 0.012525 6 9 56
-0.134338 -0.128498 0.009767 10 8 121
-0.132449 0.131001 -0.098762 12 12 13
0.149156 0.374207 0.007868 253 254 254
-0.002423 0.305839 -0.106698 14 12 13
-0.138621 0.039283 0.091028 16 17 17
0.010341 0.320827 0.012968 6 13 27
-0.033299 -0.315741 -0.011620 11 20 126
0.102640 0.079216 -0.043435 254 255 255
0.120155 -0.257839 -0.037990 252 255 253
0.154332 -0.340016 0.020213 205 207 207
0.156461 -0.259859 0.019085 147 149 147
-0.058887 0.257759 0.032966 5 14 47
-0.129244 -0.068378 -0.013632 234 231 232
-0.084903 0.208537 0.115639 12 11 14
-0.032838 0.282693 0.113704 14 12 13
0.129513 -0.370624 0.008370 254 254 252
-0.037351 -0.299723 -0.048302 11 17 130
-0.056200 0.268485 -0.017059 7 14 34
-0.047554 -0.294456 -0.033137 6 12 129
0.159693 -0.356653 0.026797 233 232 232
0.149336 -0.242065 0.026627 255 254 254
-0.151066 -0.014197 0.014740 252 254 253
-0.067266 0.285308 -0.120175 13 12 14
-0.133915 0.095570 0.083858 5 8 102
0.119620 0.413183 0.020513 14 12 69
-0.149104 0.006363 0.021211 19 20 20
-0.146335 0.031979 0.066482 12 12 13
-0.138198 0.140825 0.104539 182 183 182
-0.026104 0.310649 -0.110734 164 164 164
-0.131747 -0.065791 -0.032900 13 12 14
0.097533 -0.126004 -0.013980 7 7 50
-0.075505 0.230095 0.099038 6 13 72
-0.139160 0.104846 -0.054496 9 14 68
-0.132071 -0.076970 -0.020718 14 15 16
-0.125761 0.094686 0.104333 14 14 14
-0.125208 -0.153789 0.117125 12 13 13
-0.129550 0.052519 -0.002315 203 202 203
0.128925 -0.230503 -0.061070 251 250 252
-0.145446 0.043659 0.066730 12 13 14
-0.021184 -0.324552 -0.106817 13 13 16
-0.125475 0.058045 0.035367 14 15 15
0.096836 0.035545 -0.022344 6 6 53
0.048576 -0.050262 -0.029126 10 10 60
-0.057334 -0.271127 0.074790 9 24 125
0.025881 0.329834 -0.024183 9 12 18
-0.103114 -0.206191 -0.121326 14 15 15
-0.102687 0.237584 -0.116029 12 13 15
0.038402 -0.364426 0.052329 13 38 130
-0.144140 0.077626 0.096810 197 196 197
0.005798 0.345157 -0.112691 173 174 171
-0.127485 -0.019912 0.067357 224 224 226
0.143464 -0.232314 -0.012282 141 142 140
0.118120 -0.381877 0.048207 189 190 190
-0.113609 0.179454 0.098351 168 171 170
0.023123 0.326757 -0.101867 180 179 180
-0.118747 0.008908 0.071395 13 16 16
0.010632 -0.350482 -0.014393 10 18 127
-0.145599 -0.050449 0.090220 15 14 15
-0.101645 0.164682 0.111488 12 12 13
0.127999 0.356324 -0.040745 219 218 218
0.115352 -0.160391 -0.064081 13 12 15
-0.000181 -0.337061 -0.009180 9 23 132
-0.145651 0.074757 0.088044 13 14 15
-0.084179 -0.273051 0.119585 13 14 16
0.115025 -0.163726 -0.047708 252 251 251
-0.039424 -0.297203 0.090523 14 15 16
0.088646 0.376612 0.059398 11 12 13
-0.132310 0.172198 -0.089763 15 16 17
0.149510 -0.345747 0.055716 215 215 216
0.106962 -0.391901 0.006362 12 13 14
-0.068029 0.210950 0.098596 169 168 167
0.038839 -0.125747 -0.038903 13 13 18
0.055343 0.344165 0.095120 14 14 13
-0.104488 0.151043 0.089109 11 15 32
-0.123842 0.149798 0.018115 6 9 72
-0.119042 0.152728 0.093125 15 16 16
-0.096934 -0.256645 -0.109374 14 13 15
0.110166 0.124588 -0.003192 255 255 255
0.037093 -0.370105 -0.038886 11 18 126
0.150688 0.422280 -0.004819 236 235 235
-0.133856 -0.109122 0.059435 7 10 121
0.130582 -0.392264 0.059374 236 237 236
0.083792 0.354285 0.084108 176 175 176
-0.097290 -0.228739 -0.029863 8 13 127
0.135101 -0.153669 -0.060816 254 254 254
0.073317 0.360920 0.027374 7 10 13
-0.015671 0.324846 -0.105007 13 14 15
-0.068974 0.234493 0.087155 6 16 57
0.108375 0.388616 -0.021553 255 255 255
-0.134364 0.116505 0.041781 5 8 99
-0.119203 0.048208 0.015053 208 207 205
-0.134894 -0.204095 -0.110849 13 15 13
-0.136971 -0.130327 0.030644 9 10 119
0.124422 -0.385882 0.040902 254 255 252
-0.139634 -0.163350 0.103219 13 14 15
-0.125931 0.158798 -0.056063 9 14 49
0.107728 -0.135449 -0.070237 8 5 57
0.102627 -0.115381 -0.063562 255 255 255
0.103678 -0.003845 -0.065759 13 12 15
0.034582 -0.071256 0.005024 255 254 254
-0.044769 0.310340 -0.110721 168 167 168
0.134269 0.221885 -0.014913 254 255 254
-0.001327 -0.341118 -0.047509 6 17 126
-0.057983 -0.257007 0.100627 214 213 213
0.080284 0.209229 -0.098729 255 255 253
-0.006529 0.305832 0.004795 6 13 32
0.075726 -0.377598 0.053098 14 42 136
-0.132833 -0.106445 0.100518 14 13 15
0.137973 -0.158892 0.003013 12 13 16
-0.109705 -0.203186 -0.063873 10 9 120
-0.067700 0.287513 -0.123915 158 158 158
0.149711 -0.391895 0.002238 254 254 255
0.142337 -0.188839 -0.035317 238 237 237
-0.125803 -0.014818 0.052748 221 223 220
0.136879 0.379773 0.023709 252 252 252
0.105922 0.359209 0.072511 178 177 177
-0.054849 -0.288511 -0.064554 10 13 125
-0.125738 -0.099856 -0.069921 14 13 14
0.108559 0.044599 -0.067504 6 6 46
-0.030831 -0.305362 -0.007701 6 15 123
-0.139474 -0.012722 0.094542 13 13 14
0.117188 0.200898 -0.037580 7 5 51
0.151214 -0.354364 0.016162 208 208 208
0.148148 -0.384255 -0.007664 232 233 233
-0.127157 -0.085855 0.084997 250 250 248
-0.125441 -0.083214 0.086370 13 11 12
-0.120339 0.106875 -0.080662 13 14 14
0.114425 0.397705 0.003462 13 12 12
0.094408 0.124348 -0.042398 254 255 254
0.154961 0.319715 0.018859 170 168 169
-0.124034 0.071467 0.095301 14 12 14
0.137654 -0.239422 -0.005692 158 159 160
0.151800 -0.343786 -0.011098 254 254 255
-0.081339 -0.237716 -0.098125 12 10 119
-0.012547 -0.321731 0.021607 9 24 125
-0.015172 -0.323665 0.114928 205 205 204
-0.088309 -0.223639 0.103509 11 12 13
-0.102683 -0.197222 -0.106031 12 12 14
-0.054433 -0.289819 -0.058002 8 11 125
-0.127665 -0.105021 0.109610 242 241 243
0.124171 -0.419544 0.009922 236 237 237
0.136950 -0.115295 -0.041280 251 250 251
-0.039180 0.279066 -0.067539 11 14 26
0.140515 0.404978 0.041014 253 252 252
0.074510 0.375623 0.025204 13 14 14
0.053811 -0.089937 -0.006623 5 5 54
0.142739 -0.232595 -0.045021 168 169 170
-0.086944 0.232525 -0.066202 5 8 31
0.071972 -0.393039 -0.027608 185 187 187
0.078147 0.011142 -0.023251 254 255 255
-0.087599 -0.222509 0.082774 9 17 122
0.049219 -0.376903 0.043263 194 195 196
-0.077252 0.247909 -0.047149 6 13 30
0.138425 -0.265119 -0.029140 179 180 180
-0.123004 0.059504 0.080896 13 13 14
-0.004820 -0.333546 -0.013376 9 22 130
0.066938 -0.020333 -0.039505 11 11 13
0.153262 -0.300285 0.002191 200 203 203
-0.057798 0.258940 0.055603 9 16 53
0.147292 -0.235804 0.032983 172 172 172
-0.151779 -0.054887 -0.008325 232 231 231
-0.113578 0.167673 0.086792 5 10 92
0.057802 -0.380768 0.068911 11 12 13
0.063806 0.372859 0.005718 12 14 14
-0.044879 -0.322766 -0.115346 11 12 12
0.129252 0.396191 -0.011102 14 14 12
0.070937 0.019287 -0.064486 255 255 255
0.133797 0.214909 -0.024048 7 7 53
-0.036369 0.286868 0.081716 7 14 55
-0.057019 0.247472 -0.118524 160 159 159
0.132964 0.340825 0.049016 198 198 197
-0.067448 -0.272023 0.022165 9 17 122
-0.093741 -0.218587 -0.002921 10 15 126
-0.104804 0.208820 -0.025883 9 17 45
0.059647 0.349398 0.090649 12 12 14
0.135364 0.314009 0.041021 254 254 252
0.040990 -0.074298 -0.013307 254 255 255
0.128131 -0.409734 -0.009350 233 234 235
-0.085335 -0.241958 0.098167 213 214 215
-0.130024 0.097434 -0.051599 13 14 15
-0.013058 0.303003 0.073031 8 17 46
-0.093727 -0.231281 0.058860 6 12 123
0.017009 -0.339561 0.076804 7 34 130
0.161434 -0.401002 0.050270 184 183 184
0.154672 -0.255005 -0.000153 170 171 172
0.021796 0.349585 -0.076625 13 13 13
-0.142175 -0.102372 -0.037568 12 12 14
-0.105792 0.187153 0.100808 10 16 87
0.113751 0.179446 -0.001521 254 255 255
0.125499 0.153332 -0.039147 13 11 14
-0.127274 -0.042931 0.048456 12 13 13
0.135417 0.424272 0.009823 246 244 245
0.142743 0.397586 -0.006656 253 253 253
-0.129519 0.140378 0.006228 5 9 83
-0.138998 0.129148 -0.072196 13 13 14
-0.120880 -0.161722 0.001480 9 10 120
-0.134378 0.148134 0.107734 14 15 16
0.162742 0.401467 0.026890 196 194 194
0.127222 0.263591 -0.001490 162 161 161
0.146134 -0.318808 0.020401 191 193 191
-0.139667 0.113789 -0.051951 13 12 14
0.044471 0.330459 0.089377 10 11 11
-0.011750 -0.322297 -0.097150 207 207 206
0.122804 0.240372 0.031670 254 255 255
0.116372 0.151009 -0.057802 254 254 254
-0.128836 -0.161967 -0.011047 7 9 119
-0.134574 0.141961 0.090910 181 180 181
0.145653 0.274546 0.010151 249 250 251
-0.048239 -0.318655 -0.116673 205 205 206
-0.132497 0.131757 0.011539 10 14 88
-0.129845 0.001059 0.020025 218 219 220
0.139144 -0.150075 0.007756 253 253 253
-0.073196 -0.244470 0.079307 5 16 127
-0.086401 0.251203 -0.132742 13 13 12
-0.137705 0.145339 -0.093242 14 13 13
-0.034886 0.284893 -0.078183 6 12 23
0.149095 -0.277516 -0.034568 252 253 253
0.052494 -0.050630 -0.014923 255 255 254
0.035803 -0.164555 -0.045542 8 8 48
0.116753 -0.387813 -0.001932 193 194 194
0.135136 0.298331 0.057724 254 254 254
-0.046766 -0.303940 -0.116468 12 14 15
-0.089847 0.226598 -0.119717 158 158 159
-0.145354 -0.010374 0.046851 220 220 219
-0.132835 0.117262 0.012037 11 15 88
0.108997 0.180164 0.021432 4 6 53
0.084753 0.382448 0.069723 12 11 11
0.083871 0.111761 -0.071562 12 13 14
-0.025394 0.320710 0.109689 162 163 161
-0.049050 0.295501 0.109703 154 155 155
-0.022520 0.301556 0.101880 158 159 157
-0.081470 0.202350 0.116628 162 165 165
0.050776 0.367631 -0.047571 181 181 181
0.046897 -0.078499 0.010452 9 10 63
-0.089689 0.206160 0.038985 9 14 63
0.149717 -0.241592 -0.046862 147 145 144
0.019983 0.347461 0.096770 171 172 171
-0.073433 -0.245426 -0.122464 15 14 15
-0.063491 0.289578 -0.116176 18 18 17
-0.143603 -0.073892 0.023715 7 5 115
0.000901 0.332970 -0.104225 13 12 12
-0.146800 -0.056887 -0.001600 14 15 15
0.037392 -0.194784 -0.037215 254 255 255
-0.138664 -0.138260 0.095300 235 236 236
0.125499 -0.329328 -0.031196 198 198 199
0.149540 -0.214844 -0.007923 251 252 253
0.143342 -0.393748 0.012983 255 255 255
0.100165 0.094941 -0.007639 4 6 53
-0.019537 -0.325041 -0.104418 204 204 203
0.055252 0.372151 0.019426 179 178 179
-0.087050 0.269220 -0.110835 154 156 155
0.109490 0.137476 -0.073561 13 13 15
0.121519 -0.235720 0.020221 9 14 66
0.045366 -0.362946 0.092588 12 14 15
0.126016 -0.275854 -0.021790 254 253 253
0.144306 0.309672 -0.016331 253 253 253
-0.078252 -0.253590 0.052211 9 17 124
-0.130015 0.108195 -0.067461 190 191 191
0.023484 -0.373168 -0.048350 14 15 15
-0.095849 0.224600 -0.115719 154 155 151
-0.150653 0.031720 0.072696 14 12 14
-0.019953 0.294522 -0.003655 7 13 32
0.104485 0.074308 -0.069951 13 13 16
-0.117177 0.088816 0.083776 191 192 193
-0.050173 0.268601 0.089607 5 14 60
-0.071533 0.275218 -0.122638 159 159 161
-0.128931 0.135540 0.070382 8 11 95
-0.120831 -0.170058 0.047204 7 11 121
0.105192 0.065287 -0.058194 13 12 14
0.121642 0.391131 -0.009793 228 229 229
-0.095872 0.209621 -0.113415 12 13 13
0.058554 -0.372725 -0.018485 193 193 192
-0.116333 0.121222 -0.070892 192 193 194
-0.124197 -0.155221 0.087191 7 15 124
0.126309 0.351049 0.022847 215 216 216
0.128721 0.335730 0.009444 198 198 198
0.146856 -0.231313 0.025673 255 255 254
-0.083519 0.214158 -0.111266 14 12 14
0.024745 -0.367123 -0.080175 192 192 193
-0.099043 0.232470 -0.125761 14 15 15
0.130565 -0.396777 0.014400 255 255 255
-0.014232 0.316996 -0.087596 162 163 160
-0.129267 0.151588 0.097445 15 18 17
-0.132224 -0.175219 0.103194 12 14 16
-0.153251 0.027498 0.020241 213 213 211
0.156558 0.376620 0.041480 254 253 253
-0.148553 0.024006 0.042819 213 214 214
-0.095392 -0.226908 0.120944 219 222 222
-0.129034 0.052953 0.015433 201 202 202
0.107855 -0.056040 -0.058057 255 255 255
-0.058294 0.272388 -0.111971 155 156 155
-0.061407 -0.274184 -0.059251 11 13 126
-0.123934 -0.061084 0.078437 234 235 235
-0.050257 -0.286852 0.069365 8 22 124
0.139152 0.362669 -0.014977 254 254 252
0.107054 -0.009064 -0.054764 8 7 52
-0.081929 -0.238360 -0.037199 7 12 124
-0.129770 -0.052541 0.014000 12 15 13
-0.126372 -0.165063 -0.041951 8 10 120
-0.146473 -0.012900 0.041722 255 255 255
-0.070843 0.222131 0.098918 10 17 87
-0.087699 0.215607 -0.004880 6 14 48
0.133173 -0.323440 0.004634 254 254 253
0.007074 0.332212 0.099994 13 12 11
0.152851 0.374117 0.017215 213 213 213
0.137019 -0.277752 -0.019057 174 175 175
-0.120780 0.059624 0.091928 203 204 205
-0.115303 -0.131768 0.114335 237 235 236
-0.114157 0.168156 0.077756 9 14 88
0.128359 -0.379207 0.045129 253 255 254
0.130320 -0.391630 0.014057 255 255 255
0.076561 -0.394583 0.041885 188 188 188
0.095976 0.120807 -0.042694 254 254 255
0.129679 0.340006 0.060169 213 213 210
0.149975 -0.395538 0.061837 12 12 15
0.146562 0.271263 -0.003850 255 255 254
0.045160 0.343571 -0.013876 6 10 15
0.133054 0.277757 0.041120 253 253 252
0.122305 0.399890 0.016048 200 201 199
-0.113433 0.201800 -0.111830 14 14 16
0.013018 -0.173878 -0.012627 6 6 57
0.147250 0.415146 0.018836 241 241 241
-0.130648 0.112596 -0.093040 14 14 15
0.101224 0.069135 -0.052652 254 255 255
0.067095 0.371409 -0.014606 179 182 183
0.151871 0.377222 0.024632 218 220 219
0.121085 0.172638 -0.031735 6 6 52
-0.048728 -0.289229 0.114366 208 208 209
-0.117733 0.156602 0.078852 8 9 94
-0.138045 -0.130014 -0.040969 6 7 119
0.099642 0.085398 -0.000551 5 6 52
-0.088261 -0.233770 0.046914 5 18 122
0.148196 0.379041 0.030522 253 254 254
-0.158371 -0.058609 -0.020784 229 228 229
0.093624 -0.398182 -0.020199 185 186 186
0.128837 0.287372 -0.001433 180 179 179
-0.124921 -0.153600 0.097055 15 16 16
0.083261 0.031167 0.009345 4 5 52
0.031377 -0.374926 -0.052585 191 192 193
0.114734 0.215296 -0.058498 254 255 252
0.102737 0.013036 -0.044077 255 255 255
-0.155060 0.027756 0.022261 14 14 15
0.126678 -0.387003 0.023588 253 253 253
-0.142941 0.032802 0.074790 212 213 213
0.012624 0.339473 0.073487 16 11 15
0.078858 0.379900 0.067527 191 192 190
-0.089343 0.210631 0.095652 13 14 14
0.081885 0.394868 -0.027248 13 12 13
-0.145651 -0.019884 0.091620 13 14 15
0.031542 -0.375621 0.063337 189 191 190
-0.137224 0.098101 -0.014709 10 11 81
-0.134024 0.118965 0.090124 14 15 15
-0.130245 0.040402 0.094642 15 13 15
0.074901 0.356696 0.013076 7 5 10
-0.044157 -0.296045 0.082830 8 24 127
-0.020487 0.334089 -0.108071 12 13 14
0.158996 0.396436 0.062943 223 223 226
0.079501 0.027581 0.021433 255 255 255
-0.130159 -0.154221 -0.021079 7 7 121
0.158394 0.418872 0.008946 255 254 252
-0.150909 0.067630 0.086025 202 202 200
-0.144898 -0.114320 -0.082181 16 12 15
0.100879 0.395479 -0.018378 13 12 12
-0.081599 0.237634 -0.089919 9 12 20
0.058227 0.361416 0.079869 12 12 12
-0.058803 0.256082 -0.100649 7 7 17
0.112950 0.119232 -0.021432 253 254 254
0.061645 -0.356478 0.064284 195 196 196
0.042390 -0.370920 0.050575 15 40 137
0.106740 -0.394323 -0.001797 13 14 15
0.083687 0.111878 -0.071687 7 7 56
0.106295 -0.377299 0.044086 11 12 13
-0.090152 -0.227014 0.031723 10 18 127
-0.039784 -0.333397 -0.115210 14 16 13
0.159597 0.414160 0.027945 255 254 255
-0.149502 -0.157430 -0.103473 13 15 14
0.118758 0.240929 -0.000531 255 255 254
-0.139799 -0.047648 0.058529 227 227 228
0.145012 0.354873 -0.002701 202 203 203
0.003689 -0.173158 -0.046181 253 253 253
-0.127795 -0.061534 0.089352 11 12 13
-0.109225 -0.203879 0.101402 230 230 230
0.091193 0.118131 -0.080747 254 255 254
0.137028 -0.185515 -0.043395 7 10 58
-0.121643 -0.178561 0.015585 9 11 120
-0.023500 0.319870 -0.099865 12 12 14
-0.032714 -0.283200 0.099552 29 46 85
0.117880 0.156261 -0.060875 254 255 255
-0.072280 0.237355 0.075723 6 11 62
-0.133485 0.150585 0.099002 13 14 13
0.039422 -0.192503 -0.029546 6 6 57
-0.079104 0.238398 -0.101554 9 10 17
0.135225 0.183954 -0.026447 253 254 253
0.055168 -0.181089 -0.006953 255 255 255
-0.017471 0.284239 0.107799 156 157 157
0.133908 -0.059197 -0.054895 255 255 255
-0.030094 -0.318828 0.104546 205 206 206
0.007520 -0.345480 -0.049867 10 15 128
0.135167 -0.266067 0.019604 253 255 253
0.036107 0.332497 0.068130 7 15 35
0.117916 0.405121 0.026551 255 253 254
0.135187 -0.357099 -0.034253 176 177 176
-0.131455 -0.045884 -0.003725 13 12 13
-0.144280 -0.103520 0.004844 8 7 116
0.145574 -0.145221 -0.033752 254 253 253
-0.115748 0.134871 -0.093650 181 181 181
0.020311 -0.343584 0.082477 14 13 15
-0.043373 0.279142 0.096590 155 156 156
-0.107836 0.193806 -0.108800 163 163 164
0.026303 -0.338397 0.082181 13 15 15
-0.110279 0.204691 0.095845 14 15 14
-0.015232 -0.326404 -0.097573 6 6 124
0.019613 0.335805 0.071117 12 11 12
0.116219 0.326414 0.061679 209 210 210
0.128200 -0.052086 -0.038912 7 7 45
-0.116791 -0.187050 -0.111903 13 13 15
-0.144672 0.074836 -0.007835 6 8 88
0.023646 0.346752 0.065645 12 13 14
-0.111542 0.180594 0.030895 11 15 77
-0.067548 -0.236586 0.116388 12 12 13
0.132463 -0.146350 -0.028743 254 255 255
-0.153733 -0.043976 -0.004216 230 228 229
0.009393 -0.365020 -0.067390 14 15 15
0.002778 -0.166215 0.004372 9 9 68
0.131865 -0.341810 -0.026243 252 253 254
-0.144422 0.084780 0.011367 10 12 97
0.126419 -0.348404 0.037440 255 255 255
0.088826 0.121693 -0.027351 255 255 255
-0.151790 0.118934 -0.066833 13 14 13
0.135904 -0.404829 0.015713 106 110 109
0.150919 0.413060 0.030187 214 212 212
0.121106 0.173047 0.033875 254 253 254
-0.065321 0.286500 -0.126419 13 12 13
0.162077 -0.388334 0.035063 12 12 14
0.139913 0.286826 -0.035218 185 186 187
0.073160 -0.385352 0.077005 190 189 190
0.156289 -0.215094 -0.043964 152 152 152
0.071269 -0.019460 -0.030043 6 7 50
0.153140 -0.260694 0.020393 156 158 159
0.012328 -0.372432 -0.073319 12 12 13
0.099127 0.076600 -0.076070 13 13 16
-0.004971 0.332638 0.106289 166 167 167
0.065092 0.380681 -0.027424 9 9 13
0.136276 0.302552 0.050428 253 253 254
0.086120 0.207154 -0.095775 15 15 15
0.124838 0.396869 0.062859 11 12 12
-0.057838 -0.265093 0.041250 9 20 126
0.096872 0.041903 -0.011331 254 255 254
0.104081 0.395282 -0.000446 245 244 243
0.087946 0.368314 0.011783 13 14 13
0.147747 0.336408 -0.010977 255 255 253
0.080701 0.147924 -0.080544 14 14 15
0.019061 -0.373804 -0.053060 13 14 14
0.131516 0.290815 0.042004 8 6 55
-0.103564 0.199851 0.058546 8 16 68
-0.008053 -0.200265 -0.042782 253 254 254
-0.113016 -0.171445 0.075561 9 13 122
0.153054 -0.268861 -0.024795 169 171 170
-0.135356 0.094763 0.076662 9 6 111
-0.091157 0.220879 -0.088718 10 14 30
0.148588 -0.333706 0.049236 253 254 253
0.039620 -0.373120 0.056436 12 13 13
0.018289 -0.344797 0.107525 14 12 16
-0.127326 -0.017733 0.092421 224 223 224
0.086722 0.372425 0.067294 186 186 186
-0.090506 -0.245457 0.048120 8 18 122
0.144470 0.401440 0.039758 13 12 12
0.037431 0.349868 0.083742 11 12 13
-0.089188 0.253573 -0.116847 12 13 16
0.115322 -0.412196 0.035195 120 123 125
-0.052062 0.300924 0.107878 12 14 13
0.042075 -0.378621 0.093067 12 14 14
0.149269 -0.234539 -0.006345 254 254 253
0.142481 0.242023 -0.043158 158 158 158
0.053593 0.341300 0.095910 12 13 12
0.114168 0.249526 0.017712 148 151 149
0.144774 0.254243 -0.030420 255 255 254
-0.036265 0.292200 -0.095354 10 11 14
-0.096050 0.215632 0.098927 12 14 13
0.055869 -0.382563 -0.026788 15 13 15
-0.127006 0.066049 -0.045173 204 203 201
-0.138914 0.095215 -0.014769 4 8 86
0.151146 -0.191207 -0.036258 159 160 161
-0.034738 -0.307336 -0.039489 9 18 127
-0.152851 0.001810 0.015589 254 255 255
-0.106893 0.191018 0.030280 5 11 69
0.130611 -0.131354 -0.014600 255 255 255
-0.151677 -0.075910 -0.008703 238 237 239
-0.072040 -0.279149 -0.106786 212 210 213
0.150964 0.420471 0.003962 230 231 231
0.102163 0.071501 -0.032804 252 252 252
0.001598 -0.357537 -0.091338 12 13 12
0.045038 -0.376729 0.051167 13 14 15
-0.114646 0.131187 0.100172 12 12 14
0.132052 -0.399227 0.012349 254 254 254
0.115859 0.249298 0.027176 255 255 254
-0.008163 -0.333367 0.082835 200 202 201
-0.104404 -0.209280 0.013251 8 10 122
-0.055224 0.273403 0.030758 10 18 45
0.118684 0.147925 -0.040561 254 255 255
-0.072055 0.239443 0.102191 158 160 160
0.124874 -0.210209 -0.040458 251 252 253
0.134883 0.290207 -0.014289 11 12 59
0.060274 -0.094756 -0.040492 6 6 52
0.000453 -0.178696 -0.027027 254 254 254
0.109922 0.343114 0.071285 12 13 16
-0.006409 0.333376 0.079770 13 14 12
0.129504 0.227284 0.029427 5 6 53
0.126313 0.344639 0.065533 253 251 251
0.132114 -0.291972 -0.030985 253 253 252
0.021824 0.343654 -0.061915 11 12 12
0.082812 0.154981 -0.073088 5 6 51
-0.129607 0.043832 0.079746 201 203 201
0.085957 0.386654 -0.015120 10 9 11
0.093473 0.390444 0.054597 145 140 143
0.006021 0.314733 -0.008874 6 13 24
0.088034 0.366945 -0.011566 8 10 11
-0.065408 0.264595 0.097442 14 15 15
0.040773 -0.152937 -0.039584 252 253 254
-0.138380 -0.092657 0.017614 9 6 117
0.128579 -0.366050 0.027742 251 250 251
0.062071 -0.056993 0.010355 8 10 61
-0.143510 0.051482 -0.070877 202 201 199
-0.130858 -0.117517 0.090239 14 12 13
0.087295 -0.004749 -0.045173 5 7 50
-0.109695 0.220175 -0.129254 14 15 16
0.069634 -0.086576 0.010716 254 255 255
-0.147630 -0.066377 -0.009781 13 14 14
-0.106332 -0.188571 -0.097059 15 15 17
-0.151259 -0.034685 0.037944 12 13 13
-0.126228 0.080292 0.096841 197 198 197
-0.120258 -0.217197 0.098842 13 14 14
-0.025041 0.310866 0.096854 164 164 165
-0.115352 -0.174855 -0.103844 236 237 236
-0.146702 -0.029031 0.066485 226 227 225
0.133502 -0.096759 -0.065183 12 13 15
0.136426 -0.406814 0.059413 99 103 112
-0.129445 -0.033035 0.093778 227 226 225
-0.058614 -0.285803 -0.006719 8 15 124
-0.039383 -0.302913 -0.114909 208 207 208
0.024117 -0.209144 -0.055572 255 255 254
0.005155 0.312739 0.026185 8 14 37
0.015453 -0.344679 -0.037055 10 18 125
-0.011687 -0.311255 0.092081 202 204 204
0.099962 -0.393426 -0.018427 13 14 15
0.158932 -0.243799 -0.015375 252 252 254
-0.099507 0.227535 -0.122340 155 156 156
0.099354 -0.374636 0.069404 12 11 13
-0.130342 0.169053 -0.113391 13 13 14
-0.116748 -0.165039 -0.114699 14 15 14
-0.117272 -0.175086 0.002518 9 10 120
0.130633 -0.033724 -0.060916 7 6 52
-0.135874 0.075526 0.093060 255 255 255
-0.025792 0.295078 0.114250 13 11 12
-0.038854 -0.298775 -0.063005 6 12 129
-0.115453 0.177747 0.032909 11 18 72
-0.067830 0.250880 0.101542 14 14 15
-0.052935 -0.279362 0.057876 7 20 124
-0.045095 -0.294767 0.049041 8 21 126
0.160394 -0.309928 0.014311 212 212 213
-0.105768 -0.197942 0.023153 8 13 128
-0.146629 0.052284 0.009909 13 15 15
-0.042540 -0.306688 -0.083935 9 12 124
-0.094561 0.262405 -0.120508 14 14 15
0.044375 -0.366828 -0.028489 8 17 124
0.094860 0.363993 0.053857 11 11 12
-0.122024 -0.073749 0.007543 13 12 14
-0.135996 -0.148375 -0.083307 14 15 16
-0.001571 -0.365409 -0.077156 13 12 15
0.149115 0.391284 0.040808 237 238 236
-0.072499 0.243022 0.072120 10 17 65
0.131236 -0.360360 -0.036076 253 252 253
0.128062 -0.363590 0.000928 254 253 253
-0.119044 0.167521 0.083569 6 7 93
-0.094615 -0.241883 -0.124705 13 15 13
0.005260 -0.340497 -0.006115 8 22 133
-0.105690 0.200675 -0.102513 9 10 17
0.112402 0.100673 -0.073281 5 5 58
0.137085 -0.403072 0.013249 254 253 254
0.121014 0.362890 -0.000837 219 218 216
0.114229 0.388921 0.036711 255 255 255
-0.146303 -0.091437 -0.021987 9 5 112
0.119207 0.385510 0.025966 186 186 186
0.102706 0.001319 -0.068024 14 15 14
-0.045421 -0.284020 0.096833 207 207 206
0.137460 -0.415233 -0.012470 253 252 254
0.079839 0.039274 -0.008672 254 255 255
0.149698 -0.191044 0.015052 228 226 228
0.001238 0.338409 0.091460 13 14 12
-0.143714 -0.015920 0.064363 12 13 14
0.091517 0.157652 -0.093378 6 8 53
-0.111210 0.220735 -0.119340 13 13 15
-0.038239 0.277760 0.047397 6 14 50
-0.089831 0.214375 0.042954 6 12 64
-0.008158 0.310543 0.111097 162 162 164
-0.093191 0.216763 -0.020633 8 15 46
-0.103264 0.209149 -0.062594 8 14 37
-0.138263 0.008476 0.067912 219 219 220
-0.017531 0.293308 0.112440 157 157 157
-0.041136 -0.287814 0.029401 11 20 128
0.150810 -0.405138 0.030659 187 188 188
0.018384 0.346967 -0.093119 177 177 177
0.151497 0.405077 0.039754 255 255 255
0.023632 -0.096317 -0.020228 6 6 56
-0.006271 -0.337924 -0.049099 8 15 124
0.018220 -0.361415 0.093903 194 196 195
0.093059 0.128460 -0.088612 13 12 14
-0.136707 0.121882 -0.044895 7 13 72
-0.139678 0.039854 0.098299 14 15 13
0.070076 0.356415 0.063211 176 176 176
-0.061525 0.303429 -0.118419 13 13 14
0.114050 0.213688 -0.042497 255 255 255
0.055709 0.347062 0.071226 12 13 12
-0.040572 0.281281 -0.113557 10 10 12
-0.121646 -0.029971 0.063585 227 229 229
0.076412 -0.026867 0.009430 253 254 253
-0.096521 -0.179323 0.116402 15 13 15
0.137723 -0.109290 -0.030806 253 254 252
-0.118573 0.035306 0.068176 212 212 211
-0.065060 -0.251193 0.117878 219 219 220
0.084565 0.351923 0.088846 10 12 13
0.038951 0.342756 -0.086976 173 172 173
0.131241 0.286426 -0.042671 181 182 182
-0.022481 0.314302 -0.116212 14 13 13
-0.040347 0.276601 -0.114674 12 11 13
-0.137353 -0.120365 0.025668 10 9 121
-0.153916 -0.052207 0.023828 226 226 225
0.109885 0.063181 -0.006435 254 252 254
0.146668 -0.162216 -0.040641 254 254 255
0.106742 -0.197087 -0.001084 9 8 56
0.063301 0.374417 0.071892 183 183 183
0.024356 -0.346009 0.103723 200 200 200
0.098540 0.073016 -0.035217 13 14 17
0.087700 0.034959 -0.044312 14 14 17
0.113749 -0.118386 0.002821 5 8 54
-0.119750 -0.096238 0.085458 243 246 244
0.127574 -0.368044 -0.012786 254 255 255
-0.129315 0.155371 -0.002194 9 15 76
-0.105758 0.248181 -0.113451 14 15 16
-0.142603 -0.045556 0.074186 224 223 225
0.067547 -0.371473 0.034731 12 13 12
-0.025242 -0.311538 -0.001581 8 17 124
0.135273 0.227971 -0.030452 218 216 217
-0.060677 -0.264745 0.119212 212 212 212
-0.015316 -0.337155 -0.100548 204 203 204
-0.113607 0.029309 0.070748 215 216 217
0.145179 -0.301650 0.039979 201 202 201
0.145284 -0.403568 0.049969 14 14 14
-0.021384 0.306365 0.109569 11 12 13
0.162898 0.394717 0.059286 12 11 12
-0.086026 0.193511 0.104988 14 15 14
0.119216 -0.048902 -0.035961 11 14 24
0.120214 -0.386308 0.033654 190 192 191
0.154422 -0.386525 0.026775 13 16 14
-0.105725 -0.203761 0.053452 7 12 121
-0.071981 0.270169 0.105680 13 13 14
-0.131466 0.129820 0.005133 6 12 86
0.132085 0.367097 0.017966 255 255 255
0.072379 -0.028381 -0.006553 254 255 253
-0.086438 0.217883 -0.136618 13 12 14
0.094587 0.055256 -0.040650 12 13 16
0.136457 0.398780 0.064342 253 255 255
-0.090709 -0.227449 0.084712 8 20 118
-0.128902 0.144641 0.005716 8 10 83
