ply
format ascii 1.0
element vertex 1179
property float x
property float y
property float z
property uchar red
property uchar green
property uchar blue
end_header
0.022080 0.141264 0.059568 254 254 255
0.018655 0.072646 -0.000698 253 254 253
-0.086036 0.256099 0.031879 120 128 133
-0.086250 0.090685 -0.001534 101 149 236
0.008985 0.042042 0.041576 253 255 254
-0.090046 0.273381 0.016675 255 254 254
0.020814 0.112627 0.029339 254 254 253
0.031921 0.169823 0.027769 255 255 254
0.011647 0.060218 0.020951 254 254 253
-0.098892 -0.237368 -0.030236 99 146 227
-0.086844 0.236616 0.047016 101 148 235
-0.102297 0.125308 0.036758 101 148 232
-0.072132 -0.211968 0.024590 254 255 255
-0.091678 0.021129 0.010911 102 149 235
0.101342 -0.158823 0.021674 252 254 253
-0.099356 0.255843 0.006506 102 147 235
-0.095661 0.134244 -0.092727 101 148 234
0.087578 -0.147763 0.062292 253 255 253
-0.090555 -0.243393 0.006115 124 132 142
-0.092094 -0.230849 0.050953 101 141 215
-0.000889 0.064046 0.062052 254 254 255
0.004095 0.104171 0.050664 254 255 254
-0.102447 -0.247054 0.012394 101 148 231
-0.085927 0.254797 0.001678 102 137 199
-0.087544 0.216537 0.032742 99 141 217
-0.099869 0.211840 -0.078054 100 148 232
-0.099805 -0.255054 -0.018317 101 150 235
-0.101761 0.262852 0.028284 126 137 145
-0.095928 -0.263271 0.034456 100 135 194
0.084509 -0.119116 0.039661 255 255 253
0.020701 0.073543 -0.000991 253 254 253
-0.085577 0.176455 0.046986 128 137 145
-0.015123 0.130740 0.039954 253 255 253
0.025632 0.111558 0.019688 255 255 255
-0.100739 0.178249 -0.059314 100 145 228
-0.100022 0.145252 -0.000140 126 134 140
-0.060707 -0.197283 0.008239 205 206 205
0.013095 0.068019 0.001263 255 255 253
-0.099718 0.067781 -0.074299 99 147 234
0.050324 -0.029421 0.021360 253 253 254
-0.099972 -0.174864 -0.084711 100 149 235
-0.084125 0.257797 -0.001393 253 255 255
-0.099787 0.183981 -0.033164 100 148 235
0.050075 -0.053637 0.041841 255 254 254
-0.036474 -0.068383 0.033199 253 254 255
-0.025796 -0.054312 0.022645 253 253 254
0.033599 0.221053 0.025813 253 255 254
0.015322 0.049615 0.025197 254 254 254
-0.087352 -0.227033 -0.055846 129 135 139
-0.100504 -0.239008 -0.000638 102 145 221
-0.100810 0.092308 0.017232 99 144 224
-0.072099 -0.246423 0.031311 255 255 255
-0.053923 0.199600 0.048716 255 255 254
-0.057084 -0.162687 0.031153 253 254 254
-0.099410 -0.155921 -0.001821 101 147 235
-0.101383 0.256759 -0.008734 101 149 233
0.017955 0.069627 0.015487 255 255 255
-0.099750 0.070571 -0.008904 102 150 236
-0.037774 -0.119776 0.006900 253 254 255
0.032169 0.209383 0.014758 252 253 253
-0.103092 -0.113368 -0.062594 101 148 234
-0.066578 -0.194889 0.039915 255 255 255
0.039790 0.002965 0.060549 253 253 253
-0.100234 0.256171 0.010857 131 138 142
-0.085140 0.183974 0.040991 100 148 234
-0.062043 0.223238 0.060549 255 253 254
-0.051349 -0.170794 0.004072 255 254 254
-0.101422 0.209856 -0.015647 129 134 136
-0.088521 0.112053 -0.077672 99 147 234
-0.023965 -0.021529 0.048907 253 255 253
-0.087911 0.264675 -0.045107 99 137 207
-0.082114 0.281806 0.042220 254 253 254
-0.088131 0.112648 -0.016485 99 145 223
-0.086807 0.135262 -0.042902 125 128 132
-0.048472 0.189497 0.034969 253 254 253
-0.045291 -0.111411 0.011033 253 254 255
-0.087567 0.098116 -0.012892 101 147 235
-0.074046 -0.224347 0.048537 255 254 254
-0.087299 -0.096628 0.028099 101 149 234
-0.027673 -0.035228 -0.004254 255 255 253
-0.099595 -0.150764 0.012205 134 133 135
-0.087951 -0.056990 -0.056073 99 148 234
-0.100782 0.151587 -0.093423 101 147 230
-0.028398 -0.052872 0.055092 253 255 255
-0.101530 -0.098635 -0.040844 100 146 230
-0.037836 -0.114427 0.017070 253 253 252
-0.102480 -0.100486 -0.006973 124 131 137
-0.017524 -0.000738 0.055042 254 254 254
-0.102414 -0.237216 -0.015771 99 138 209
-0.029995 0.150013 0.038073 254 254 253
-0.072163 -0.226696 -0.018205 253 255 254
-0.008150 0.084310 0.046600 255 255 254
-0.084959 -0.114336 -0.046528 99 145 225
-0.070723 -0.242737 0.058446 254 254 254
-0.000097 0.073322 0.060694 255 255 254
-0.099674 -0.259639 -0.006423 101 148 234
-0.027752 -0.067187 0.002951 253 254 254
-0.068332 -0.200183 -0.008269 255 255 254
-0.087452 0.243943 -0.055162 101 149 235
-0.085418 -0.159594 -0.062884 102 149 235
0.019606 0.016908 0.040167 253 254 255
-0.085838 -0.239120 -0.064584 100 146 229
0.102231 -0.156673 0.029080 253 254 255
-0.100747 -0.061049 -0.078741 102 150 235
-0.085927 -0.178601 0.032806 131 132 135
-0.102181 0.093225 -0.092623 117 135 162
-0.089200 -0.103931 -0.094766 125 136 145
-0.098797 -0.068218 -0.020632 102 149 235
-0.082328 -0.067159 -0.068986 100 147 235
-0.082995 0.258848 0.054360 255 254 255
-0.090678 0.199027 0.052190 128 128 134
-0.088357 0.059651 -0.071331 99 148 236
-0.042489 0.172936 0.031741 252 253 253
-0.035734 0.156407 0.043825 253 253 253
-0.087976 -0.175889 0.022934 100 149 235
-0.098817 -0.247613 0.018851 101 149 234
0.098197 -0.150104 0.037203 253 254 254
-0.019055 0.141000 0.022010 253 254 255
-0.100824 0.052374 -0.028216 100 146 227
-0.098288 -0.237443 -0.074280 101 148 232
-0.100918 0.232014 -0.063750 101 145 224
-0.085171 -0.243230 -0.034089 101 148 235
-0.086867 0.141005 0.015143 128 130 134
-0.086584 -0.108785 -0.014149 100 140 216
-0.099905 -0.141731 -0.058429 100 148 231
-0.098920 -0.255234 -0.034897 99 143 224
0.024331 0.108579 0.048587 254 255 253
-0.070520 0.246182 0.027440 253 253 253
-0.071615 -0.235839 -0.022259 255 255 254
-0.076497 -0.235985 0.026078 255 254 253
-0.100300 0.256530 0.012967 101 148 235
-0.100747 -0.175938 -0.077500 122 132 137
0.054097 -0.061797 0.024354 252 254 255
-0.099994 0.121249 -0.056555 99 145 228
-0.085330 0.107272 -0.091281 99 148 235
-0.071282 -0.244918 0.031349 255 254 255
-0.079946 0.259941 0.003610 255 254 253
-0.086542 0.273612 0.044743 255 255 254
-0.102860 -0.050190 -0.040506 101 147 232
0.018397 0.182421 0.025964 253 253 254
0.051928 -0.035683 0.018962 254 255 253
-0.023586 -0.044956 0.032309 253 254 254
-0.075033 -0.260853 -0.003024 255 254 255
-0.006859 0.043437 0.043507 253 255 255
0.044558 -0.011542 0.058193 254 253 255
-0.099476 0.258515 0.029359 134 141 144
-0.100376 -0.068251 0.001011 99 143 221
-0.088856 0.127936 -0.094379 99 149 234
-0.100260 0.156300 -0.081275 100 145 226
-0.088479 0.208593 -0.016010 99 148 234
-0.087239 0.162761 -0.010343 100 148 235
0.020921 0.164823 0.059632 253 253 255
-0.100279 0.129865 -0.038362 101 149 234
-0.100990 0.180769 -0.060504 101 148 233
-0.031975 0.146084 0.043221 254 254 255
0.020593 0.150482 0.057067 254 254 254
-0.086508 0.053018 -0.003386 102 149 236
0.106881 -0.197687 0.038742 254 254 254
-0.005192 0.107651 0.000578 254 254 253
0.028267 0.218315 0.046211 253 254 255
-0.100638 -0.122059 -0.035114 100 147 233
-0.095850 -0.254111 -0.045578 101 148 234
-0.070040 -0.211367 0.059261 253 255 253
-0.087335 0.056859 -0.082838 129 132 136
-0.100541 0.103124 -0.087037 100 148 234
-0.029289 -0.037672 0.046947 208 208 200
-0.029413 0.173416 0.039274 254 254 254
-0.102229 0.257144 -0.059281 101 141 211
-0.016469 0.141011 0.009036 255 255 255
-0.087554 0.155258 0.017848 128 135 137
-0.088672 0.124336 -0.085435 122 127 133
0.008868 0.069456 0.043694 254 255 254
-0.008854 0.011746 0.053953 254 255 254
0.044125 -0.043220 0.061480 254 253 253
0.060062 -0.057519 0.032867 254 255 253
0.005272 0.065562 0.044863 254 255 254
-0.044513 -0.142217 0.054707 254 254 255
-0.085495 0.163083 0.044682 99 145 223
0.011982 0.128118 0.002815 254 254 254
0.018418 0.063524 -0.004858 253 254 254
-0.088251 0.187629 -0.085278 137 144 149
-0.089709 0.127309 -0.092131 101 143 223
-0.015772 0.103882 0.034150 254 253 254
-0.058148 -0.156190 0.024953 255 255 254
0.045394 -0.015729 0.047378 255 254 255
0.075095 -0.091571 0.024748 254 254 255
-0.087505 -0.206465 0.024822 102 144 221
-0.045292 0.202266 0.049673 254 255 254
-0.055457 -0.190464 0.061308 255 254 253
0.036847 0.005821 0.045057 253 253 252
0.028824 0.004289 0.039488 253 254 253
-0.086651 -0.148837 0.032898 99 148 233
-0.034076 -0.065679 0.047605 253 255 254
-0.074297 -0.248151 0.008066 255 255 255
-0.103152 0.231599 -0.055143 101 149 234
-0.087248 0.265776 0.006163 252 253 252
-0.036270 -0.073023 0.043344 254 254 255
-0.086972 -0.153376 -0.015053 132 133 134
-0.087354 -0.172644 0.003063 101 148 235
0.036909 0.011265 0.004782 254 254 255
-0.033014 -0.077274 0.058166 254 254 254
-0.071098 -0.238700 0.003130 254 254 254
0.016069 0.091834 0.044924 253 254 255
0.051980 -0.038723 0.049847 254 255 253
0.109319 -0.190071 0.047773 254 254 252
-0.098085 0.216948 0.048130 99 141 218
-0.084612 0.217448 0.037413 100 141 214
0.004377 0.054402 0.047211 254 255 253
-0.084206 -0.072903 0.007375 99 148 233
0.093696 -0.164714 0.040528 252 254 253
-0.082681 -0.143128 -0.031578 124 134 138
-0.099638 -0.156705 0.021566 101 148 235
-0.100796 0.226615 0.026191 101 143 223
-0.099040 0.181450 -0.072001 99 149 235
-0.053164 0.224532 0.032551 254 255 255
-0.010796 0.011612 0.042201 254 255 254
-0.092265 0.086876 -0.101758 100 137 204
-0.088888 -0.023397 -0.000411 100 145 224
-0.073427 0.262893 0.058651 254 255 255
-0.100798 -0.189438 0.047015 101 148 231
-0.100610 0.240794 -0.070584 101 148 235
-0.098627 -0.232037 -0.057556 101 148 232
0.008944 0.065301 0.008301 253 254 254
-0.063423 -0.190207 0.026309 253 254 253
-0.034754 -0.054621 0.010952 253 253 253
-0.099272 -0.227427 -0.045401 101 149 235
0.016333 0.150553 0.023744 254 254 254
0.010530 0.074221 0.035170 255 255 255
0.099848 -0.153687 0.031558 254 254 253
-0.101583 0.242525 -0.064157 101 148 231
-0.095784 -0.204303 0.053411 100 147 232
-0.008565 0.041911 0.010002 252 253 255
-0.086100 -0.140358 -0.094565 100 147 231
0.105914 -0.178470 0.008712 253 254 253
-0.102688 -0.069363 -0.032935 102 150 236
-0.021526 -0.092522 -0.009583 252 252 251
-0.085754 -0.159109 -0.035769 99 149 235
-0.042788 -0.093165 0.021304 255 255 253
-0.086475 -0.125045 0.021026 100 148 235
-0.089857 -0.148848 -0.075887 100 149 236
0.041341 -0.006082 0.027347 253 254 255
-0.087348 -0.172772 -0.076025 97 136 206
-0.068555 -0.235102 0.041784 255 255 254
0.047504 -0.045582 0.038249 255 255 255
-0.100664 0.101219 -0.059597 99 147 232
-0.087373 0.257953 -0.056529 101 147 231
-0.035203 -0.062839 0.036476 255 254 254
0.024774 0.119481 0.021386 253 254 254
-0.013905 0.107392 -0.005831 253 253 254
-0.098107 -0.178172 -0.069285 100 149 234
-0.088264 0.231662 0.030758 145 149 149
-0.100310 -0.174716 -0.078331 132 138 143
-0.047790 -0.145853 -0.011678 255 254 254
-0.101415 0.082998 -0.010112 100 145 224
-0.018047 0.136777 0.027491 254 254 255
0.067809 -0.093756 0.016513 254 255 254
0.061840 -0.061304 0.055000 253 253 255
-0.072132 -0.214778 0.007184 255 254 255
-0.012326 0.119036 -0.001627 254 255 255
-0.088151 -0.186861 0.013985 101 149 234
-0.091230 -0.106618 -0.094618 99 144 227
0.030862 0.184346 0.052956 253 253 254
-0.100024 0.117388 -0.081195 101 150 236
-0.099892 -0.230980 -0.008664 101 149 235
-0.085843 0.096200 -0.001465 100 147 235
-0.099139 0.240644 0.027679 100 148 235
0.074278 -0.112990 0.064133 252 253 253
-0.083353 0.063286 -0.026656 99 147 233
-0.098899 0.197369 -0.063501 100 148 235
-0.095766 0.213571 -0.081565 102 149 235
-0.099711 -0.097145 0.019663 102 148 233
-0.100619 -0.097163 -0.097322 102 148 233
-0.088051 -0.241709 0.021611 118 130 141
-0.019612 0.117494 0.010445 255 254 255
-0.103513 0.233917 0.036929 131 128 135
-0.061766 0.221613 0.013023 254 253 254
0.018058 0.130672 0.040285 254 255 254
-0.098838 0.143858 0.027332 102 136 195
0.028791 0.135688 0.056579 253 253 253
-0.101850 -0.077630 -0.063868 101 149 235
-0.063768 0.227094 -0.005065 253 254 254
-0.085546 -0.189335 0.028043 101 142 219
-0.038835 0.162583 0.024681 254 255 254
-0.087969 -0.264885 0.056911 255 255 255
-0.043317 -0.121892 0.059526 253 254 253
-0.091162 -0.029539 -0.017750 101 148 235
0.037626 -0.019036 0.046201 254 255 253
-0.086076 0.198964 0.042898 126 129 132
-0.083252 -0.083219 0.027228 124 130 134
0.102529 -0.169053 0.034225 253 253 254
-0.086361 -0.250050 -0.023864 124 132 136
-0.096052 0.242836 -0.071958 101 148 236
-0.102348 -0.219618 -0.008409 102 148 234
-0.085494 0.077525 -0.054688 99 147 234
-0.089561 -0.205206 0.046520 124 131 136
-0.085783 -0.136906 0.040443 102 148 232
-0.071914 -0.247719 0.051872 253 255 254
-0.099864 -0.036755 0.011617 102 142 217
-0.089298 0.161032 -0.070557 100 149 235
0.089623 -0.132496 0.041001 253 253 254
-0.085485 -0.106366 -0.065645 144 152 156
-0.097345 -0.245213 0.041817 100 149 235
-0.045645 -0.121460 0.060679 254 254 255
-0.045118 0.209215 -0.004038 254 255 255
-0.091504 0.270943 -0.025641 199 200 195
-0.101630 0.091948 0.002644 101 150 235
-0.060168 -0.208645 -0.006820 254 255 253
-0.089852 0.036920 -0.064599 103 148 236
0.050550 -0.045871 0.064206 255 255 254
-0.088342 -0.067506 0.031172 101 150 236
-0.088059 0.258582 -0.004883 100 139 206
-0.100854 -0.167736 0.015085 100 145 226
0.014603 0.063981 0.022846 255 254 253
-0.065866 -0.219300 -0.009060 255 254 254
0.073527 -0.089222 0.035720 254 255 253
-0.095370 0.192879 0.047506 101 147 233
-0.036379 -0.111799 0.058536 254 254 254
0.021569 0.063781 0.035768 253 253 252
-0.100711 -0.201985 -0.066931 101 149 235
-0.098848 0.055174 -0.015621 101 149 235
-0.091197 0.271705 -0.014841 102 144 218
-0.100362 -0.102418 -0.094546 101 149 236
-0.054892 0.206697 0.008000 253 253 253
0.073327 -0.106745 0.015209 255 254 254
-0.099144 -0.255186 0.017724 100 149 235
-0.090277 -0.252398 -0.067603 121 127 134
0.080114 -0.128143 0.006755 254 253 254
-0.102576 -0.135815 -0.066338 99 143 224
-0.061927 -0.216001 0.022134 255 254 255
-0.088530 0.058701 -0.007744 100 149 235
-0.100526 0.177962 0.012328 126 132 138
-0.058460 -0.169608 -0.012779 253 254 254
-0.085520 0.159969 -0.029779 128 129 131
0.091668 -0.132943 0.004862 252 253 252
-0.089643 0.050572 -0.067871 129 131 136
-0.022015 0.144483 0.049676 254 254 254
0.014695 0.075291 0.031527 255 254 253
-0.089744 -0.255020 0.034993 101 147 233
-0.085449 0.080230 -0.064503 101 149 234
-0.100900 0.109459 0.033396 100 148 233
-0.024850 -0.010150 0.034309 255 255 254
-0.035391 -0.098276 0.051228 253 254 255
-0.093252 0.094720 -0.099278 100 143 225
-0.006106 0.054606 0.024780 255 255 253
-0.085008 0.105723 0.034420 105 151 236
-0.100153 0.110072 -0.005660 131 133 135
-0.051898 0.195027 0.048367 255 255 253
-0.096814 0.258040 0.042684 101 150 235
-0.098970 0.145021 0.038011 102 147 229
-0.063382 -0.180322 0.005676 255 254 254
-0.065913 -0.191364 0.029259 254 255 255
0.054366 -0.044309 0.041641 253 254 255
-0.089227 -0.270544 -0.004347 254 254 255
0.006421 0.053679 0.008489 254 253 254
0.015644 0.074096 0.014587 255 255 254
-0.050788 -0.162492 0.002455 255 255 254
-0.102785 0.071599 -0.051582 101 149 235
0.051316 -0.050496 0.061083 253 255 255
-0.098789 -0.183501 -0.060744 100 147 234
-0.035943 -0.059989 0.010587 253 254 253
-0.070511 -0.248393 0.043021 253 254 255
-0.063456 -0.212923 0.044932 254 254 253
-0.103692 0.066817 -0.054408 100 134 198
-0.087668 -0.141204 0.025578 135 139 143
-0.102120 0.144343 -0.027151 102 149 235
-0.085868 -0.159048 -0.039840 100 148 234
-0.100783 -0.120446 -0.007883 101 147 229
-0.008785 0.035660 0.054416 254 254 254
0.105603 -0.196548 0.027173 254 254 253
-0.099737 0.227142 0.016355 100 148 232
-0.099353 -0.035876 -0.047895 99 149 233
-0.006761 0.055550 0.034724 211 216 212
-0.078793 -0.264142 0.016091 254 254 252
-0.101443 0.035412 -0.036999 101 149 234
-0.066585 -0.221684 0.042089 254 255 253
-0.097503 -0.180530 -0.089216 101 150 235
-0.088742 0.091267 -0.052877 100 148 235
0.005990 0.065445 0.017890 253 254 254
-0.023948 -0.047598 0.058170 254 255 254
-0.089062 0.245274 0.020645 100 146 232
-0.087382 0.213431 0.011205 100 146 231
-0.101464 0.082816 -0.013623 101 145 230
-0.101821 -0.066644 -0.006705 101 149 235
-0.100251 0.216360 -0.047473 100 144 226
0.098451 -0.162006 0.005393 253 254 252
-0.099631 -0.161400 -0.083482 101 148 233
0.026902 0.029746 0.020017 254 255 253
-0.083895 0.269344 0.047925 255 255 254
-0.026619 0.148957 -0.008843 255 254 255
-0.092775 0.049630 -0.079058 103 150 235
0.019825 0.030461 0.041403 253 255 254
-0.099218 -0.254031 0.022779 131 137 139
-0.102790 -0.233802 -0.031333 100 147 229
0.072756 -0.113424 0.064953 254 253 253
-0.099785 -0.250343 -0.056972 100 147 229
-0.106537 0.105535 -0.019580 101 149 234
-0.012629 0.110617 -0.000819 254 254 253
-0.012221 -0.010459 0.053190 254 255 254
-0.036691 0.173966 -0.013266 252 253 253
0.087579 -0.124326 0.032842 254 255 253
-0.034399 -0.075315 0.060703 254 254 255
-0.006365 0.088974 0.060596 254 254 253
0.053679 -0.070600 0.068251 252 253 253
-0.095065 -0.271284 -0.017158 100 147 232
-0.087707 0.237293 -0.069161 132 139 148
-0.086998 -0.162861 -0.043002 101 148 235
-0.099465 0.124128 -0.002374 99 137 205
-0.098596 0.159893 0.044703 100 142 218
-0.098336 -0.162031 -0.079214 101 148 232
-0.087972 0.174852 -0.050947 101 149 235
-0.067901 0.202863 0.028520 200 201 197
-0.089202 0.065112 -0.057562 99 149 235
0.020390 0.133404 0.004316 254 255 253
0.021905 0.110426 0.026223 254 254 254
-0.088268 0.106393 -0.041352 100 146 231
-0.088432 0.200214 -0.061543 101 148 236
-0.099486 0.153901 -0.056998 99 147 231
-0.096620 -0.149035 -0.090200 99 149 234
-0.087827 0.118960 -0.035898 130 134 136
-0.025160 -0.042669 0.040360 215 217 219
-0.054535 -0.159989 0.062980 255 254 255
-0.101993 -0.044481 -0.015555 101 148 235
-0.099725 0.228282 0.033433 101 147 233
-0.073951 -0.219832 0.013505 255 255 255
-0.102942 -0.091031 -0.091514 119 129 137
-0.046030 0.179418 0.051505 253 253 252
-0.063696 -0.185779 0.060583 253 254 254
-0.094374 -0.194274 -0.088530 99 147 232
-0.035537 -0.076263 0.060956 253 254 255
0.084981 -0.139589 0.035685 254 255 255
-0.000589 0.043081 0.063695 253 254 254
-0.096971 0.196626 -0.088726 100 144 221
-0.099569 -0.198506 -0.062326 100 150 235
-0.086147 0.051599 -0.033740 100 148 235
0.071401 -0.082758 0.030670 255 254 254
-0.099381 -0.040006 -0.061056 102 150 236
-0.099936 0.207259 -0.012997 101 149 235
-0.069182 0.237588 0.015377 255 254 253
-0.005623 0.112142 0.049136 254 255 255
-0.088329 0.056811 -0.033322 100 147 234
-0.099439 -0.137510 -0.011121 100 148 235
-0.104470 0.123199 0.030946 100 140 213
-0.079068 0.261364 0.045819 254 253 253
-0.099262 -0.127230 -0.091964 103 149 236
0.014420 0.069517 0.048120 255 255 254
-0.098781 -0.270092 -0.001248 100 147 227
-0.019515 0.117430 0.055680 253 254 254
-0.087559 0.073089 -0.058989 100 149 235
-0.099329 -0.154875 -0.024613 99 141 215
-0.046486 -0.151654 0.027209 255 254 254
-0.084544 0.203016 0.040092 129 129 131
-0.020854 0.130626 0.011588 254 255 254
0.006734 0.067560 0.004331 253 254 254
0.038229 0.217110 0.048953 253 253 255
-0.099369 0.180821 0.027002 101 142 220
-0.095344 -0.245049 0.042978 102 144 219
0.015643 0.091542 0.033454 255 254 255
-0.084768 -0.140362 0.022147 98 141 217
-0.035001 -0.061528 0.039219 254 255 254
0.022059 0.019808 0.031860 252 254 255
-0.100356 -0.158962 0.045081 100 145 230
-0.076489 -0.229211 0.030318 255 253 254
-0.087142 0.198498 0.029948 98 141 215
0.020490 0.184491 0.022119 254 254 254
-0.030390 -0.091211 -0.001820 252 252 253
-0.085013 -0.250236 -0.058141 101 149 235
-0.085602 0.088524 -0.024804 99 140 215
-0.099545 -0.139149 0.028640 99 144 225
-0.101517 -0.260095 0.026676 100 139 210
-0.034778 -0.065237 0.039776 255 255 254
-0.086723 -0.124815 -0.019865 101 146 226
-0.086361 0.251589 -0.043028 102 149 235
-0.088170 -0.028622 -0.012260 100 149 236
-0.100152 -0.080177 -0.057884 100 149 234
0.010895 0.084121 0.004117 254 254 254
-0.088360 0.146930 -0.089253 101 148 234
-0.099931 0.109575 -0.099726 101 148 231
-0.100727 0.113941 -0.034315 99 147 232
-0.056474 -0.175073 0.064439 254 254 254
-0.022593 -0.021424 0.054633 255 255 255
-0.090888 0.035216 0.017467 101 148 235
-0.096939 0.126272 -0.071580 100 145 224
0.091935 -0.159341 0.041156 253 253 253
-0.099795 -0.222493 -0.019910 100 148 233
-0.098320 0.150473 -0.091470 101 144 220
-0.105526 0.092664 0.006870 101 148 232
-0.087332 -0.038103 0.002511 131 137 143
-0.088102 0.264809 -0.041400 100 147 234
-0.100255 0.100090 -0.089660 101 146 226
-0.068737 0.256846 -0.014169 253 255 255
-0.085700 0.243683 -0.007466 129 129 132
0.032720 0.170570 0.014564 254 253 254
-0.026830 0.160113 -0.012129 253 253 255
-0.036507 0.152578 0.041804 253 253 253
-0.100477 -0.126342 -0.012453 100 139 210
-0.062900 0.222826 0.031199 253 255 253
0.001855 0.078202 0.052267 255 255 254
-0.051578 -0.184349 0.033578 254 254 253
0.009217 0.088752 0.055197 255 254 253
-0.031432 0.179950 -0.005082 254 254 254
-0.101792 -0.094039 -0.001396 123 133 140
-0.040127 0.171041 0.046928 254 254 254
-0.087262 -0.034085 -0.020363 119 131 141
-0.061369 0.215249 0.053888 254 254 255
-0.054941 0.205036 -0.006881 254 254 253
0.052608 -0.030915 0.032459 254 255 253
0.010121 0.058049 0.015785 254 255 254
-0.065880 0.218331 0.058778 255 253 253
-0.088330 0.164488 -0.037449 102 149 236
-0.047209 0.185796 0.032963 254 254 253
-0.030427 -0.059915 0.051600 255 255 253
-0.088673 0.106316 -0.035265 99 149 235
-0.058937 0.215461 -0.004930 253 255 254
-0.070545 -0.203549 0.064574 254 255 255
-0.087995 0.037387 -0.065199 99 148 234
-0.089658 0.116277 -0.089811 101 149 236
-0.099975 0.105461 -0.017736 100 148 235
-0.086509 -0.258786 -0.025168 101 149 234
-0.101589 0.269598 0.019930 124 130 136
-0.098592 -0.250809 -0.043739 100 148 230
0.087523 -0.127547 0.042713 253 255 253
-0.100310 -0.230904 -0.073444 100 148 235
-0.077376 -0.254572 0.062116 253 255 255
-0.036302 -0.069814 0.015726 254 254 253
0.052170 -0.058782 0.016088 254 255 253
-0.103363 0.168843 0.033125 101 146 227
0.028254 0.124572 0.057594 253 254 254
-0.073822 -0.266200 0.014980 255 255 253
-0.080699 -0.268819 0.021130 255 255 253
0.077380 -0.117982 0.023528 254 254 255
-0.025072 0.124466 0.039229 255 255 255
0.087023 -0.146734 0.041347 254 254 252
-0.022098 0.157838 -0.005878 254 254 253
-0.099632 0.034104 -0.001654 100 148 233
-0.088526 0.209430 -0.059492 128 131 133
0.028711 0.026228 0.044790 255 255 254
-0.078458 -0.237018 0.021289 254 254 253
-0.086741 0.268338 -0.009091 194 201 203
-0.040464 -0.124161 0.041224 255 255 255
-0.079829 0.266747 0.055600 252 252 252
-0.103020 -0.070026 -0.027090 100 147 228
-0.088112 0.261701 -0.007738 100 131 189
-0.086033 -0.202507 -0.012818 100 141 216
0.021090 0.108718 -0.001057 255 254 255
-0.085070 0.226322 -0.050689 100 148 235
-0.072513 0.240228 0.058708 254 255 255
-0.050147 -0.162610 0.056180 254 255 255
-0.025815 -0.057017 0.012016 254 255 254
0.028613 0.116333 0.056800 253 253 254
0.055590 -0.035521 0.024229 254 255 255
-0.052937 -0.145919 0.056054 253 253 254
-0.075584 0.273902 0.004879 254 255 255
-0.086942 0.174019 0.009873 99 148 234
-0.004135 0.052702 0.055034 254 255 254
-0.074565 0.249694 -0.002487 253 254 254
-0.098070 0.022783 0.000888 102 149 236
0.066663 -0.071181 0.023178 253 254 253
0.071056 -0.077308 0.031123 253 255 255
0.024853 0.013490 0.055351 254 254 254
0.024504 0.200522 0.036028 253 255 255
0.012515 0.071445 0.011676 255 255 254
-0.011271 0.097972 0.029954 254 254 254
0.013166 0.122189 0.037530 255 255 255
-0.103610 0.105964 -0.052207 101 149 235
-0.029337 -0.048321 0.029682 255 255 255
-0.099792 -0.189362 0.015571 101 145 227
-0.073134 0.264024 -0.000885 255 255 255
-0.032327 -0.042217 0.010969 254 255 254
0.103409 -0.196439 0.050742 253 255 252
-0.100517 0.204463 -0.078091 101 149 235
-0.084359 -0.118572 -0.049052 99 144 225
-0.086555 -0.086014 0.020900 102 149 236
-0.099399 0.162214 -0.005671 101 148 235
0.107578 -0.200429 0.026337 254 255 253
-0.100428 0.221336 -0.059411 101 149 236
0.047512 -0.021438 0.057583 254 254 253
-0.029697 0.155984 -0.011404 254 255 253
-0.098886 -0.196140 -0.087486 100 149 235
-0.098430 -0.204900 -0.055173 102 148 233
-0.087183 0.187147 -0.022297 101 148 233
0.021200 0.035587 0.012376 214 214 214
-0.099747 0.152753 0.037092 102 144 218
-0.099588 -0.200324 -0.009796 101 149 234
-0.012291 0.095676 0.051599 254 255 254
0.014851 0.079730 0.039133 253 255 255
0.079223 -0.095034 0.026591 255 254 253
-0.099086 -0.216343 -0.056909 100 147 231
-0.006259 0.113685 0.014703 254 253 253
0.022443 0.193282 0.011794 253 254 254
-0.049175 0.212940 0.052650 254 254 254
0.001665 0.105278 0.058991 255 255 254
-0.098031 -0.193086 -0.056441 101 147 234
0.023061 0.102855 0.044002 253 254 253
0.062417 -0.059298 0.026640 254 254 255
-0.067070 -0.235381 0.032581 254 255 254
-0.066514 0.253267 0.028385 254 253 255
-0.018146 -0.008943 0.001797 255 255 255
-0.002868 0.019238 0.051231 253 254 254
-0.017515 0.112535 0.018765 254 255 253
-0.099400 -0.219269 0.005604 99 149 232
-0.098817 -0.202722 -0.022118 102 149 235
0.087455 -0.145731 0.039837 254 254 254
0.000302 0.064326 0.042144 255 254 253
-0.006468 0.098064 0.018699 254 255 253
-0.028708 0.176447 -0.001604 253 255 255
0.004232 0.041313 0.016167 254 253 253
-0.037233 0.161142 0.031421 253 254 255
0.007216 0.062044 0.061481 254 254 254
-0.056904 -0.156519 0.005164 255 255 253
0.092010 -0.155440 0.021780 255 255 255
-0.080503 0.265845 0.057041 252 253 253
-0.102079 -0.136561 0.000071 102 148 234
-0.038150 -0.079569 0.002872 253 253 254
-0.038081 -0.118947 0.027472 254 253 255
-0.063200 0.246246 0.021677 252 253 254
0.002177 0.048951 0.054911 254 255 254
-0.085539 -0.026577 -0.000163 100 148 232
-0.073269 0.251580 0.052568 254 254 253
-0.085478 0.199604 -0.004212 124 132 139
-0.085550 0.094822 -0.031935 126 129 132
0.032137 0.174518 0.022286 255 254 254
-0.062540 -0.208492 -0.008702 254 254 253
-0.093577 -0.167270 0.045988 124 131 136
-0.018160 0.113296 0.044970 254 254 253
-0.007455 0.096227 0.003351 255 254 255
-0.098959 -0.132849 -0.071604 101 143 219
-0.087145 0.157320 -0.034798 97 133 199
0.007231 0.065061 0.022670 254 254 255
-0.030141 -0.077972 0.046322 254 254 255
-0.102564 -0.111872 -0.067997 101 148 234
0.063173 -0.092457 0.060235 254 254 253
-0.087852 -0.051789 -0.050593 99 149 233
-0.093543 0.023155 -0.020144 102 149 233
-0.099868 -0.123946 -0.019462 100 149 234
-0.104235 0.179014 -0.039492 101 148 233
0.086691 -0.125285 0.045919 254 253 253
0.087085 -0.133747 0.063399 254 254 254
0.004367 0.059377 0.025697 253 253 253
-0.086550 -0.096634 -0.033557 100 149 235
-0.091985 0.124923 0.038029 101 148 236
0.006489 0.053563 0.000574 254 254 253
-0.050779 -0.134189 0.057502 254 255 254
0.048992 -0.055207 0.043831 255 254 253
-0.086650 -0.257372 0.062745 254 253 253
-0.087887 0.034783 -0.031698 97 134 201
0.033504 0.192518 0.023634 255 255 254
-0.087257 -0.236233 -0.034861 101 148 234
-0.087278 -0.260013 0.028577 102 148 234
0.029991 0.137483 0.037133 253 255 254
-0.098641 0.188472 -0.071813 123 128 131
-0.081223 -0.094367 -0.012951 194 196 194
-0.060304 0.240079 0.021676 255 255 253
-0.102627 -0.086919 -0.078626 99 139 212
-0.035397 -0.055803 0.032693 254 254 253
-0.065196 -0.188005 -0.008606 255 255 254
0.048741 -0.049289 0.041039 255 255 254
-0.097621 0.038039 -0.062402 100 148 235
-0.087741 0.094388 0.006071 101 147 235
-0.090508 0.273201 -0.009536 253 254 255
-0.086381 -0.190102 0.047108 102 148 231
-0.024020 0.128416 -0.006529 253 254 253
-0.010963 0.121183 -0.003068 255 255 253
-0.013085 0.104044 0.059781 255 255 255
-0.036996 0.162092 0.002048 255 255 255
0.044709 -0.039476 0.042143 254 254 255
-0.091146 0.236689 -0.077489 102 148 230
-0.088314 0.244268 -0.015464 101 149 235
-0.101631 -0.106001 0.005946 101 147 233
-0.100570 -0.140952 -0.066335 100 143 219
-0.096688 -0.038665 -0.060769 101 149 236
-0.074544 0.241585 0.033306 254 253 254
-0.011030 0.028730 0.057742 255 255 254
-0.088460 -0.216279 0.035011 138 146 153
-0.101704 -0.068115 -0.010389 102 148 236
-0.103635 -0.113323 -0.025324 100 148 234
-0.093250 -0.124546 -0.063770 99 147 232
-0.000894 0.109198 0.027932 254 255 253
0.020864 0.034634 0.053566 253 253 254
-0.100237 -0.155816 0.020203 100 142 218
-0.086987 -0.069455 -0.091144 122 131 140
0.016543 0.063292 0.028832 254 255 255
-0.069392 -0.207820 -0.007724 254 255 254
-0.033413 0.150888 0.046859 254 255 254
0.030266 0.021127 0.054112 253 254 253
-0.074761 -0.248875 0.051971 255 253 254
0.090917 -0.130157 0.043904 255 255 255
0.005390 0.080720 0.039689 255 254 253
-0.017644 0.133781 0.036722 254 254 255
-0.086634 -0.226284 0.039999 100 143 221
0.015641 0.092111 0.024584 254 255 254
-0.099393 -0.169173 0.034934 100 144 226
-0.101428 0.175572 -0.072498 100 148 234
-0.095215 0.140967 0.041901 101 149 236
0.043978 -0.037955 0.045645 253 254 253
-0.097744 -0.190228 0.041794 146 155 161
0.002794 0.036359 0.030526 254 254 254
-0.037037 -0.074326 0.030629 255 254 254
-0.104104 0.195643 0.015464 101 149 234
-0.068255 -0.231681 0.044391 254 255 253
-0.086955 -0.180462 -0.088256 100 141 217
-0.089212 0.173780 -0.071762 102 149 236
0.099873 -0.169846 0.010982 253 254 252
-0.056223 -0.198780 0.056384 253 254 255
-0.036455 -0.070809 0.040760 254 254 253
0.050667 -0.032578 0.018061 253 255 255
-0.099613 -0.091767 0.008678 101 149 236
0.033037 0.230443 0.035598 253 254 254
-0.087884 0.119026 -0.084274 121 127 134
-0.061262 -0.172871 0.020009 254 255 255
0.048383 -0.027912 0.007519 254 254 253
0.078095 -0.093453 0.029783 254 254 254
-0.102535 -0.134606 -0.017425 99 146 233
0.013201 0.055284 -0.003023 254 255 254
-0.086776 0.120698 0.025986 133 139 139
0.026035 0.015863 0.002330 253 253 252
0.068227 -0.074483 0.019046 254 255 253
-0.086554 -0.165528 0.028637 102 150 236
0.036197 -0.015307 0.025009 255 255 255
-0.081930 -0.242019 0.045043 253 255 254
-0.100234 0.223542 -0.005905 101 149 235
-0.046921 -0.112903 0.057490 254 254 254
-0.041222 0.161235 0.059586 255 254 254
-0.002273 0.059827 0.010653 254 254 253
0.109047 -0.201295 0.031426 254 255 255
0.034837 0.176747 0.045076 253 254 254
-0.085562 0.177114 -0.053476 100 148 234
0.089256 -0.127580 0.003612 253 253 253
-0.096457 -0.191873 0.021631 98 143 219
-0.050901 0.201045 -0.005285 254 255 254
-0.038820 -0.132341 0.013366 253 253 253
-0.086308 -0.150641 0.002590 99 148 233
-0.084488 -0.162735 0.044514 129 129 134
-0.101242 -0.188686 0.042992 101 149 234
0.089755 -0.138548 0.055478 255 254 254
-0.100546 -0.156800 -0.025992 100 150 235
-0.105298 0.105201 -0.007798 102 145 221
-0.097653 -0.173545 -0.065935 100 147 230
-0.101581 -0.142622 -0.023986 102 146 226
-0.100962 0.161256 -0.073469 101 147 234
-0.050279 0.220983 -0.007290 254 254 254
-0.099904 -0.125095 -0.021247 102 149 235
-0.100851 0.238566 -0.044767 135 142 147
-0.082875 -0.251651 0.052711 255 255 254
-0.017158 0.111342 0.006434 253 254 254
-0.060915 0.208258 0.058792 252 253 252
-0.101346 -0.213103 -0.053805 101 144 224
-0.099254 -0.262030 -0.045223 102 149 234
-0.088647 0.142642 -0.047572 101 142 215
-0.102784 -0.062739 -0.014955 101 148 235
-0.085724 -0.222519 -0.063368 101 148 234
-0.086050 0.082802 0.018530 102 150 236
-0.023415 0.147530 0.032724 254 255 255
-0.028824 -0.032072 0.019262 253 255 254
-0.058635 -0.169787 0.055777 255 254 253
-0.000750 0.025022 -0.002781 255 254 253
-0.087181 -0.257529 -0.007641 216 218 214
-0.088451 0.275675 0.038955 254 253 253
-0.102629 -0.101098 -0.060567 128 135 139
-0.036321 -0.078175 -0.005786 255 254 254
0.038689 0.000228 0.038722 254 254 254
-0.036649 0.162322 0.002708 254 255 253
-0.007782 0.033906 0.033137 255 255 254
-0.088955 0.276401 0.035109 254 254 253
-0.087063 -0.241257 -0.040495 99 138 211
-0.092543 -0.093471 0.035483 132 135 137
-0.051824 0.225757 -0.002114 254 255 253
-0.099754 -0.080313 -0.003967 101 146 229
-0.088549 0.073292 -0.032133 127 130 132
-0.099912 0.238506 -0.059748 101 148 234
-0.101918 -0.255997 0.007199 101 145 224
-0.084067 -0.213139 0.040123 101 148 232
-0.057601 0.234782 0.004516 254 254 253
-0.099703 -0.108805 0.025849 101 148 234
-0.086540 -0.100914 -0.073580 101 149 236
-0.056012 -0.199311 0.057694 253 253 255
-0.097224 0.077469 -0.095144 102 149 236
-0.101807 -0.221463 0.000168 101 147 231
-0.101462 0.061497 -0.086703 102 149 235
-0.099820 -0.207238 0.002962 100 148 234
0.059325 -0.073545 0.064965 254 254 255
-0.085878 -0.160964 -0.081768 99 148 234
0.037144 0.008315 0.051739 254 253 253
-0.099703 0.191796 -0.000494 101 148 235
-0.087621 -0.252210 0.033683 101 146 231
-0.087179 0.231562 -0.030679 99 146 232
0.001745 0.077493 0.043859 254 254 253
-0.100628 -0.228664 -0.051843 99 146 230
-0.098725 -0.167142 -0.031026 101 149 236
-0.099145 -0.037237 -0.013103 98 140 215
-0.089038 0.081845 -0.050490 101 148 235
-0.096484 0.078565 0.034489 102 150 236
0.033014 0.019570 0.021598 254 254 254
-0.088233 -0.269839 0.038989 253 253 254
0.061112 -0.067786 0.010487 253 255 253
0.095240 -0.152951 0.052082 254 255 255
-0.087622 0.146952 -0.085676 130 134 141
-0.040673 -0.127743 0.017883 253 254 255
-0.086027 -0.165702 -0.009820 100 146 233
-0.087651 -0.144023 0.023450 128 131 134
-0.042243 -0.137979 -0.002198 253 255 254
-0.033484 -0.085321 0.061306 253 254 253
-0.029535 0.136340 0.012861 253 254 255
0.026986 0.118989 0.044173 253 254 254
-0.084780 0.080895 -0.064875 131 134 137
-0.049568 -0.127771 0.009471 253 254 253
-0.100453 -0.127521 0.026537 102 149 236
0.010190 0.071847 0.057928 255 254 254
-0.032931 -0.092116 0.021040 254 255 253
0.079350 -0.130231 0.058207 253 253 253
-0.099663 0.216265 -0.002393 101 148 235
0.059176 -0.073603 0.021526 254 255 255
-0.099450 -0.257895 -0.008766 101 149 233
0.025148 0.013717 0.014686 253 255 255
0.076579 -0.098222 0.041012 254 254 254
-0.101381 0.056038 0.013190 100 148 233
-0.100557 -0.072757 -0.085162 101 149 235
-0.088195 0.141783 -0.035442 102 149 236
-0.100635 0.138238 0.032546 100 148 235
0.014606 0.046721 0.022731 253 255 254
0.004782 0.093056 0.008036 254 254 253
0.104824 -0.190892 0.015719 252 253 255
0.019166 0.103525 0.057148 254 255 253
0.015039 0.070646 0.000628 255 254 253
0.051791 -0.056342 0.024771 255 255 254
-0.086181 0.050759 -0.050952 99 147 233
0.062327 -0.082480 0.062252 255 255 254
-0.102073 0.071069 -0.059084 100 139 213
-0.086400 0.074408 0.022946 101 144 223
-0.101329 0.233296 -0.048340 99 138 211
0.031590 0.020479 0.027796 255 255 255
-0.055980 0.209644 0.013949 253 254 254
-0.085862 -0.068069 -0.085775 100 149 234
-0.086418 0.171062 0.011590 100 148 235
-0.088345 0.063239 -0.000122 101 148 235
0.032548 -0.012212 0.018281 255 254 254
-0.032566 -0.054838 0.048509 253 255 254
-0.099495 0.062359 -0.054903 100 140 214
0.015239 0.134388 0.048376 254 255 253
-0.087210 0.238786 -0.001552 101 147 229
-0.100139 0.088349 -0.047217 101 148 234
-0.085021 -0.267736 0.026942 255 255 255
-0.100220 0.183026 -0.043883 99 148 235
-0.089503 0.077365 -0.032777 136 141 144
0.063458 -0.086384 0.016216 254 255 254
-0.098914 -0.205359 -0.008712 101 149 236
-0.100216 -0.084680 -0.033548 102 148 231
-0.087172 0.261180 0.038109 160 167 170
0.021595 0.102348 0.055909 254 254 253
-0.085261 -0.182480 -0.084544 100 143 221
-0.085389 -0.123791 -0.089896 128 133 135
-0.020792 0.118930 0.023889 254 255 254
-0.082629 0.276223 0.020464 253 255 254
-0.010150 0.003964 0.020263 254 255 254
-0.086909 0.167181 -0.056496 101 148 235
-0.005006 0.015901 0.039812 253 254 254
-0.087695 -0.099960 -0.087251 127 139 152
0.034875 0.181649 0.042985 254 254 255
0.019236 0.112357 -0.002943 255 255 255
-0.099210 0.146537 -0.045754 101 147 233
-0.094939 -0.151472 0.044941 100 147 235
-0.087384 -0.174001 -0.025353 101 142 220
-0.087151 -0.246823 0.016754 99 145 223
-0.058552 0.237201 -0.007858 252 253 252
-0.090980 -0.028154 0.011629 101 147 235
-0.064437 -0.183826 0.008001 254 254 254
-0.098688 -0.108500 0.035067 132 137 139
-0.086796 -0.161779 -0.085929 101 149 236
-0.101992 0.071238 -0.055935 101 148 235
-0.048801 0.211706 0.049330 254 255 254
-0.086669 -0.089232 -0.072489 100 150 236
-0.100446 -0.218650 0.045906 119 130 141
-0.077395 -0.232719 0.032360 254 255 254
-0.057025 -0.162370 0.062249 252 252 255
0.028326 0.142414 0.016600 253 253 253
-0.020090 0.143729 0.012108 254 255 253
-0.088467 -0.048498 -0.080028 99 146 231
-0.092991 -0.271595 -0.013152 102 146 226
-0.099931 0.215011 0.016615 100 148 234
-0.005900 0.054191 0.034976 253 253 254
-0.093949 -0.108699 0.039714 99 142 216
-0.063770 0.224713 -0.001085 254 254 255
-0.097404 -0.161501 0.045236 101 142 221
-0.086698 0.172343 -0.024723 99 148 236
-0.100078 0.254885 -0.061712 100 148 235
-0.088945 0.189531 0.023575 98 144 221
0.062261 -0.062223 0.036865 255 255 255
-0.068590 0.250564 0.007914 255 255 255
-0.085182 0.175257 0.044891 100 145 226
-0.079329 0.259289 0.020913 254 254 252
-0.088896 0.187386 -0.063331 100 147 233
-0.087337 -0.150934 -0.025916 119 127 132
-0.091026 -0.151072 -0.011443 101 149 234
-0.077957 0.265319 0.050317 254 253 254
-0.008970 0.033146 0.008611 254 254 254
-0.042266 0.172791 0.037585 254 254 254
0.005839 0.039911 0.058611 255 255 253
-0.046374 -0.114627 0.041331 253 254 252
-0.098759 0.185062 0.046979 101 149 236
-0.058173 -0.195835 0.041979 255 255 254
0.024011 0.037835 0.040310 254 254 253
-0.021307 -0.001103 0.025169 254 253 253
-0.097847 -0.147112 -0.078107 98 136 206
-0.101802 -0.187115 -0.064413 99 147 233
-0.088193 -0.251664 0.032676 99 141 215
-0.100726 0.065159 -0.085902 101 150 236
-0.101288 -0.224598 -0.003157 100 139 210
-0.052616 0.199105 0.033286 254 255 253
-0.092382 0.033251 -0.003071 143 150 154
-0.093885 -0.150817 -0.093377 102 149 236
-0.086392 -0.196849 0.005773 100 149 235
-0.013168 0.124442 0.047926 254 254 253
-0.093618 -0.229137 0.043108 100 148 236
-0.099925 0.069593 0.007718 100 143 220
-0.091918 -0.133277 -0.095302 99 143 220
-0.086792 0.151368 -0.087467 99 148 234
-0.087779 0.161128 -0.006657 98 136 206
-0.097543 0.271237 -0.004799 101 148 231
-0.064685 -0.216773 0.065203 255 253 254
0.061365 -0.059714 0.042578 254 255 253
-0.102239 -0.085843 0.021507 100 132 192
-0.088402 -0.229178 -0.010278 100 137 206
-0.090191 0.042423 -0.073765 100 131 188
-0.084964 0.278237 0.037513 255 254 254
0.046293 -0.015494 0.060063 255 254 254
-0.028691 0.164841 0.041521 255 253 255
-0.086018 -0.117827 -0.032167 121 130 136
0.047314 -0.021636 0.020866 254 255 253
-0.105271 0.111085 -0.027435 101 146 228
-0.078094 0.256689 0.028672 254 254 252
-0.053235 0.226582 -0.012579 255 254 254
-0.106666 0.041236 0.021263 100 137 204
0.029586 0.020306 0.051572 254 254 254
-0.099584 0.092815 -0.080345 100 148 232
0.004371 0.058061 0.059296 254 254 255
0.015411 0.065786 0.048424 253 254 255
0.037708 -0.026028 0.018763 253 254 253
-0.040313 -0.090355 -0.004412 252 254 252
-0.084778 0.172742 0.025912 101 148 235
-0.097214 0.269262 -0.035663 100 145 229
-0.099884 0.147930 -0.092154 99 148 234
-0.052057 -0.146996 0.001635 255 255 255
-0.022495 -0.023583 0.059915 253 254 253
0.088230 -0.131821 0.056298 253 253 255
0.030097 0.129678 0.051040 255 254 253
0.083069 -0.107191 0.015582 255 255 253
-0.100095 -0.217150 0.048492 100 147 235
-0.102218 0.158111 -0.091531 101 149 235
-0.086409 -0.054895 0.000471 100 149 235
-0.088318 0.110936 -0.034750 101 137 204
-0.070794 0.262329 -0.000325 255 255 255
-0.050761 0.198268 0.014522 254 254 255
-0.101711 0.082053 -0.034043 129 133 136
-0.087577 0.097441 -0.030010 101 149 233
-0.088154 0.048370 -0.040621 102 150 236
0.060900 -0.072200 0.016588 212 213 210
0.028310 0.039452 0.007899 254 255 255
-0.100547 0.255816 -0.055143 100 148 232
-0.100539 -0.074694 -0.084978 101 148 235
0.092878 -0.135640 0.020406 253 253 254
-0.068336 0.258384 0.026143 254 255 254
-0.086040 -0.160218 0.016649 101 145 224
0.027953 0.027801 0.046624 255 254 253
0.024037 0.052758 0.011695 254 253 255
-0.094714 0.038056 0.021228 101 146 226
-0.074624 0.244565 0.057123 255 255 254
-0.089054 0.195627 -0.064293 100 147 232
-0.059055 0.207120 0.028871 253 254 255
0.005013 0.097151 0.014181 253 253 253
-0.081094 -0.260281 0.010181 255 255 255
-0.029079 0.146506 0.048490 253 253 254
0.029209 0.235309 0.030438 255 255 255
-0.085789 0.207189 0.037420 102 149 233
-0.099479 0.066040 -0.006847 102 149 233
-0.099843 0.122955 -0.024278 98 137 205
0.021203 0.180354 0.036729 254 255 254
0.039726 0.000639 0.013961 253 254 254
0.052745 -0.059744 0.035669 254 254 254
-0.042467 -0.098663 0.042268 255 255 253
-0.099389 0.068087 -0.053970 102 149 235
-0.053985 0.226081 -0.017319 254 254 254
-0.087162 -0.194659 -0.068061 100 148 231
-0.073576 -0.221819 0.007617 254 255 253
-0.024588 -0.051691 0.048886 255 254 253
-0.100857 0.248409 0.010530 102 148 236
0.087694 -0.147356 0.064344 253 253 254
-0.100873 0.081974 -0.081271 99 142 216
-0.086092 -0.148091 0.006474 180 186 190
-0.061788 -0.179833 0.049975 255 254 254
-0.006007 0.085146 0.054488 255 255 255
0.025041 0.042174 0.027324 254 254 253
-0.087356 -0.215402 -0.032965 100 143 223
-0.086556 0.267543 0.003325 254 255 253
0.038055 0.211876 0.053439 253 255 254
-0.055627 -0.166480 0.019932 208 209 210
-0.101848 0.072542 -0.043602 97 135 203
-0.072205 -0.235245 -0.003255 254 254 253
-0.101205 -0.246498 -0.061074 100 148 234
-0.031898 -0.107813 0.001574 254 255 253
0.086574 -0.143837 0.043857 254 254 254
-0.035937 -0.067933 0.033629 243 245 247
-0.087110 -0.048198 -0.048990 100 148 234
-0.040601 -0.111909 0.026793 203 207 207
-0.069703 -0.235414 0.019268 254 255 255
-0.030948 0.141108 0.010184 255 255 255
-0.099868 0.056510 0.012302 101 148 235
-0.103765 -0.095003 -0.065375 101 148 236
-0.099465 -0.147414 -0.012056 100 147 235
-0.052012 0.222694 0.049126 254 254 253
-0.020721 0.120594 0.028224 252 253 252
-0.030835 0.176776 0.004715 253 254 253
-0.079305 0.276793 0.032635 255 255 254
-0.039017 -0.083534 0.046263 254 253 255
-0.079667 0.255869 0.054380 254 254 253
0.010321 0.103648 0.045746 254 254 253
-0.085953 -0.166744 0.039243 99 148 232
0.066313 -0.094065 0.043872 252 253 252
-0.102804 -0.056579 -0.049441 101 148 235
-0.095602 0.106210 -0.014185 99 147 232
0.030853 0.155004 0.061346 253 255 255
0.019450 0.034057 0.045651 254 255 254
0.029156 0.003263 0.051317 254 254 255
-0.085430 -0.277677 0.048182 254 254 254
0.028499 0.147160 0.020102 254 255 253
-0.100854 -0.032128 -0.007481 100 149 234
-0.087641 -0.223321 0.028676 101 148 235
-0.076564 0.252583 0.000104 253 254 253
-0.092473 -0.167258 -0.091860 101 150 235
-0.042964 -0.137101 0.021818 254 255 253
0.011520 0.067068 0.023278 255 254 255
-0.060071 0.246027 -0.014575 254 254 254
-0.053324 0.226550 0.008736 254 254 253
-0.063166 0.218621 0.032018 254 254 253
-0.100203 0.268356 0.012881 99 138 210
0.078798 -0.110879 0.065020 255 254 253
0.018071 0.030811 0.033660 254 255 253
-0.086770 -0.040913 0.012889 129 135 140
0.048925 -0.028189 0.036541 255 255 255
-0.099699 -0.191377 0.034002 100 149 236
-0.101684 -0.091695 0.011188 102 148 234
-0.101007 0.106248 -0.065948 111 133 162
-0.013801 -0.026798 0.018894 253 253 252
-0.102982 0.110066 -0.039589 100 147 233
-0.087392 -0.188491 0.026256 101 149 233
0.028213 0.140466 0.027339 254 253 254
0.031954 0.018436 0.047283 254 254 254
-0.099656 0.178283 0.011376 101 148 236
-0.087922 0.090102 0.002852 99 148 235
-0.084816 -0.149834 -0.083284 134 136 139
-0.043905 0.204853 0.040952 253 254 253
-0.089453 0.151979 -0.051024 127 131 134
-0.048796 -0.125456 0.010472 254 254 255
-0.086756 -0.118860 -0.069372 102 148 235
-0.101951 -0.094980 0.015796 120 131 139
0.016311 0.124073 0.056676 255 255 253
0.097895 -0.171207 0.028109 254 253 254
0.029758 0.000313 0.055504 254 254 254
0.049414 -0.029193 0.034257 255 255 255
-0.043403 0.164748 0.056207 198 201 202
-0.100663 0.109414 -0.018641 99 149 234
-0.100333 -0.095340 -0.019925 127 129 132
-0.059470 -0.173195 0.064793 253 255 255
-0.104656 0.165439 -0.077979 99 141 217
0.021579 0.044819 0.000221 255 255 254
-0.023218 -0.046004 0.013783 253 255 255
-0.085805 -0.207067 -0.036074 99 148 234
0.034121 0.173626 0.054191 254 255 254
-0.099837 0.125062 0.030048 99 141 217
-0.060920 -0.195317 0.039957 255 255 254
-0.101559 -0.064016 -0.089657 101 149 235
-0.042907 -0.096854 0.040192 254 255 255
-0.089077 0.269579 0.002877 253 253 255
0.048895 -0.028002 0.013066 253 255 255
-0.086146 -0.034480 -0.021385 100 149 235
0.062736 -0.085947 0.048869 255 255 253
-0.046664 -0.153808 0.024355 255 254 255
-0.063418 -0.183414 0.001118 254 254 254
0.000374 0.119259 0.037743 255 255 254
0.017038 0.117824 0.061143 253 253 255
0.054585 -0.038179 0.017066 253 255 254
-0.099886 0.082118 -0.059752 101 149 235
-0.011232 0.111935 0.057842 254 255 254
-0.105683 0.200020 -0.025369 102 144 224
-0.086477 -0.152136 0.017691 102 146 233
0.038441 0.006882 0.010971 255 255 254
-0.100992 -0.152049 -0.039105 137 144 150
-0.086403 -0.110365 -0.056541 101 147 232
-0.088198 0.111858 0.038235 124 131 136
-0.103542 -0.102420 -0.005130 100 147 232
-0.101271 0.067510 -0.001702 100 149 236
-0.047871 -0.164349 0.015555 252 252 252
-0.086648 -0.125312 0.025342 101 148 232
-0.025619 0.165851 -0.006907 253 254 255
-0.094067 0.185665 0.046220 101 149 235
-0.087567 0.103725 0.034088 131 136 139
0.024830 0.012846 0.040652 255 254 253
-0.074140 0.256834 0.044194 254 255 254
-0.095603 0.083567 -0.095234 101 148 235
-0.055056 -0.153652 0.049925 253 254 254
-0.055498 -0.194575 0.062029 253 255 255
-0.088828 -0.179495 0.007301 102 149 236
-0.068754 -0.227750 -0.017067 253 254 255
-0.003931 0.056462 0.025643 254 254 254
-0.088831 0.272135 -0.017202 102 146 229
-0.045058 -0.116779 0.047563 253 255 253
-0.019530 0.002026 0.051790 255 255 254
-0.030039 0.137375 0.049451 253 254 253
0.072544 -0.082430 0.016990 254 253 253
-0.087092 -0.062228 -0.074217 100 148 233
-0.101097 0.110534 0.029318 102 148 230
-0.009289 0.031871 0.045507 253 255 254
-0.044117 0.193444 -0.003747 253 253 253
-0.027161 -0.067938 0.006973 254 254 253
0.107560 -0.166549 0.009250 252 255 254
-0.099883 0.181743 -0.003101 100 144 222
0.016487 0.134725 0.053401 255 255 255
0.046187 -0.020554 0.040829 253 254 253
-0.090780 -0.137691 0.041997 101 148 236
0.008970 0.095057 0.064555 254 254 255
-0.019348 -0.029167 0.052187 254 254 255
-0.098836 -0.187892 -0.029269 100 149 234
-0.041837 -0.130890 0.048253 255 254 253
0.009103 0.098370 0.025124 255 254 255
-0.087024 -0.266072 -0.019260 252 252 253
-0.092487 0.066900 0.028703 99 143 220
-0.021269 -0.023332 0.062552 253 253 253
-0.087624 -0.030042 -0.007401 100 141 216
-0.100147 0.232773 -0.003119 101 148 235
-0.021207 -0.045029 0.006164 252 254 254
-0.089666 0.222086 -0.080987 100 148 233
-0.075414 -0.254349 0.018560 253 254 254
-0.034654 -0.062869 0.031772 254 255 255
-0.101573 0.218384 -0.068622 98 137 209
-0.100506 -0.127585 -0.094248 99 141 214
-0.022923 0.126805 0.023619 255 254 253
-0.086969 0.248909 0.031934 100 148 232
0.029588 0.008139 0.041162 253 255 254
-0.086502 -0.063232 0.008363 99 137 206
-0.082248 0.292543 0.056574 255 255 255
-0.057555 -0.164535 0.056444 255 255 255
-0.099446 0.229368 0.028512 101 148 236
-0.101377 0.075883 -0.049763 99 140 214
-0.101311 0.149665 -0.014899 101 149 236
-0.102138 0.228819 -0.079993 102 149 235
0.050447 -0.027520 0.008254 254 254 254
-0.105309 0.127726 0.018409 101 149 234
-0.037110 -0.074933 0.033919 253 254 254
-0.087678 0.214336 0.008031 101 148 235
-0.098530 -0.149403 -0.074537 100 146 225
-0.092133 -0.267910 -0.023945 101 138 204
-0.095285 0.240489 0.045052 100 149 236
-0.090548 0.274325 -0.019549 196 195 192
0.010040 0.066785 0.052075 253 254 255
0.009720 0.108427 0.041158 255 254 255
-0.038664 -0.078516 0.057216 255 255 253
-0.099117 0.152715 -0.091268 101 148 232
0.007596 0.059223 0.029940 255 254 255
-0.035150 -0.063239 0.052233 255 255 255
0.023090 0.016755 0.024249 253 253 253
0.015054 0.115699 0.031368 254 254 254
0.000199 0.067128 0.024639 254 254 254
-0.103694 0.097284 -0.039186 100 148 235
0.022803 0.072934 0.031834 254 253 253
-0.036499 -0.108243 0.011333 255 255 255
-0.019953 0.119179 0.027234 208 209 207
-0.058380 0.222006 -0.013613 254 255 254
-0.015117 0.104890 0.048217 254 255 253
-0.058325 -0.162143 0.030954 252 253 254
-0.024387 0.129436 0.044711 254 254 254
-0.071125 -0.239873 -0.004953 254 254 254
-0.101219 -0.078820 -0.004340 100 145 227
0.041993 -0.004269 0.012007 255 255 255
-0.089093 -0.137687 -0.091985 139 143 144
-0.025985 -0.052856 0.026657 255 255 254
-0.059110 0.219979 -0.017331 254 255 253
0.109387 -0.203249 0.035354 253 255 255
0.007366 0.070453 0.051047 255 255 255
0.095573 -0.164351 0.024501 254 253 254
-0.088024 0.054581 -0.020723 101 147 235
-0.081577 -0.096245 -0.067675 101 149 235
