ply
format ascii 1.0
element vertex 1204
property float x
property float y
property float z
property uchar red
property uchar green
property uchar blue
end_header
0.002191 0.268395 0.003129 252 252 251
-0.014620 -0.289322 0.041280 124 148 189
-0.000905 -0.276535 0.025909 250 252 251
-0.100193 0.137921 -0.060127 67 81 111
-0.075576 0.075555 0.039834 70 64 72
-0.076407 -0.173930 0.062713 60 83 152
-0.098081 0.068011 -0.040510 117 141 191
-0.098629 0.074030 -0.067144 61 60 64
0.022056 0.287598 0.012186 250 251 251
-0.073037 0.147084 -0.084973 76 67 69
-0.095084 0.001891 0.058548 234 236 233
-0.078230 0.223478 -0.001376 59 75 137
-0.044425 -0.296817 0.007907 97 123 171
0.053182 0.081885 -0.002937 252 253 252
-0.034797 -0.273687 -0.025519 250 252 249
0.037212 -0.268075 0.030334 248 250 250
0.067789 -0.179605 0.035938 245 247 246
-0.092551 0.143976 0.037172 52 66 132
0.067148 -0.009336 0.000555 251 251 250
-0.090271 0.136290 0.070422 58 56 69
-0.076838 0.184253 0.069788 71 60 65
-0.009498 -0.295206 0.018276 251 251 250
-0.005126 -0.250961 -0.012957 128 152 199
-0.084765 0.217357 0.043543 81 99 133
-0.037598 -0.281621 0.014747 87 118 197
0.087609 -0.152935 0.028806 249 250 250
0.068631 -0.148913 0.039509 252 252 251
-0.044881 0.268874 -0.025100 251 252 252
-0.079784 0.228683 -0.081314 74 65 69
-0.098170 0.088931 0.058557 54 68 141
-0.043730 0.285190 0.015349 84 106 172
-0.102342 0.012305 0.008271 221 222 220
-0.100937 0.015611 0.033793 56 54 58
-0.105606 0.036463 0.055970 241 243 243
-0.004043 0.271888 -0.018160 242 243 242
-0.086473 -0.083757 -0.041730 64 69 81
-0.076840 -0.166617 0.011462 66 86 150
-0.080837 0.185350 0.061390 53 68 138
-0.099096 -0.122887 -0.072383 107 121 142
-0.084802 -0.101209 -0.041364 109 121 135
0.027211 0.174931 0.048439 196 196 193
-0.090907 -0.159187 0.078177 62 68 76
0.046025 0.071070 -0.004321 249 250 250
-0.036593 -0.256751 -0.052996 250 250 250
-0.102915 0.063752 0.024159 48 60 125
-0.069160 -0.227158 -0.061925 58 74 145
-0.095821 0.070398 0.004351 56 72 130
-0.080107 -0.079117 -0.000448 87 112 167
-0.082813 -0.107813 -0.056065 106 127 167
-0.049659 -0.215840 0.071021 90 123 181
-0.077059 0.159062 -0.018628 73 90 129
-0.082882 -0.187454 -0.086731 90 100 105
-0.092584 0.192131 -0.068673 59 73 117
-0.035559 -0.292225 -0.000253 119 137 165
-0.101342 -0.064850 0.065207 247 247 247
-0.002101 0.295359 -0.037447 249 250 248
0.022807 0.170986 0.032011 249 251 251
0.031568 -0.210787 0.021685 226 228 225
0.056223 -0.180291 0.027690 246 248 247
-0.084235 -0.198969 0.071120 224 227 226
0.073426 0.028869 -0.015597 249 250 250
-0.049774 -0.208090 0.066763 102 119 138
-0.041894 -0.289997 0.023724 66 90 170
-0.099139 -0.105515 0.063554 101 110 122
-0.089583 0.090227 0.066029 61 66 74
-0.004475 0.261750 -0.041537 250 250 249
-0.069299 -0.181311 -0.076972 70 78 94
-0.014873 -0.293898 0.009006 90 126 197
-0.104857 0.101204 0.042354 58 73 134
-0.076205 -0.239030 0.063256 53 69 139
0.052428 -0.118270 -0.017315 250 252 250
-0.025855 -0.281551 0.015214 129 138 146
-0.039575 0.271981 0.037486 57 63 65
-0.099040 0.178746 -0.079200 98 108 113
0.045659 -0.239403 0.048041 248 249 250
-0.042579 -0.279020 -0.023162 65 80 107
0.072344 -0.029946 0.014828 249 249 248
-0.086091 -0.153594 -0.009153 60 76 143
0.029892 0.199266 0.051104 192 192 189
-0.096386 0.090302 0.025592 58 73 135
-0.101127 0.054076 0.035038 51 61 128
-0.050587 0.217189 0.056627 191 192 189
-0.079423 -0.244241 -0.052265 68 72 80
0.052896 0.097556 0.026846 251 253 253
-0.024829 -0.302497 0.003973 100 125 175
0.026778 0.318613 -0.003984 250 250 250
-0.082199 0.073378 0.051883 96 126 187
-0.015483 -0.299184 0.058573 251 252 251
0.026359 0.213641 0.046163 249 249 249
-0.072522 -0.209233 -0.071172 99 131 200
0.071995 -0.098741 -0.015578 251 253 251
-0.049046 0.263174 0.034801 52 59 58
-0.076379 0.237270 -0.071120 75 92 128
-0.095315 0.079310 0.059101 51 68 135
-0.045097 0.297500 -0.025418 253 254 252
-0.069343 0.232125 -0.050711 72 102 182
0.057536 0.102137 -0.000118 251 252 250
-0.090303 -0.226221 -0.074394 65 72 68
-0.095079 -0.152314 0.068133 92 118 172
-0.035506 -0.299264 0.049896 251 253 250
-0.095947 -0.191586 0.046932 56 69 117
-0.108276 0.072986 -0.018545 83 100 138
-0.070419 -0.208468 -0.082497 57 68 148
0.038631 -0.124759 -0.028915 253 254 253
-0.079262 -0.093295 -0.025216 77 87 107
-0.094233 -0.022854 0.045366 251 252 251
-0.001920 0.229946 -0.022930 246 247 246
0.047003 0.153299 0.004456 251 252 251
-0.050952 -0.277029 -0.029986 62 87 170
0.071881 -0.041065 0.011493 250 251 250
-0.001699 0.254366 -0.028987 251 253 250
-0.072958 0.186556 -0.026870 58 76 140
-0.009540 -0.294693 0.044152 102 139 201
-0.096679 -0.135238 0.045484 54 66 130
-0.068514 -0.176514 0.068515 55 72 130
-0.065791 -0.212124 -0.070947 100 121 165
-0.033252 0.294518 -0.027619 222 222 222
0.030863 -0.278265 0.010252 251 253 252
0.078023 -0.064453 -0.004998 251 252 250
0.040166 0.102782 0.015847 251 253 250
0.013702 0.279850 0.023739 251 252 251
0.054226 0.110632 0.044429 249 250 250
-0.028747 -0.283074 -0.017621 119 140 183
0.056633 -0.143462 -0.007351 199 198 197
-0.080467 0.050021 -0.049828 55 61 84
-0.054536 -0.246954 0.012838 51 69 152
-0.096251 -0.090589 0.058888 62 80 137
-0.072511 0.183189 -0.044832 54 61 131
0.023785 -0.294484 0.026065 247 248 247
0.048574 -0.215743 -0.005352 247 249 249
-0.090375 -0.103987 0.056211 250 251 249
-0.083813 -0.113501 0.054822 59 60 62
-0.087204 -0.068170 -0.034926 66 76 78
-0.041777 0.288697 -0.024252 66 64 70
0.030618 0.141223 -0.001250 251 253 251
0.043589 0.189356 0.021420 245 246 246
0.032414 0.170351 0.041445 203 200 200
-0.011756 -0.263149 0.042362 147 166 198
0.040149 -0.241690 0.002346 251 252 252
-0.055636 -0.196410 -0.074271 115 134 172
-0.025198 -0.286530 0.024916 82 113 176
-0.014900 -0.288034 0.063471 248 249 248
-0.071994 -0.210589 0.061565 54 60 66
-0.085891 -0.173280 -0.053457 54 67 128
-0.069864 -0.248970 -0.032080 65 86 170
-0.088792 -0.058168 0.067325 251 252 252
-0.031046 -0.306732 0.019954 249 251 250
0.083065 -0.028536 -0.001496 251 252 252
0.031899 0.179558 -0.008321 202 202 201
0.016222 0.308891 0.039580 251 252 251
0.019054 0.232836 0.015982 187 187 185
-0.089095 -0.156136 0.024656 50 63 134
0.035157 -0.177407 -0.010511 165 176 194
-0.089205 0.181922 -0.070115 37 44 118
-0.020544 -0.285745 -0.027958 215 218 217
-0.080491 0.002808 0.018727 250 251 252
-0.045826 -0.224174 0.072819 93 120 169
-0.022418 -0.302899 0.018022 244 245 245
-0.090189 0.203784 -0.019245 57 72 130
0.076575 -0.060360 -0.008389 241 243 242
-0.095464 0.055550 0.029740 57 72 129
-0.019405 -0.294093 0.007163 81 118 194
-0.076319 -0.095587 0.043177 64 69 74
0.082644 -0.119953 0.008003 225 228 226
-0.081247 0.191166 0.062828 107 125 155
0.082299 -0.072072 0.043856 230 232 231
-0.097082 0.007322 0.005737 250 251 250
-0.081897 0.169964 0.049200 59 81 159
-0.057314 -0.265830 0.034309 52 68 129
-0.057072 0.260709 -0.011688 74 98 158
-0.072124 -0.243397 -0.078517 56 58 56
0.027063 0.224716 -0.003690 187 187 185
-0.096539 0.016567 -0.021525 252 251 251
-0.063070 0.195687 -0.058236 86 110 166
-0.052322 0.287963 0.030291 102 125 175
0.072433 -0.021061 -0.008537 248 248 248
0.017209 0.234622 0.042817 249 250 249
-0.053919 -0.283658 0.038586 74 99 163
-0.069228 0.163943 -0.068442 115 142 195
-0.102097 0.161120 0.059157 113 124 138
-0.066908 0.227431 0.054869 57 68 127
0.022072 0.231721 0.042682 251 252 250
-0.096432 -0.049265 0.021058 250 252 252
-0.018272 -0.296850 -0.008342 249 251 251
0.053384 -0.075198 -0.001193 249 251 252
-0.098927 0.054627 -0.034962 68 79 92
-0.047181 0.265857 0.031447 91 117 170
-0.082672 -0.222089 0.048349 62 82 163
-0.027462 -0.271625 0.063859 69 111 189
0.055551 -0.212622 0.038721 248 248 249
0.091424 -0.081228 0.016272 246 248 248
-0.062891 0.260970 -0.048240 84 88 88
-0.087160 -0.201531 0.055006 64 73 92
-0.080879 0.190027 0.067955 105 130 172
0.034045 0.152127 0.023838 250 252 252
-0.065971 0.098832 0.036244 57 56 60
-0.086064 -0.083979 0.018060 66 71 82
0.019122 0.324072 0.010218 251 252 251
0.017106 0.304528 -0.006506 252 252 251
-0.093547 0.166260 -0.049746 51 64 143
-0.103163 0.105874 -0.043118 62 76 128
-0.080250 -0.087160 -0.010666 102 129 180
-0.101673 0.145601 0.059352 65 83 140
0.021674 0.263653 0.007404 249 249 249
0.020039 0.258183 0.015500 248 248 248
0.088258 -0.065607 0.018623 249 252 249
-0.099065 0.079738 -0.011198 62 68 82
-0.073595 0.125332 0.065795 52 58 56
0.031245 -0.202958 -0.000761 246 249 247
0.016920 0.207837 0.044907 251 253 252
0.061473 0.102455 -0.013778 252 252 252
-0.099893 -0.162328 -0.013507 68 91 167
-0.103241 0.012951 0.024252 244 245 245
0.050235 0.150370 0.017499 249 250 251
-0.052603 -0.265741 -0.048038 245 246 246
-0.086285 0.207068 -0.078287 112 136 180
0.043485 0.090069 -0.012619 248 250 250
0.084458 -0.069545 0.033956 251 253 252
-0.078539 0.108857 0.048783 65 91 178
-0.079053 0.196553 -0.091786 58 58 46
-0.103003 0.082675 -0.060873 83 72 70
-0.082351 0.142995 -0.072594 51 65 133
0.052255 -0.190137 -0.007418 249 251 251
-0.088437 -0.022050 0.024615 251 253 251
-0.068060 -0.197819 -0.067138 87 108 152
0.021682 -0.288287 0.000514 247 248 248
0.026158 0.199165 0.056238 251 252 251
-0.071670 -0.232413 -0.061918 56 74 139
-0.092211 -0.075126 -0.030455 238 238 238
-0.091396 0.000304 0.020894 249 251 249
-0.088410 0.123258 -0.073057 116 134 161
-0.084500 0.141869 0.048432 46 60 129
-0.044270 0.282325 0.045110 61 54 53
-0.080562 0.035416 -0.008555 59 66 71
-0.031740 0.309406 0.054517 245 246 246
-0.048301 0.285415 0.038799 123 145 187
0.006031 0.304001 0.031564 239 240 239
0.040462 -0.199866 0.040667 201 205 204
0.004168 0.245765 -0.016747 246 247 246
-0.060704 -0.195541 0.074422 95 119 164
-0.092540 0.108080 0.044777 82 106 162
0.054043 -0.191302 -0.009622 231 231 229
-0.016204 0.297704 0.055804 243 244 244
-0.045889 -0.236824 -0.065234 121 127 129
-0.020324 0.277054 -0.018692 224 224 222
-0.101926 -0.070955 0.026366 56 70 144
-0.068018 0.214238 -0.085312 71 60 56
-0.099655 -0.110845 -0.027310 73 97 161
0.008152 -0.208708 -0.008399 251 254 252
-0.076595 -0.207402 0.067991 249 251 250
0.063502 -0.122118 -0.012581 248 250 250
0.080216 -0.119741 0.015958 249 251 251
0.010410 -0.300590 0.020929 252 254 253
-0.089301 0.070938 0.015685 48 62 138
0.046897 -0.141399 -0.016093 249 251 248
-0.014185 0.300936 0.012326 248 249 248
-0.060319 0.288012 0.010800 199 200 199
-0.072072 0.106940 -0.066523 70 78 89
-0.041830 -0.285236 0.049596 66 94 160
-0.058526 -0.256813 0.052829 58 77 146
0.010731 -0.240091 -0.003060 251 252 251
0.030713 0.210763 -0.004902 249 251 250
-0.045841 -0.278743 0.058806 108 133 180
0.031507 0.135271 -0.012644 247 250 248
-0.002811 -0.292271 0.009659 152 155 153
-0.095879 -0.074593 -0.029691 250 252 249
-0.107154 0.035378 0.045317 71 61 73
-0.084245 0.126688 0.005595 61 76 133
-0.082009 0.073709 -0.043593 61 74 120
0.069477 -0.017232 0.019633 248 249 249
-0.073953 0.235866 0.052029 49 62 129
-0.000292 0.239559 -0.021313 218 218 219
-0.099838 0.136334 0.059877 91 119 176
-0.078791 -0.206696 0.070670 73 103 175
-0.074820 -0.075982 0.010498 72 77 82
-0.025945 0.305257 -0.013259 249 250 250
-0.089668 0.096440 -0.071428 59 68 62
0.037196 -0.160086 -0.005451 247 249 247
-0.022372 0.279564 -0.029677 233 234 235
-0.100014 0.067817 0.056944 77 110 182
0.010568 0.245021 0.012265 249 251 249
0.015703 0.239834 0.003801 246 248 247
0.069090 -0.136871 0.038953 251 253 251
0.033390 0.168065 -0.002243 202 201 199
-0.043115 -0.231467 -0.058190 247 247 247
-0.096666 0.167086 -0.087813 87 97 97
-0.008805 -0.303458 0.021112 252 254 253
0.004659 0.320409 0.005820 246 248 246
-0.073271 0.209850 0.065291 179 181 179
-0.094064 -0.191877 0.029462 51 66 137
-0.080740 0.056869 0.012530 249 251 249
0.026966 0.244720 0.039674 251 251 250
0.020758 0.162849 0.013160 249 251 250
-0.077670 -0.103087 0.069178 248 252 251
-0.080616 -0.021561 0.017716 245 247 247
0.073430 -0.031686 -0.009546 253 254 252
-0.032598 0.284501 0.004410 207 208 205
-0.013556 -0.252085 -0.020125 132 153 193
0.044276 0.105385 0.035397 250 253 251
-0.045481 -0.279509 0.059029 80 110 173
0.013463 0.289945 -0.009372 251 253 250
-0.072462 -0.127166 -0.056771 110 128 159
-0.071315 -0.148198 -0.025721 66 94 180
-0.088517 -0.092210 -0.013430 76 86 86
-0.091503 -0.113504 -0.064441 96 124 181
-0.101958 -0.062345 0.009973 252 254 253
-0.037450 0.252727 0.054958 101 130 183
-0.097194 0.082724 0.021567 54 69 136
0.014636 -0.264245 0.018636 251 252 250
-0.058043 0.251868 0.061034 64 55 54
0.022714 0.280660 0.014495 248 249 249
0.054029 -0.167830 -0.003506 225 227 225
0.059409 0.046587 0.041423 249 250 251
-0.078520 -0.063938 0.064348 250 250 250
-0.083921 0.169176 0.063674 102 127 172
-0.026495 -0.297421 0.053323 249 252 249
-0.011014 -0.302901 0.022284 252 253 253
0.001178 -0.292369 0.032759 237 239 238
0.033379 0.135864 -0.002429 250 252 252
0.010527 0.264713 0.055491 251 252 250
-0.037351 -0.280282 0.047447 49 64 134
0.046836 0.166714 0.009264 252 253 251
-0.058089 0.244007 -0.052534 57 62 74
0.030731 0.192531 0.045726 250 252 250
-0.011519 0.308314 0.004878 249 250 249
-0.096267 0.162759 -0.087229 125 130 133
-0.079936 -0.217657 0.048548 51 65 135
0.027095 0.309855 0.019021 250 250 250
-0.088716 -0.091472 -0.060218 115 124 127
0.053530 0.078123 -0.008111 251 253 252
0.005377 0.221039 0.001679 226 229 228
0.029164 0.232487 0.021592 248 250 249
-0.074964 0.141054 -0.040303 60 77 149
-0.073399 -0.153440 0.072882 245 247 247
-0.064396 0.210956 0.049418 83 110 182
-0.102356 0.074515 -0.036060 57 74 161
-0.086939 0.076162 0.022876 49 62 131
-0.048933 -0.267624 0.036625 66 100 175
0.019403 0.287412 0.029900 250 251 251
-0.105173 -0.057390 -0.010730 250 251 251
0.038800 -0.224499 -0.006585 192 193 192
0.061185 0.081483 0.003816 250 251 250
0.029395 -0.200696 0.023513 195 197 194
-0.094497 0.041992 0.030201 38 47 122
0.016998 -0.245154 -0.008918 177 185 196
0.021567 0.213433 -0.021426 251 253 250
0.064790 0.031919 -0.002354 253 254 253
-0.109023 0.047484 -0.008380 68 80 112
-0.018744 -0.299875 0.034584 251 252 251
0.009377 0.208805 0.036832 249 251 249
-0.074337 0.243401 0.012801 67 70 125
-0.026586 0.290552 0.048228 250 251 249
-0.087571 0.124870 0.048577 71 80 88
-0.061506 0.276402 -0.030406 58 69 129
-0.101771 -0.084240 0.053266 60 78 139
-0.076142 -0.234955 0.069986 237 239 238
-0.103528 0.053397 -0.035644 78 96 150
-0.103132 0.099278 0.055998 100 112 124
0.026353 0.172981 0.047149 195 194 193
-0.070828 0.177866 0.058350 72 57 71
-0.046834 -0.283370 0.062442 95 131 198
-0.075086 0.257992 -0.053585 62 78 136
0.030080 0.303294 0.048391 220 223 228
-0.070336 0.048359 0.059892 254 255 254
-0.100629 -0.095854 -0.019651 70 95 181
0.031113 0.321065 0.010849 252 252 250
-0.104836 0.047176 0.050519 244 246 244
-0.100911 -0.095921 -0.060078 85 63 73
-0.045221 0.286721 -0.039097 64 65 69
-0.093543 0.156510 -0.077049 72 82 90
-0.047250 0.256343 0.051965 66 64 69
-0.084613 0.118218 -0.082251 61 57 61
0.062009 0.087730 0.009537 251 252 252
0.071138 -0.081575 0.018355 246 248 248
-0.038767 -0.292391 0.000832 105 135 192
-0.030102 -0.289218 -0.011149 83 105 148
-0.086385 0.109844 -0.070977 80 106 171
-0.034491 -0.264031 0.039732 58 63 72
-0.082473 0.061045 -0.026690 111 138 192
0.014193 -0.273785 -0.013447 180 181 177
0.031466 0.319483 0.025976 251 251 252
-0.103734 -0.169050 -0.086813 67 75 72
0.011190 0.227480 0.019635 251 253 251
-0.091852 -0.045266 0.029484 247 249 249
0.017109 0.277158 -0.004216 247 249 248
0.015350 -0.165839 -0.021723 251 253 252
-0.089321 -0.111930 0.062010 58 64 80
-0.032276 -0.284637 0.024705 250 251 249
0.035057 0.137162 -0.018718 251 253 251
-0.026381 -0.286854 -0.006246 70 101 170
-0.075542 -0.243052 0.065837 86 115 179
-0.079700 0.234601 -0.056486 59 72 137
-0.015709 -0.286223 0.060623 166 169 168
0.061020 0.106366 -0.014756 251 253 252
-0.086622 0.161954 0.060385 47 55 119
-0.099980 0.148239 0.062951 62 68 75
-0.069746 -0.245763 0.008501 53 69 140
-0.090900 0.148828 -0.064476 59 69 106
0.073860 0.075323 -0.002035 251 253 251
-0.066757 -0.176965 0.069779 250 253 251
0.028837 0.183035 0.038388 185 185 184
0.094096 -0.033678 -0.003784 253 254 254
-0.031770 -0.295238 0.046592 246 248 246
-0.026950 -0.285883 -0.011063 83 110 184
0.038014 -0.199881 0.034636 250 252 250
-0.057448 0.232586 0.045049 55 70 136
-0.032054 0.311064 0.027497 252 252 251
0.019730 -0.260345 -0.022910 192 194 193
-0.085675 -0.079702 -0.033510 61 61 64
-0.108490 -0.094986 0.000900 57 70 145
0.091525 -0.079349 0.006181 252 252 251
0.067479 0.003050 -0.009038 248 249 249
-0.051049 -0.269539 0.049346 78 78 88
-0.055875 0.251712 -0.047816 138 154 186
-0.090817 -0.072782 -0.018022 245 246 246
-0.041859 -0.254913 0.050611 88 107 135
-0.093409 0.188217 0.054950 81 87 88
-0.052781 -0.250337 -0.058871 48 61 154
-0.062815 0.230283 0.052526 66 58 66
-0.030488 0.294145 0.056559 248 250 250
-0.072541 -0.123353 -0.016730 60 66 84
-0.092073 -0.167653 -0.068816 55 68 138
-0.104746 -0.103422 -0.036429 67 85 155
-0.071163 0.253610 0.031468 59 74 127
-0.064680 0.239691 -0.070291 136 150 178
-0.068313 -0.181945 0.072149 63 67 79
0.075779 -0.100021 0.006404 250 253 252
0.000044 0.206689 -0.018634 250 251 250
-0.029952 -0.292201 -0.001140 111 122 133
-0.076487 -0.229931 0.065388 53 69 140
-0.000278 -0.281269 -0.011782 250 252 251
-0.107321 0.112534 -0.067931 100 124 170
-0.042469 -0.286571 0.055573 252 253 252
0.023959 0.147398 0.013298 253 253 252
-0.110771 0.108621 -0.067536 65 72 68
-0.023293 -0.271315 -0.021402 122 138 163
0.014149 0.333230 0.023602 251 251 250
0.051865 0.105591 0.048904 252 253 252
-0.081120 0.216631 -0.086351 72 63 59
-0.026415 -0.286464 -0.002219 60 69 95
0.076823 0.038756 -0.013955 245 247 247
-0.037857 -0.238441 0.071002 247 247 247
0.095400 -0.069176 -0.000627 247 248 247
-0.085160 -0.099992 -0.029050 80 103 158
-0.010334 -0.287599 0.057435 109 146 203
-0.063006 -0.274531 -0.046897 60 62 67
-0.083184 0.079447 -0.057879 60 73 113
-0.029951 0.304191 0.056493 231 231 232
-0.061195 0.271818 -0.023848 41 48 119
0.025255 0.212074 0.051701 250 252 251
0.033853 0.182527 -0.014711 179 180 179
-0.037560 0.283706 0.040141 51 56 51
-0.062545 0.142664 0.043553 112 138 188
0.057369 0.055557 0.024479 251 254 252
-0.052151 0.299302 0.005693 251 251 250
0.009860 0.210860 0.013559 134 138 137
0.026300 0.233998 -0.000645 252 252 250
0.036934 0.158918 -0.001399 199 198 197
-0.068145 -0.263294 -0.020273 64 81 122
-0.065763 0.224987 0.056340 60 76 147
-0.103425 0.108708 0.061443 70 91 150
-0.039329 -0.277383 0.003932 252 253 252
-0.070682 -0.137759 0.067410 106 134 184
0.045639 -0.229972 0.003711 209 211 208
-0.075717 0.216522 0.028324 71 91 174
-0.088810 0.156971 -0.083906 81 102 153
0.046297 -0.220226 0.043904 249 251 250
-0.054351 -0.280368 0.019201 61 69 82
-0.061412 -0.248930 0.067128 53 65 126
0.042952 0.092611 0.047756 251 252 252
0.031094 0.158418 0.038997 249 250 249
-0.060743 -0.279251 0.054746 76 106 169
-0.033577 0.288928 0.014309 65 61 66
-0.052988 0.255746 0.054426 56 62 66
-0.090367 0.194151 -0.068955 54 67 133
-0.035068 -0.294988 0.028838 90 129 197
-0.071161 0.275227 0.049670 61 69 72
-0.052600 -0.286759 0.059350 62 70 76
0.074536 -0.139347 0.015300 251 253 251
0.063328 0.109005 -0.017262 241 242 242
-0.057013 0.213433 0.067076 61 67 69
0.007780 0.234720 0.032196 209 211 208
0.054614 0.144252 -0.009272 252 253 252
-0.082786 0.203617 -0.057123 61 73 112
-0.088001 0.169987 0.056065 66 74 78
-0.040913 -0.281957 -0.036866 86 91 99
0.052645 0.099982 -0.015129 251 252 250
-0.100930 0.061612 -0.037887 42 52 131
0.046635 0.125440 0.001052 188 189 190
-0.034538 -0.279860 -0.026548 92 120 179
-0.058046 0.266247 -0.031457 250 251 252
-0.090616 0.159598 -0.014781 47 58 134
0.079067 -0.081585 0.018931 253 253 252
-0.102737 -0.039551 0.023296 249 251 252
0.049336 -0.098086 -0.006706 249 250 251
0.026795 0.320380 0.001731 250 251 251
0.057881 0.070395 0.003005 251 252 251
-0.061256 -0.257347 -0.064706 67 71 73
-0.027458 -0.295991 0.024592 113 125 140
-0.096831 0.094716 0.039872 55 68 118
-0.001802 -0.301663 0.019564 251 253 252
-0.002880 0.250415 0.042798 251 252 250
0.009684 -0.227878 0.021993 240 242 242
-0.088558 -0.191889 0.011801 56 70 152
-0.077473 0.260046 -0.002049 97 119 159
0.061121 0.101322 -0.007408 252 253 252
-0.086830 0.041327 0.020340 143 160 195
0.039751 -0.171896 -0.011450 250 252 251
-0.042890 0.267669 -0.049333 126 141 167
-0.090789 -0.150428 -0.055353 59 73 143
-0.064384 -0.199657 0.061988 251 252 252
-0.067468 0.131584 0.064343 105 116 129
-0.064455 0.283529 0.020088 63 70 71
-0.070061 0.192209 0.054337 52 66 133
-0.013293 0.286420 0.059059 250 249 249
0.027925 -0.227918 -0.009429 250 251 250
-0.056631 0.273527 -0.022544 59 60 55
-0.089872 0.116363 -0.057331 46 57 128
-0.089940 -0.043128 0.050129 247 249 247
-0.047855 0.284787 -0.040594 56 51 52
-0.005364 0.319197 0.033822 240 240 240
-0.078060 0.121181 0.047325 68 78 84
-0.066898 0.184239 -0.081519 55 54 55
-0.048876 0.259622 0.050377 199 201 198
0.025546 -0.151095 -0.017345 250 252 252
-0.094697 0.065728 0.002399 57 70 152
-0.024942 -0.289766 0.045193 251 251 250
-0.057322 -0.201300 0.071710 78 106 166
-0.096855 -0.075195 -0.048806 250 251 248
-0.089828 -0.158837 0.062920 66 65 71
-0.083722 -0.117780 -0.037141 64 86 152
-0.096854 0.161963 -0.081874 66 83 137
-0.080700 -0.065972 0.059482 249 253 251
-0.101279 -0.120866 -0.024580 59 75 140
0.041748 -0.188640 -0.000274 180 180 179
-0.105571 -0.067799 0.012927 61 64 70
-0.084406 -0.023061 0.056272 247 248 247
-0.077200 -0.264213 -0.007463 61 68 80
0.009801 0.217723 0.028231 241 242 242
-0.045888 -0.270823 -0.046449 249 252 250
-0.086201 0.040074 0.041797 249 251 249
-0.063988 -0.178607 -0.069837 64 71 80
0.000272 -0.303144 0.050278 229 230 230
0.038980 0.106888 0.047097 251 252 250
-0.064340 -0.274956 0.011243 64 85 163
0.052059 -0.111008 -0.018800 249 250 249
-0.055635 -0.252453 -0.056010 252 252 251
-0.054371 0.243509 -0.045029 77 102 168
-0.009820 -0.290291 -0.001554 105 131 182
0.065038 0.004908 0.020434 249 251 251
-0.045688 -0.273782 -0.041957 59 78 146
0.092014 -0.129031 0.011065 249 251 253
-0.083966 -0.099357 -0.058382 134 150 177
-0.036229 -0.250335 0.063417 57 57 61
-0.102750 0.117025 -0.079826 78 78 80
-0.082758 -0.146355 -0.085382 84 92 91
-0.085537 -0.082381 -0.006415 114 136 182
-0.060269 -0.197969 -0.061837 53 65 144
-0.047595 0.284744 0.048895 252 252 252
-0.069432 0.210760 0.069559 58 49 53
-0.071461 -0.146022 -0.059089 78 111 198
-0.073879 0.214643 0.062891 179 180 179
0.003831 0.226146 0.043366 169 170 170
-0.049695 -0.251539 0.058959 69 100 175
-0.045447 -0.287535 0.047663 74 106 181
0.094263 -0.109287 0.017558 247 249 249
0.015549 0.227331 0.007240 204 205 207
-0.102733 0.038732 -0.002097 67 78 89
-0.052490 -0.277249 -0.040038 77 102 165
-0.089382 0.225731 -0.067069 73 89 126
-0.032952 -0.289415 -0.005936 65 89 168
-0.059257 0.195961 0.059527 57 53 56
-0.081071 -0.097094 0.017800 63 68 82
-0.081474 -0.199881 -0.076295 106 119 134
-0.066050 -0.266002 -0.029183 49 60 131
0.053293 0.136499 0.035522 251 252 250
-0.009669 0.291116 0.028665 184 184 184
-0.030591 -0.284413 -0.036146 251 251 251
-0.019398 -0.294128 0.013047 251 251 250
-0.083032 0.218605 0.037094 55 69 148
-0.084156 -0.203755 -0.086444 68 76 71
0.041436 -0.190004 -0.006913 221 224 225
-0.097179 0.122559 -0.050481 52 62 116
-0.082331 0.059572 -0.038307 50 64 158
0.004732 -0.301736 0.020008 251 252 252
-0.021431 0.303292 -0.007740 251 251 249
-0.036966 0.305804 0.036488 253 254 252
-0.106275 -0.091202 -0.026728 58 70 141
0.016161 0.273644 0.010281 246 247 248
0.062128 -0.151930 0.001490 200 201 198
0.055567 -0.084687 0.004938 245 247 247
-0.001834 -0.305052 -0.003554 251 252 252
-0.076992 0.029432 0.033747 248 251 251
0.078982 0.022571 0.038316 251 252 253
-0.063321 0.282789 0.043442 66 71 71
-0.100409 -0.082418 0.026690 58 73 121
-0.078736 0.123470 -0.070620 61 81 153
-0.096173 0.162990 -0.072070 60 73 122
-0.078339 0.190189 0.004265 48 62 135
-0.089511 0.150040 0.007065 49 61 133
-0.000551 0.267180 0.056645 207 208 208
-0.097069 0.135181 -0.054521 78 100 155
-0.096894 0.171673 -0.060946 70 90 150
0.015356 0.185825 0.033287 249 251 250
0.021021 0.222329 0.050768 246 246 246
0.025222 0.170681 0.019265 161 171 194
0.025672 -0.292455 0.019578 245 247 246
0.033143 0.149745 -0.016937 249 250 248
0.024043 0.316642 0.035395 252 252 252
-0.095879 -0.149890 -0.020113 51 63 135
-0.045729 -0.284882 -0.017455 72 96 168
-0.055596 -0.254662 0.073438 242 244 243
-0.076885 0.068771 -0.063151 64 58 59
-0.103181 0.105176 -0.063042 63 80 148
-0.100800 -0.046433 0.059455 71 78 77
0.013072 0.260422 0.029059 248 249 249
-0.077969 0.261703 -0.064221 69 77 85
0.020845 0.206648 -0.012071 252 253 252
-0.059363 0.215916 0.057722 63 70 72
-0.079778 0.159296 -0.089240 58 59 60
0.050144 0.104066 0.029607 250 252 251
0.062029 0.016165 0.035614 251 253 252
0.058433 -0.187611 0.036843 197 197 195
0.089357 -0.045902 0.010329 251 253 250
0.046488 0.096675 0.029758 250 251 250
0.032574 -0.211113 0.041432 249 250 250
-0.063657 0.199410 0.062691 59 72 106
0.029208 0.193840 -0.018870 248 249 248
0.062249 0.096758 -0.019226 245 247 247
-0.071920 0.226195 -0.083047 80 83 84
-0.077957 0.167343 -0.089483 70 68 73
-0.097416 0.044645 0.004787 131 148 183
-0.103288 -0.068731 -0.000168 249 250 249
0.082133 0.025825 0.028814 252 252 252
0.089196 -0.097225 -0.000752 251 253 253
-0.036873 -0.271211 0.055217 90 110 149
-0.000463 0.268634 0.046006 248 249 248
0.015055 -0.283579 0.052303 247 248 247
-0.076984 0.045075 0.030596 105 116 129
0.038171 0.155053 0.021688 184 184 183
-0.062449 -0.217553 0.055200 53 74 145
-0.078580 -0.074182 0.047220 248 251 250
-0.023457 -0.295746 -0.005573 251 254 252
-0.092310 0.203219 -0.069102 84 109 170
-0.086174 0.243953 -0.067926 103 111 114
-0.095340 -0.057567 0.039451 248 249 249
-0.074586 -0.082606 -0.026348 62 52 44
-0.053472 -0.243976 0.023906 63 85 163
0.082922 0.028239 -0.013077 250 250 251
-0.075212 -0.112338 0.069159 246 248 247
-0.019442 -0.292664 -0.008574 248 249 248
0.050563 0.133573 0.030636 239 241 242
0.085472 -0.037750 0.028512 249 251 250
0.014816 -0.305810 0.037154 131 134 132
-0.069182 0.234880 0.064150 56 61 74
-0.031714 0.269063 0.046915 59 61 69
0.037215 0.155610 0.028028 208 208 204
-0.035804 -0.250367 0.045684 70 101 160
0.039282 -0.244884 0.020725 244 246 245
0.045197 -0.248900 0.023822 151 155 149
-0.072054 -0.225046 0.071500 82 110 176
-0.078501 0.240076 0.045275 60 69 104
-0.094876 0.141584 -0.053902 61 82 160
0.009074 0.295422 0.021092 252 254 253
0.057923 0.016564 0.021071 252 253 251
-0.086978 0.124407 -0.084085 46 54 106
-0.078747 0.040161 0.022261 62 71 84
0.002696 0.314625 0.057510 250 252 251
-0.057298 -0.249441 0.074382 107 129 161
-0.082017 0.219023 -0.071147 87 112 180
-0.067778 -0.257776 -0.044018 66 86 157
0.040077 0.129958 -0.012889 225 226 224
-0.021370 -0.281134 0.019979 224 226 224
-0.101434 -0.085368 -0.038796 218 219 218
-0.036613 -0.291322 0.001719 94 122 183
0.022350 0.227199 0.001294 248 249 249
0.050644 0.108606 0.017226 252 253 252
0.091538 -0.123696 0.012247 248 249 248
-0.069557 0.259859 -0.060529 87 101 120
-0.075848 -0.213429 0.071639 53 70 142
-0.096375 0.002926 -0.000248 250 251 253
-0.049939 -0.237465 -0.070571 61 80 154
0.035222 -0.252367 -0.010456 247 249 248
-0.069748 -0.111082 -0.025788 133 155 196
0.019650 -0.254608 -0.019696 151 152 152
-0.041953 -0.264338 -0.003701 58 83 165
-0.102644 -0.044386 0.010452 252 253 250
-0.068584 -0.196291 0.046654 62 82 158
-0.019743 -0.289803 -0.002508 88 125 198
0.069835 0.023208 0.002398 222 224 223
-0.064967 -0.216653 -0.083173 56 58 66
0.007862 -0.299775 0.031412 251 252 251
0.080052 -0.067795 0.015400 252 254 253
-0.100561 0.099946 -0.037489 50 64 132
-0.058158 0.267940 -0.041965 62 75 127
-0.097869 -0.036913 0.027290 251 252 251
0.034228 0.188761 0.002056 199 199 198
-0.089758 0.031365 -0.028276 238 239 239
-0.037840 -0.282868 -0.011056 75 105 173
-0.049833 0.273691 0.036350 72 69 70
-0.095129 -0.187215 -0.087749 79 84 84
0.017268 -0.206069 -0.023021 250 251 251
-0.103844 0.086381 0.010045 65 82 130
0.019287 0.191550 0.011497 250 252 252
0.072545 -0.122100 -0.010147 250 252 251
0.092421 -0.027409 0.032363 249 251 253
-0.051310 -0.273620 -0.028882 248 248 248
0.027661 0.157524 -0.016763 251 253 251
-0.034055 -0.265841 0.047040 82 109 165
-0.088393 -0.114373 -0.064643 37 44 117
0.026810 0.221347 0.037859 195 194 194
0.013969 0.208871 -0.015252 196 197 197
-0.040104 -0.290658 0.031289 103 130 185
-0.081473 0.084677 0.012880 45 55 131
-0.081981 0.208435 0.047317 49 62 139
0.042319 -0.248422 0.044565 178 178 177
-0.082043 0.053546 -0.011543 45 57 133
-0.087303 0.182274 -0.060264 69 91 161
-0.077553 0.211325 -0.080262 109 132 178
-0.081452 -0.154399 0.071014 100 123 163
-0.092281 -0.141185 -0.081221 91 113 159
-0.047905 -0.278129 0.042926 61 71 73
0.026134 0.147236 -0.008978 251 252 252
-0.093379 0.198337 0.063319 78 61 69
-0.060150 0.264978 -0.047034 159 161 165
0.033615 0.192224 0.024272 249 251 250
-0.092398 0.151193 0.063971 67 77 98
-0.035605 0.236094 0.059509 141 144 146
-0.088734 -0.104561 -0.061495 115 137 177
-0.027233 0.283529 -0.019451 241 242 241
-0.039096 -0.255058 0.054738 64 75 108
0.014504 0.176464 0.008448 251 253 251
-0.044737 -0.296031 0.051516 252 253 252
0.039467 -0.223132 0.040814 177 178 176
-0.080160 -0.093360 0.008090 80 110 182
0.079465 -0.033967 0.025872 251 253 251
-0.056944 0.234242 0.062662 56 52 53
-0.064283 -0.142167 0.067529 54 60 59
0.046208 -0.229264 0.010644 245 246 247
-0.032657 -0.288603 -0.017317 60 68 66
-0.047251 0.280652 -0.026857 119 143 201
-0.075078 -0.252621 0.031690 74 98 168
-0.095279 0.067916 -0.028349 42 53 132
-0.060185 -0.235260 0.073114 59 65 71
-0.060940 -0.200731 0.067693 72 94 153
0.004007 -0.302764 0.043833 219 222 221
-0.095319 -0.069949 0.041043 77 88 110
-0.072343 0.185339 -0.077607 102 129 178
0.087559 -0.122233 0.018494 247 249 250
0.017006 -0.200681 -0.018063 100 107 114
-0.044038 -0.282796 0.061128 69 110 191
-0.080614 -0.149036 0.079520 246 247 247
-0.000771 0.272719 -0.016857 250 252 250
-0.091908 0.219546 -0.086926 63 67 63
-0.083603 0.048942 0.031008 120 142 183
0.019035 -0.272995 -0.011238 224 226 223
0.066171 -0.081656 -0.011466 221 220 222
0.082092 -0.039339 0.039585 252 253 251
-0.028608 -0.249631 0.073692 94 131 186
-0.048286 0.290337 0.008659 65 72 72
-0.079040 -0.197741 0.036265 58 73 134
0.057076 0.092319 0.001192 250 251 250
-0.005209 -0.285187 -0.014915 251 251 250
0.091256 -0.071581 0.013216 250 252 250
-0.080804 0.195210 0.059719 54 64 121
0.046341 -0.190059 0.041843 249 250 249
-0.059712 0.175658 0.033237 92 103 123
-0.016538 -0.287644 -0.008293 123 146 191
-0.091263 0.030887 0.013500 91 118 179
-0.054789 0.294565 -0.006973 68 73 85
-0.068530 -0.191159 -0.081031 116 143 196
-0.050342 0.270631 -0.042730 184 184 184
0.062998 -0.149911 -0.012355 252 252 252
-0.038548 -0.292544 0.045329 70 112 193
-0.064262 -0.261197 -0.075942 56 56 56
0.038129 -0.212972 -0.016161 248 249 249
-0.087773 -0.164498 -0.067971 45 54 118
0.016771 -0.290917 0.010757 250 251 250
-0.088811 0.042539 0.012088 65 91 167
-0.085161 0.202233 0.057575 60 65 74
-0.063806 -0.228862 -0.068693 244 245 245
-0.064307 0.180737 -0.077058 52 41 38
0.055885 -0.196351 -0.004386 202 203 201
-0.089445 0.054849 -0.051912 71 59 62
0.013590 0.214892 0.044186 244 245 244
0.058466 0.105522 0.011951 251 252 250
-0.049791 -0.280385 0.043032 52 68 149
-0.077530 0.103196 -0.058902 67 86 147
-0.099102 0.108543 0.056779 58 73 136
-0.100972 -0.015138 0.026696 249 250 249
0.050205 -0.153458 0.035389 249 251 251
-0.087915 0.113196 -0.076670 44 49 114
-0.095546 0.007185 0.008441 251 252 250
-0.034770 0.222573 0.058404 143 161 198
-0.083600 0.070020 0.014848 57 61 56
-0.002247 0.248932 0.042425 251 251 250
-0.060381 0.269967 0.056274 99 127 180
-0.091204 0.140800 0.068634 101 116 134
-0.007894 -0.230457 -0.021375 251 251 251
0.003368 -0.241762 0.011750 250 253 252
0.071129 -0.134899 0.014855 216 219 220
-0.053371 -0.293531 -0.022394 251 252 252
0.049113 0.070935 -0.010988 249 250 250
0.057764 0.107190 -0.007295 251 253 251
0.019777 -0.210548 -0.014204 251 253 251
-0.101021 0.100445 -0.067421 107 137 193
0.068387 -0.111881 0.038413 238 242 242
-0.085688 -0.207620 -0.051937 53 64 139
-0.106031 -0.063072 -0.007792 234 235 234
0.006076 -0.306521 0.034500 249 252 252
-0.017032 -0.289528 0.046511 234 235 234
-0.106517 0.045910 -0.036336 66 61 72
-0.071358 -0.168249 0.065984 67 70 78
-0.105114 0.095141 -0.056189 101 128 185
-0.055954 -0.225848 -0.025349 65 85 153
-0.091120 -0.156729 0.056922 75 97 151
-0.078752 0.135735 0.068797 196 197 196
0.016299 -0.299950 0.006697 247 248 248
-0.076758 0.240836 0.035150 63 80 130
-0.080161 -0.132483 -0.027855 70 101 169
-0.006037 0.186898 0.036736 208 212 210
0.003285 -0.305726 0.016846 155 158 155
-0.105261 0.051578 -0.021730 67 88 155
0.033423 -0.234923 0.024584 191 193 189
-0.029799 -0.280176 -0.032272 118 140 182
-0.094002 0.098801 -0.039089 55 69 138
0.046412 0.094409 -0.006254 249 251 249
0.065866 -0.080533 0.036435 249 250 249
-0.066111 0.254068 0.036055 46 56 116
-0.052354 0.245881 0.024822 54 57 99
-0.102383 0.081990 -0.001334 59 67 130
-0.091792 -0.082039 0.025139 121 145 195
-0.074149 0.249816 -0.064487 62 63 75
0.046825 -0.213725 -0.013040 243 244 243
-0.052931 -0.245888 -0.060233 100 120 156
0.067597 0.041812 -0.001650 251 252 250
-0.029667 0.306529 0.042187 251 253 251
0.016733 0.192483 -0.020333 252 253 252
-0.090078 0.086419 -0.065896 110 130 169
0.063467 0.043768 0.024738 251 253 252
-0.056268 -0.279561 0.045464 61 70 69
-0.085317 -0.238263 -0.018852 66 86 156
0.037766 -0.226935 0.048658 235 235 234
-0.039462 -0.293364 -0.019063 130 140 146
-0.107556 0.059309 -0.012774 86 115 179
0.030351 0.138303 -0.015917 249 250 249
0.073080 -0.024690 0.032784 251 253 251
-0.059876 0.235950 -0.075620 189 190 190
0.092159 -0.102809 0.010105 250 251 249
-0.080411 -0.098042 0.071307 251 252 252
-0.086879 0.061880 0.060775 245 245 245
-0.059919 -0.198667 0.086185 240 242 241
-0.053018 -0.288744 -0.002315 52 71 149
-0.051487 0.265834 -0.062069 76 69 73
-0.073545 -0.206521 -0.034573 67 88 160
-0.092213 0.122552 0.057755 60 62 72
-0.094862 0.146119 0.066130 56 68 112
-0.070924 -0.219444 -0.070607 84 107 155
-0.067155 0.205434 -0.074723 106 128 167
-0.080210 0.208967 0.052704 77 79 86
-0.093592 0.055691 -0.030644 56 75 149
0.034897 0.188802 -0.020564 248 250 248
0.046203 0.154907 0.003524 250 250 250
-0.084020 0.112321 -0.066283 61 65 79
-0.068735 0.203918 -0.072760 94 121 182
-0.089810 0.167497 -0.050680 57 71 121
-0.077404 -0.203925 -0.067748 55 74 151
-0.068841 0.168528 -0.077677 62 65 62
-0.087684 -0.044383 0.049313 250 251 252
-0.065904 -0.203764 0.081078 249 250 250
-0.082745 -0.119867 0.049989 76 104 183
-0.075925 0.227477 0.046938 51 60 121
-0.057957 -0.263198 -0.039147 250 251 250
-0.100614 -0.110446 -0.075980 59 65 63
-0.079454 0.193743 0.067539 156 158 159
-0.081483 -0.192103 0.081128 243 245 244
-0.071960 -0.229683 -0.077782 46 56 136
-0.083059 -0.099227 0.072766 249 251 252
0.055192 -0.194137 0.011009 251 253 252
0.054276 0.064761 0.046659 248 249 249
-0.084287 0.209681 -0.082154 63 76 114
-0.033959 -0.292618 0.006262 87 124 198
-0.097921 0.053384 -0.014112 56 73 147
0.091437 -0.069824 0.007453 251 252 251
-0.082107 0.051353 -0.030696 143 163 199
-0.076249 0.221110 -0.044897 81 107 171
-0.042927 0.285545 0.009604 191 189 187
0.025240 0.172509 0.037775 251 253 251
-0.094569 0.074213 -0.018509 52 65 131
-0.092653 -0.170403 0.007945 57 75 152
-0.107328 0.102409 0.063797 61 72 97
-0.060455 0.279383 0.037707 86 61 72
-0.052046 -0.243585 -0.061223 126 141 176
0.058586 0.098633 0.035935 252 253 252
-0.042934 -0.299507 0.024201 84 108 147
-0.093049 0.069843 0.061286 225 227 227
-0.078255 0.047302 -0.025859 78 110 177
-0.088453 -0.157505 0.053809 60 69 81
0.007752 -0.263931 0.012009 219 219 218
-0.042800 0.270230 -0.004663 63 38 35
0.021724 0.169276 -0.006932 250 252 251
0.046292 0.098779 -0.013723 249 251 249
0.032015 0.320033 0.035918 249 249 250
-0.078507 0.202898 0.060696 59 61 97
-0.045622 -0.280803 0.061238 99 116 144
0.051578 0.130042 0.014344 251 252 251
-0.053107 -0.216612 0.055293 58 70 103
-0.101703 -0.036739 0.032115 249 250 248
0.065551 0.014023 0.009685 250 252 252
-0.090777 -0.161566 0.064458 44 55 129
-0.042121 -0.291415 0.022140 219 218 219
-0.058637 0.237354 0.058430 54 63 67
0.016143 0.275127 0.001087 249 250 249
0.050527 -0.163299 -0.009646 195 196 196
-0.017963 -0.298459 0.002364 78 113 187
-0.087326 0.051581 0.008994 57 59 73
-0.088996 -0.155314 0.052029 52 65 127
-0.075162 -0.258883 0.054896 56 67 105
-0.088143 -0.053841 0.026899 250 252 250
-0.063619 -0.153480 -0.014809 97 114 131
-0.041942 0.271986 -0.034165 100 124 179
-0.027194 -0.262934 0.057394 77 118 193
-0.085941 -0.130137 -0.061087 81 108 172
0.048668 0.127621 -0.014812 249 250 249
-0.079672 0.151760 -0.073137 61 75 143
-0.096827 0.140919 -0.084584 79 101 156
-0.095793 0.122656 -0.021933 56 70 128
-0.057885 -0.231414 0.081256 237 238 238
-0.084113 -0.025493 0.055314 251 252 252
-0.095864 0.046659 0.037698 64 84 152
-0.090405 0.149832 -0.064809 66 81 126
-0.024891 -0.289191 0.018895 97 111 132
-0.052930 -0.269090 0.002715 70 95 164
-0.091226 0.180944 -0.089242 85 93 97
-0.108797 0.082488 0.025279 78 102 162
-0.083034 0.018849 0.019481 64 68 77
-0.058529 0.263115 -0.026201 42 49 117
-0.100903 0.125722 -0.075318 72 87 125
0.002968 0.307203 -0.022641 251 253 252
-0.034175 0.287046 -0.019535 61 43 43
0.032525 0.212271 -0.005615 195 194 194
0.015115 0.219099 -0.023135 249 251 250
-0.079435 0.200930 0.064763 195 195 194
-0.096314 -0.131679 0.054597 71 79 97
-0.030262 0.286317 0.023731 245 246 245
0.039468 0.116920 0.039403 252 254 252
0.028845 -0.274434 0.019559 242 244 243
0.043372 0.136983 0.044901 251 251 250
0.009022 0.252295 -0.018923 250 251 250
-0.092559 -0.081846 0.029282 67 76 77
0.005685 0.235278 0.041648 248 249 248
-0.085052 0.024070 0.000608 59 66 68
-0.016520 0.266768 0.049987 250 251 252
-0.100524 0.163571 -0.086398 101 106 105
0.088761 0.015312 0.011005 250 252 250
0.050916 0.085491 -0.006825 251 253 252
-0.106244 0.056343 0.063842 221 221 220
0.015224 0.223413 -0.001938 164 172 193
-0.040525 0.266818 0.030608 211 212 211
-0.081543 -0.117874 0.069453 238 239 237
-0.079723 0.032343 0.006017 74 108 179
-0.008354 0.259651 -0.020298 250 252 251
-0.096144 -0.144544 0.079937 251 253 253
-0.081166 -0.130762 -0.064315 43 54 134
-0.084905 0.151897 -0.085622 122 149 203
-0.101071 0.096431 -0.002472 66 87 156
-0.024604 -0.296224 0.014220 75 107 175
-0.061751 0.293668 0.038404 54 53 52
-0.033830 -0.299768 -0.005795 107 123 140
0.086897 -0.117188 0.020531 249 252 250
-0.075314 -0.246073 -0.058727 52 67 156
-0.026778 -0.298572 0.058894 250 252 253
-0.082148 -0.074141 -0.018851 245 246 245
0.069041 -0.102146 -0.010609 250 251 249
-0.102995 0.145769 0.052636 65 83 138
0.047680 0.151707 0.046015 248 250 250
0.008367 -0.310523 0.009117 249 249 247
-0.026556 -0.305571 0.012679 249 250 248
0.063846 -0.159809 -0.003367 251 253 252
-0.076236 0.067374 0.042143 251 253 252
0.037499 -0.259140 0.028128 177 177 175
0.016604 0.233116 -0.020187 248 248 247
-0.102042 0.053371 0.018287 54 69 136
-0.058265 0.251314 -0.068491 64 57 56
0.071230 0.052836 0.028997 252 253 252
-0.042471 -0.290702 0.013907 230 231 229
-0.055951 0.281846 -0.024914 194 195 194
0.046797 -0.182279 0.025466 251 253 251
-0.068648 0.260664 0.058101 88 103 129
-0.100744 -0.074910 -0.009588 91 107 129
-0.049990 0.292020 0.007698 61 52 55
-0.023789 -0.286417 0.010067 65 69 84
0.036262 0.188380 -0.019311 227 227 227
-0.050260 0.215292 -0.028274 71 98 173
-0.038010 0.279569 0.056530 251 252 253
0.027645 -0.226412 0.043174 250 253 251
0.058369 -0.089776 -0.011123 250 252 251
0.053992 0.137503 0.043446 242 243 244
0.092581 0.017673 0.000477 250 253 252
-0.042224 -0.258713 0.068834 128 150 190
0.017246 0.325095 -0.006463 251 253 252
-0.075260 0.171956 0.030505 48 62 131
-0.075201 0.045179 0.054044 248 250 249
-0.022195 0.296191 -0.014916 243 244 244
-0.081429 -0.084096 0.038570 122 145 190
0.063744 -0.163765 -0.000320 217 219 217
0.095250 -0.018755 0.009168 249 252 252
0.069641 0.014452 0.037116 250 251 250
0.020307 0.301176 0.021920 250 252 251
0.050456 0.103460 -0.009671 252 253 251
-0.082682 0.045953 0.020165 245 246 246
0.028304 0.189115 0.020338 250 252 251
-0.089171 0.106156 -0.066748 99 125 176
-0.074532 -0.062533 0.004106 251 252 251
-0.081200 -0.211860 0.034319 57 71 135
-0.000800 0.310273 -0.012249 252 253 252
-0.096104 -0.051001 -0.006925 251 252 250
0.014102 -0.305720 0.045043 247 249 247
-0.081762 0.194708 -0.080749 97 122 178
-0.060591 -0.202330 -0.038256 55 67 116
-0.031087 -0.245445 0.068052 111 140 192
-0.095298 0.138590 0.027132 77 100 168
0.014864 -0.305914 0.004906 249 251 249
-0.071158 0.255610 -0.061930 116 145 205
0.080915 0.019517 0.036607 249 250 250
0.014421 0.201691 -0.021861 250 252 250
-0.045568 -0.280887 -0.034127 76 107 180
-0.080177 -0.229235 -0.047975 70 88 154
-0.081054 0.200262 -0.015328 67 85 143
-0.078660 -0.095627 -0.051464 120 139 179
-0.096997 0.151446 0.066257 78 93 117
-0.036896 -0.288232 0.034377 94 123 175
-0.091894 0.043254 0.053588 247 249 248
0.057802 0.109872 0.022236 250 252 252
0.098537 -0.021267 0.004229 251 250 250
-0.071185 -0.244861 -0.044991 58 75 146
-0.073446 0.171138 -0.078947 111 116 120
0.014416 0.287300 -0.013872 248 249 249
0.005167 0.282286 0.051323 247 248 247
0.029239 0.164559 0.049009 251 252 250
-0.081054 -0.217770 -0.050590 59 73 147
0.060928 0.112945 0.026441 246 247 246
0.091852 -0.039754 0.003690 249 250 251
0.012764 -0.301877 0.023232 248 250 249
-0.002655 0.305628 0.019196 251 252 252
-0.082244 -0.015375 -0.007575 252 251 251
-0.070758 -0.086471 0.050891 225 228 226
-0.080192 0.045217 0.002565 248 250 248
0.036778 -0.208980 0.019171 188 192 189
-0.030622 -0.288014 0.017142 121 141 181
0.047753 -0.213914 0.016368 249 251 250
0.043131 0.090952 0.024722 252 252 251
0.022785 0.180384 -0.006717 189 189 186
0.011095 0.263991 -0.015658 251 253 252
0.034203 0.153225 -0.004968 209 207 205
0.010354 0.213469 0.020551 248 250 249
0.051962 0.091333 0.047535 249 250 249
-0.070804 -0.236754 -0.066602 228 228 226
0.044572 -0.219382 -0.003679 252 253 253
-0.068742 0.248264 0.063413 124 137 157
-0.097313 -0.161807 0.052880 76 98 163
-0.100291 0.112452 -0.074067 188 188 189
0.046637 -0.187384 0.009750 249 251 250
0.006378 0.289904 0.026100 198 198 199
0.052521 0.071136 0.041425 251 254 252
-0.062858 -0.149985 0.057682 98 119 150
-0.018889 0.299678 0.048926 247 248 247
-0.032703 0.277385 0.009754 57 64 62
-0.066911 0.087768 -0.046501 49 45 41
0.020528 0.249348 -0.005898 250 250 250
-0.008046 -0.282615 -0.016874 243 244 243
-0.076339 -0.181865 0.076294 60 66 69
-0.081012 0.067483 0.049488 246 247 246
0.033632 0.121476 -0.013030 251 252 252
-0.091854 -0.163567 -0.078781 90 98 105
-0.077975 0.181997 -0.082467 50 53 58
0.048757 0.088906 0.000104 251 252 252
0.060896 -0.121517 0.027295 250 252 251
-0.097644 -0.145771 -0.059722 77 104 173
0.053406 -0.168933 0.040581 247 248 248
0.059079 0.090906 -0.000974 208 210 206
-0.090186 0.049108 -0.011411 83 103 147
-0.059557 -0.231378 0.050539 71 99 166
-0.104352 0.153008 -0.065018 83 107 163
0.087568 -0.113566 0.022893 247 248 248
0.069468 -0.158576 0.042339 249 250 249
0.028954 0.166553 -0.002101 189 189 189
-0.042169 -0.250682 0.002370 77 106 172
-0.094814 0.093970 0.056245 61 78 158
-0.089438 0.055696 -0.047853 219 220 218
-0.093920 -0.099871 0.070623 247 250 248
0.066702 -0.112397 0.022562 249 249 248
-0.069830 -0.254116 0.076851 216 218 217
-0.087912 0.028584 -0.008376 56 60 69
0.022283 0.293864 -0.003188 251 251 250
-0.047579 -0.274549 -0.016692 70 95 166
-0.031827 -0.293769 0.044729 75 108 185
0.050890 0.160454 0.013238 248 249 249
-0.076962 0.209881 -0.087335 53 52 46
-0.091531 -0.115025 -0.069765 88 92 93
0.000442 0.298686 0.010362 251 252 250
-0.101737 -0.099660 -0.062266 65 68 76
-0.106053 -0.038667 0.025830 245 245 245
-0.053182 -0.249763 -0.056760 251 252 251
0.078226 -0.076473 0.017771 252 254 252
-0.096287 -0.098789 -0.052186 50 62 138
-0.088471 0.086936 0.017036 56 69 143
-0.055175 0.295074 -0.017639 251 252 252
-0.044206 -0.248036 0.066245 76 99 158
-0.081858 0.052532 -0.036720 235 236 235
0.028516 0.163794 -0.018665 250 251 249
0.023914 0.124147 0.047836 253 253 253
0.011274 0.202266 -0.014041 251 253 252
0.077381 -0.072085 0.019970 251 253 252
-0.047527 0.272497 -0.056413 199 200 198
-0.044421 0.273557 0.013591 88 117 184
-0.101892 -0.124149 0.023628 57 71 142
-0.098385 -0.161839 -0.077019 85 97 109
-0.073596 -0.138430 -0.063503 88 123 194
-0.105390 0.051706 0.040208 228 229 231
-0.093201 0.010352 0.058650 250 251 249
-0.052910 -0.264488 0.059959 83 98 121
-0.002251 -0.196822 0.025036 141 160 197
-0.099373 -0.146303 -0.002377 71 97 171
-0.085113 -0.171187 -0.050637 48 61 134
0.033128 0.159792 0.007067 250 252 249
0.034912 0.173292 0.042661 195 194 193
-0.084932 -0.176192 0.049465 61 75 121
-0.076706 -0.104575 -0.074114 61 66 70
0.060783 0.091304 0.008589 251 253 253
-0.037344 -0.272881 -0.035212 251 253 251
0.011379 0.208771 0.039294 249 251 250
0.024804 0.188720 0.046326 177 178 177
-0.021922 -0.300475 0.047104 248 248 248
0.095709 -0.078875 0.023990 252 252 253
0.031776 0.173736 0.017022 196 195 192
0.019551 0.184679 0.022618 251 252 252
-0.047287 -0.263241 0.055786 58 71 119
0.049862 0.134456 0.001673 249 251 250
-0.087158 -0.179409 0.056819 53 66 127
-0.086605 0.179180 -0.072706 74 97 156
-0.092744 0.087467 0.064645 95 125 186
0.084335 -0.054634 0.024916 246 248 247
-0.039947 -0.259353 0.067831 126 132 132
0.055846 0.043610 0.007216 249 251 250
-0.077844 -0.074877 0.006951 249 249 249
-0.100735 0.162058 0.044462 80 107 170
0.002704 -0.295877 0.040745 231 233 231
-0.058629 -0.230364 -0.084965 60 57 66
-0.042444 0.263517 -0.048614 151 161 190
0.043686 -0.225163 -0.009710 245 247 246
0.019259 -0.291256 0.047878 249 251 251
-0.100452 -0.074812 0.053845 230 232 230
0.084913 -0.034978 -0.003954 251 254 253
-0.066697 -0.204660 0.071927 111 141 196
0.029357 0.325148 0.016573 250 251 250
-0.087457 0.137176 -0.087401 56 53 53
0.001538 -0.198899 -0.009589 249 250 250
0.087388 -0.027947 -0.011519 246 248 246
0.097094 -0.020424 0.007188 250 251 251
-0.099518 -0.148776 -0.002373 43 54 132
0.055877 0.079524 -0.016887 250 252 251
-0.060118 0.176659 0.062491 59 63 58
-0.082989 0.052644 -0.052009 98 107 116
0.087517 -0.075828 -0.005981 251 253 251
-0.019858 -0.273084 0.058630 128 152 194
0.076518 -0.032221 0.002597 253 254 253
-0.056109 -0.267894 0.061966 203 208 206
-0.068687 0.251281 -0.000568 86 111 172
-0.101472 -0.082482 0.068620 245 246 246
-0.100564 0.042471 0.061738 248 249 249
-0.099721 0.031464 -0.013639 222 223 220
0.015624 -0.307989 0.011276 251 253 253
0.022152 0.253670 0.030337 247 249 248
-0.063722 0.199849 -0.044329 59 74 138
0.078051 -0.131494 -0.015847 248 248 248
-0.062582 -0.232837 0.064274 62 73 82
-0.000821 0.263823 -0.018393 250 251 250
0.038245 -0.232176 0.002932 177 177 177
-0.075294 -0.198006 0.025044 59 79 148
-0.048854 -0.221249 0.074587 58 53 61
-0.063935 -0.248330 0.072793 98 127 179
0.064850 -0.173371 0.035807 252 252 251
-0.036707 -0.290250 0.035661 80 121 198
-0.108860 0.068301 0.019302 87 104 128
-0.084784 -0.205506 -0.057164 68 88 149
-0.099924 -0.108667 -0.042374 105 117 131
-0.099357 0.145648 -0.060320 57 69 136
0.013013 0.302270 -0.016010 249 250 250
-0.070280 -0.212960 0.062002 104 130 183
-0.076477 0.259552 -0.057508 79 84 83
-0.033953 -0.296819 0.049635 251 252 250
-0.083258 0.042442 -0.015746 246 247 247
-0.103908 0.143481 0.067883 75 87 99
-0.088464 -0.218449 -0.051332 60 72 142
-0.028757 -0.299266 0.006063 113 135 173
-0.074583 0.180833 -0.078745 75 84 92
-0.098637 -0.075592 -0.008869 112 137 196
-0.051904 -0.264614 -0.042152 73 97 165
-0.047280 0.187865 0.055140 141 160 196
0.014098 0.209206 0.019487 250 252 251
-0.097913 -0.042557 0.006120 249 252 250
-0.034697 -0.266270 0.065793 202 202 200
-0.078441 -0.067326 -0.047488 250 250 249
