ply
format ascii 1.0
element vertex 1181
property float x
property float y
property float z
property uchar red
property uchar green
property uchar blue
end_header
-0.113980 -0.072806 -0.054087 101 149 237
0.033297 -0.267832 -0.022004 255 255 255
-0.043478 0.265580 -0.014560 255 255 255
-0.013808 -0.269061 0.054729 254 254 255
0.325151 0.262372 0.056384 255 255 255
-0.092908 0.180478 0.025769 102 149 236
0.265228 0.268961 0.008058 253 255 255
0.047955 -0.277965 0.019881 255 255 254
-0.096857 0.054692 0.020177 102 150 238
-0.096398 0.082715 -0.041447 101 149 237
0.165276 0.270771 0.055573 254 254 255
0.407539 0.261691 0.020344 255 255 254
-0.095364 0.161037 -0.075526 102 149 237
-0.093268 -0.221503 -0.083103 102 149 238
-0.105879 -0.276340 0.029819 103 150 238
0.328608 0.263445 0.038073 255 255 255
0.324317 -0.262953 0.055440 253 255 254
0.222579 -0.252588 0.021960 255 253 255
-0.111833 -0.162039 -0.068766 103 149 236
0.212707 -0.262564 0.016123 255 255 255
0.030496 0.276880 0.056981 254 255 255
-0.055716 -0.270449 -0.027771 253 253 254
-0.106503 -0.079646 -0.030949 101 150 238
0.070615 -0.276034 0.037587 255 254 255
0.240944 -0.264857 0.034171 254 254 255
-0.113430 0.123305 -0.029818 102 149 236
-0.046577 0.267163 0.047956 255 255 255
-0.095943 0.076993 -0.080113 100 148 238
0.157546 -0.264377 0.059290 255 255 254
0.098905 -0.263440 -0.017317 255 255 255
0.028885 0.266666 0.017702 254 254 255
-0.102642 -0.276252 0.032948 101 150 237
0.174265 -0.269871 0.010182 253 254 254
-0.092162 0.055632 0.025209 101 148 237
0.061610 -0.275161 -0.017002 255 255 255
-0.111902 0.254639 -0.069563 102 150 238
0.158386 -0.268450 -0.016769 253 254 254
0.085104 -0.272724 0.001682 255 255 255
0.000698 0.277062 -0.014506 254 254 255
0.068975 0.275757 0.028704 255 255 255
-0.095725 0.075800 -0.028683 103 148 234
-0.107914 0.027222 0.030487 102 149 238
0.220796 0.273483 0.007616 254 255 253
-0.093648 -0.260534 0.050915 103 151 238
0.014816 0.264984 0.009898 255 255 255
0.199258 -0.254268 0.006215 255 254 255
-0.094693 -0.252239 -0.004827 103 149 237
-0.109779 -0.143017 0.001401 102 149 238
0.195876 -0.255195 0.023257 255 255 255
-0.040772 0.268378 -0.009684 255 254 255
-0.098568 -0.224498 -0.061877 102 149 238
0.193970 0.267466 -0.010327 255 255 253
0.225112 0.273164 0.007900 254 255 254
0.015639 0.276258 0.015489 254 254 254
0.167224 -0.259115 -0.010583 255 255 255
-0.112053 0.157361 -0.001856 101 150 234
-0.110409 0.190654 -0.006098 101 149 237
0.085565 -0.262000 -0.017462 255 253 255
-0.059822 -0.270111 0.028343 217 218 223
-0.109354 0.154820 0.002282 101 149 237
-0.094659 0.204276 0.051354 104 151 238
0.168338 0.272667 0.032757 253 255 255
-0.099860 -0.134289 -0.037587 104 151 236
0.090952 0.269881 0.061489 254 255 254
0.007925 0.267965 -0.011320 254 255 255
0.206187 0.262347 0.007581 255 254 255
-0.109562 -0.097029 -0.081391 101 151 238
-0.111020 -0.086106 0.019420 102 150 237
-0.107896 -0.064288 0.007336 102 150 237
-0.096394 0.258911 0.001712 101 150 237
-0.096596 -0.202902 -0.088669 101 149 235
-0.093460 0.260118 -0.070284 139 145 154
0.231716 -0.256800 0.055619 255 255 254
0.192279 0.271861 0.042325 255 253 255
0.325775 0.262506 0.006661 255 254 255
-0.096935 0.055385 -0.047415 104 151 238
-0.107032 0.245359 -0.005311 102 150 235
0.315251 -0.255862 0.001167 253 254 254
-0.097557 -0.236717 -0.063633 102 150 238
-0.092435 0.239310 -0.076275 102 149 238
-0.107124 0.165905 0.031057 101 149 237
-0.094445 0.032004 -0.002521 101 150 237
-0.055406 -0.283702 -0.021215 255 255 254
0.247394 0.263639 0.024512 255 255 255
0.288898 0.266441 0.028212 255 255 255
0.076115 -0.275334 -0.011273 253 255 254
0.401532 0.264380 0.056310 254 255 255
-0.095732 -0.133794 -0.018627 131 133 142
-0.110461 0.234267 -0.014883 101 149 238
-0.112599 -0.104949 -0.095089 102 150 238
0.005884 0.276713 -0.021763 255 255 255
-0.084659 0.278028 -0.012396 255 255 255
0.098793 0.274417 0.024737 254 255 254
-0.096762 0.195661 -0.084607 101 149 235
-0.093272 -0.125969 -0.069540 101 148 238
-0.042056 0.267886 0.008399 255 255 255
-0.110527 -0.274962 -0.030768 103 150 236
0.400698 -0.246135 0.043911 255 254 254
0.026390 -0.265849 0.045420 255 255 255
0.007053 0.268059 -0.000589 255 255 255
-0.003459 0.265590 -0.022889 255 255 255
0.139164 0.264334 0.017457 255 255 254
-0.106822 -0.199167 0.051272 103 147 230
-0.095665 0.147763 -0.050180 103 149 237
-0.079450 -0.273465 -0.040121 255 255 255
-0.096713 0.120027 -0.069985 103 149 236
-0.095313 0.025178 -0.067915 101 149 238
0.151253 0.273754 0.045425 254 254 254
0.071875 -0.276139 0.040070 255 255 255
-0.101027 0.283378 -0.032492 101 150 238
-0.112348 0.097604 -0.056497 102 151 237
-0.093322 -0.242353 -0.069017 103 150 237
-0.091835 0.138299 0.021309 101 148 237
-0.106848 -0.164565 0.046591 102 151 238
-0.113927 0.028015 -0.060983 101 149 237
-0.072184 -0.272718 0.023072 254 255 255
0.069846 0.275363 0.012313 255 255 255
0.356632 -0.260716 0.010397 254 255 254
0.104226 0.274292 0.049439 255 255 255
-0.114127 0.197951 -0.028735 102 150 236
0.301706 0.271431 0.048852 255 255 255
-0.110011 0.121771 -0.063753 101 149 236
0.007640 0.277275 0.029747 254 254 254
-0.096293 0.245277 0.029144 103 150 238
0.207715 -0.258982 0.021552 254 254 255
0.185558 0.260447 0.049158 254 255 255
-0.095304 -0.166156 0.042068 102 149 238
-0.095778 0.268495 0.007148 255 255 255
0.049526 -0.277564 -0.018070 255 255 255
0.134335 -0.272388 -0.009027 253 253 255
0.175391 -0.268515 0.045548 255 255 254
-0.093925 -0.272305 -0.002484 101 150 237
0.050075 -0.276861 0.046731 255 255 255
0.194287 -0.267663 0.051224 254 255 255
0.123054 -0.263998 0.059737 255 254 254
0.168559 -0.256689 -0.008692 254 254 255
-0.091791 0.078895 -0.035771 103 149 237
-0.035661 0.279374 0.002331 255 255 255
0.083337 -0.264572 -0.006092 255 254 255
0.025457 -0.266870 0.058819 255 255 255
0.296779 0.266782 0.004980 255 255 255
-0.116037 0.165206 -0.085133 101 150 238
0.004392 0.276269 0.042309 255 255 255
-0.114561 -0.170560 -0.068571 101 151 238
-0.111807 -0.130999 0.008164 103 150 237
0.171716 -0.261469 -0.010480 254 254 255
-0.092564 -0.159797 0.043198 103 150 238
-0.093224 -0.153336 -0.086202 103 151 237
0.116875 0.264265 -0.019133 255 255 255
0.045749 0.276295 -0.005055 255 255 255
0.214868 -0.254236 0.020051 253 254 255
-0.109629 -0.224672 -0.013371 103 151 237
0.342828 -0.259997 0.040912 255 255 255
0.394502 0.268857 0.051506 255 255 255
0.062719 -0.265150 0.002304 254 254 254
-0.093747 0.074420 -0.004136 101 148 236
0.080852 -0.265281 0.061441 255 255 255
0.110875 -0.264787 0.060689 255 255 254
0.047573 -0.266397 0.062057 253 255 255
-0.112056 -0.281305 -0.036456 103 150 238
-0.087167 0.267845 0.008654 255 255 254
0.044482 0.275269 0.034631 255 255 255
-0.049159 -0.268455 0.032686 254 253 253
-0.056502 0.279304 -0.001183 255 255 255
-0.091139 -0.034120 -0.005206 101 150 237
-0.111839 -0.097120 0.025897 103 151 238
-0.113676 -0.208247 -0.072099 101 150 238
0.007180 -0.279429 0.053755 255 255 255
0.102247 0.274115 0.044197 255 255 255
0.076560 -0.266448 -0.024337 255 255 254
0.219375 0.263368 0.046223 255 255 255
-0.001561 0.276772 0.059305 255 255 255
0.167737 -0.256260 0.054305 255 255 255
-0.107549 -0.154671 0.045011 102 150 238
0.419586 0.269675 0.054901 255 255 255
-0.054332 -0.284599 -0.004400 254 255 255
-0.031490 0.266986 0.063832 255 255 255
-0.097540 -0.213297 -0.083745 103 151 237
-0.107444 -0.167704 0.046926 103 150 237
-0.108533 -0.059542 0.021265 104 150 236
0.022648 -0.278651 -0.008859 254 255 255
-0.095534 -0.221446 0.013103 101 150 237
0.376414 -0.246514 0.052131 255 254 255
-0.097810 -0.212306 -0.029840 101 149 238
-0.097793 -0.214169 0.054827 102 150 238
-0.099172 -0.048772 0.020328 103 150 237
0.111322 -0.262342 0.016564 255 255 254
0.007622 -0.269146 0.049189 255 255 255
-0.012810 -0.270594 0.043383 255 255 254
0.182245 0.275709 -0.008972 255 255 255
-0.112917 -0.067889 -0.039287 103 150 238
-0.093122 -0.044281 0.003016 101 148 238
0.170417 0.262605 0.044191 254 254 255
0.032395 -0.265870 0.041589 254 255 255
-0.118506 0.128235 -0.014765 101 148 236
0.236864 -0.260461 0.059205 253 254 255
0.280571 -0.257095 0.010608 254 254 253
0.378302 -0.246150 0.025703 255 255 254
0.148439 -0.262064 -0.013569 254 255 255
-0.099033 0.100975 -0.093067 102 149 237
0.070559 0.264921 -0.026243 254 255 254
-0.097521 0.222027 -0.064382 102 150 236
0.065445 -0.276674 0.010243 255 255 254
-0.038893 -0.284744 0.015141 255 255 254
-0.059860 0.280081 -0.029078 255 255 254
0.074099 0.263425 -0.022799 254 253 254
-0.109888 -0.175917 -0.023516 102 151 235
0.093917 -0.274783 0.041415 253 254 254
-0.092760 -0.079073 -0.083649 103 149 237
-0.112259 0.194279 -0.077912 101 148 236
-0.030729 -0.270912 0.017466 254 254 254
0.262947 -0.255886 0.062039 255 254 255
-0.093430 0.061716 -0.064266 103 151 238
0.310149 -0.254404 0.055094 255 255 254
0.327353 -0.247217 0.016418 255 254 255
0.409840 0.260702 0.011173 255 255 254
0.404928 -0.246193 0.012181 255 254 255
-0.116384 -0.108055 0.038723 103 149 236
-0.114970 0.255908 0.034806 103 150 238
-0.110401 0.055362 -0.034394 102 147 230
0.286911 0.264067 0.026169 255 254 255
-0.096459 0.139147 0.019736 101 150 236
-0.095926 0.083507 -0.010985 102 149 237
-0.109962 -0.055546 -0.038491 105 152 238
-0.119727 -0.184831 -0.025750 102 149 237
-0.093015 -0.199337 -0.017617 101 150 236
0.373649 0.272579 0.029358 255 255 255
-0.017036 0.266446 -0.031090 255 255 255
0.306797 -0.261479 0.019811 255 255 255
-0.091099 -0.124043 -0.093675 101 148 235
-0.090404 0.160839 -0.023940 103 151 238
0.158754 0.272356 0.047376 254 254 255
0.090839 0.274539 0.031543 255 254 254
-0.110063 -0.090182 -0.005446 101 149 238
0.091768 -0.271367 0.060769 255 255 255
-0.094659 -0.230189 0.052243 101 149 238
-0.111764 0.119129 0.009870 101 150 236
0.354809 0.261229 0.046203 255 255 255
-0.112390 -0.094093 -0.028917 101 149 236
0.160805 -0.256827 0.055219 254 255 255
0.000785 0.264897 0.041829 255 255 255
0.304363 -0.248169 0.056798 254 255 255
-0.112250 -0.088670 -0.078121 102 150 237
0.265977 0.265980 0.051453 255 255 255
0.238316 -0.251551 0.010185 255 255 254
-0.109321 0.172548 0.018748 100 149 236
-0.106935 0.063044 -0.093259 102 149 236
0.046464 0.276519 0.001065 255 255 255
-0.089620 -0.068682 -0.034960 104 149 236
-0.096395 -0.125009 0.023173 101 148 235
-0.113195 0.264062 -0.059442 102 150 237
-0.096789 -0.208386 -0.001236 103 149 234
-0.093462 -0.115139 -0.084612 102 150 236
-0.066856 -0.276303 -0.023186 254 255 254
-0.032980 0.267106 -0.032878 255 255 255
0.000383 -0.267806 -0.018831 255 255 255
0.069318 0.263767 -0.019321 254 255 254
0.032299 0.279076 -0.031792 254 254 255
-0.081364 0.276499 -0.037819 255 255 255
-0.107804 0.067282 -0.016709 101 150 235
-0.098504 -0.060714 -0.082747 102 149 236
0.272226 -0.250579 0.024354 253 253 255
-0.095574 -0.216185 0.047604 100 148 237
0.102520 0.264583 0.046585 255 255 255
-0.111469 0.199061 0.003707 103 147 229
0.035477 -0.267089 0.043502 255 255 255
0.392439 -0.259934 0.061200 254 254 253
-0.101787 0.262349 0.039578 102 150 238
0.216593 -0.254338 0.012250 255 255 255
-0.111320 0.243756 -0.074574 103 150 238
-0.094677 -0.281940 0.053586 254 255 254
-0.108426 -0.243957 -0.076577 101 149 236
0.328783 0.263770 0.029127 255 255 254
0.287258 -0.249578 0.054903 254 255 254
0.274519 0.273132 0.022714 255 255 255
-0.091595 -0.039158 -0.019850 102 150 237
-0.112936 -0.211622 -0.055641 103 151 238
0.290249 -0.259155 0.008516 254 254 254
-0.103114 0.020655 -0.031231 101 149 238
0.341350 0.267636 0.023617 255 255 255
-0.113233 0.121525 0.009808 102 150 234
-0.091575 0.151452 0.041823 101 150 239
0.305453 -0.249661 0.037019 254 253 254
-0.093465 0.178578 -0.079627 101 150 237
0.042917 -0.266349 0.052689 255 255 255
0.240778 0.261992 0.028082 255 254 255
-0.111409 -0.087605 -0.067541 102 149 236
0.073172 0.266186 0.033299 255 254 255
0.050997 0.276840 0.003050 255 255 254
-0.093771 0.136874 0.032648 103 150 237
-0.090351 0.221295 -0.019500 100 148 235
-0.094027 -0.197225 -0.089095 102 144 224
-0.090279 -0.130083 -0.097461 101 148 238
-0.111078 0.226357 -0.037696 103 150 238
0.090328 -0.267836 0.021530 255 255 255
-0.093921 -0.063036 0.016112 103 150 237
0.219559 0.273846 0.011806 255 254 255
-0.113788 -0.198696 -0.021871 102 150 237
-0.114704 -0.130347 -0.028814 103 151 237
-0.113103 -0.109013 0.025511 102 149 238
-0.115019 -0.175117 -0.060825 102 149 238
0.127933 -0.270980 0.060900 254 255 255
-0.069084 0.278044 0.056089 255 254 255
0.234835 -0.265366 0.046484 255 255 254
0.182397 0.262012 -0.009861 255 255 254
0.301582 0.272114 0.006207 254 254 255
-0.096451 0.081786 -0.058802 102 150 238
-0.099857 -0.031498 0.003072 103 149 236
-0.107786 -0.228844 -0.030415 101 149 236
0.134434 -0.258824 -0.013559 255 255 255
-0.102565 -0.152697 0.044890 101 150 235
-0.093611 0.066979 -0.006084 101 149 238
0.006331 0.262921 -0.026780 255 255 254
0.148102 -0.259684 0.025898 255 255 255
0.001628 0.266736 -0.010558 255 255 255
-0.096915 0.159708 -0.027083 103 151 237
0.321536 0.268185 0.063431 254 255 254
0.125048 0.263500 0.045806 254 255 254
-0.110521 0.102792 -0.093734 103 150 237
-0.094302 0.044300 -0.074561 103 149 235
-0.012727 -0.269571 0.053477 255 255 255
-0.109275 -0.130682 -0.071406 102 150 237
-0.045843 -0.282995 -0.006678 253 253 254
-0.097177 -0.246185 -0.050187 129 136 146
-0.094968 -0.102808 0.023791 102 149 237
-0.111267 -0.265331 -0.002898 103 148 232
0.079206 0.264211 0.061979 255 255 255
0.100868 -0.268485 -0.015749 253 255 255
-0.055081 -0.273946 0.005899 255 255 255
-0.079807 -0.285727 0.041618 255 255 255
0.184331 -0.261351 -0.009527 254 255 255
0.192865 -0.267951 0.000077 255 255 255
-0.111656 0.231147 -0.073896 101 148 235
-0.019890 -0.282371 -0.010411 254 255 255
-0.025530 -0.277998 0.061095 255 255 255
-0.089661 -0.088475 -0.094456 102 150 239
0.168120 -0.270177 -0.013821 254 255 255
-0.103734 -0.067246 -0.086108 104 151 236
-0.111312 0.043370 -0.060620 101 147 233
0.390451 -0.258395 0.037864 255 255 255
0.174888 -0.269848 0.003430 255 255 255
-0.098792 0.263788 0.042635 100 149 237
-0.039784 0.273766 0.061698 254 255 254
0.269572 -0.249423 0.064231 255 255 255
0.178821 -0.261187 -0.003171 255 255 255
-0.114417 0.168790 -0.017933 102 150 238
0.088872 -0.275436 0.007222 253 255 255
-0.107522 -0.081443 -0.025496 102 149 238
-0.113489 0.258164 0.032951 103 150 237
-0.094139 0.114304 -0.012242 102 149 235
-0.095253 0.046439 -0.077978 100 148 235
0.078453 -0.271958 0.060734 255 255 255
-0.019765 0.276819 0.012177 255 255 255
0.351544 -0.259642 0.027249 255 255 255
0.152452 0.274628 0.011738 255 255 254
-0.094045 0.044957 -0.069648 101 149 235
-0.092993 0.265230 -0.065110 102 150 237
-0.098318 0.124291 -0.093979 102 149 234
0.115623 -0.272888 0.037365 255 254 255
-0.024196 -0.281007 0.038632 255 255 255
-0.094894 -0.174006 -0.056374 100 149 238
0.099585 -0.258926 0.060151 255 254 255
0.296508 -0.250333 0.001603 255 255 254
-0.010666 0.276758 0.045012 254 255 255
-0.089831 -0.051952 -0.066437 101 149 238
-0.056966 -0.282467 0.060532 255 254 255
-0.096795 0.192535 0.002401 103 150 238
-0.110295 0.125203 -0.008900 102 149 235
0.229302 0.273623 0.004547 255 254 254
0.407022 0.270902 0.028384 255 255 255
0.281867 0.264300 0.038472 255 255 255
0.344154 0.262723 0.067238 255 255 255
-0.108052 -0.240890 0.036369 104 150 236
-0.108544 -0.251583 -0.054113 102 149 236
-0.056129 0.276397 -0.031071 255 255 255
0.180375 -0.254947 0.055814 255 255 255
0.270770 -0.260945 0.046824 254 254 254
0.033308 0.265279 0.053874 255 255 254
0.093880 -0.274751 0.062690 254 255 255
-0.111792 -0.214548 0.009157 101 149 236
-0.093908 0.089422 -0.016947 100 148 235
0.314502 0.270968 0.054528 255 253 255
-0.020356 0.275481 -0.025880 255 255 255
0.373293 -0.263364 0.035551 255 255 255
-0.093570 -0.050213 -0.069498 102 150 239
0.168485 0.274995 0.023585 253 255 255
-0.114633 -0.147763 -0.033573 103 150 235
0.064075 0.275016 0.017024 255 254 254
-0.084260 0.277590 0.044400 254 255 255
0.324148 -0.262032 0.019490 254 255 255
-0.110003 0.192720 -0.030923 103 149 236
-0.111290 0.208774 -0.010742 102 147 230
-0.111387 0.042243 0.028566 103 148 235
-0.113484 0.115609 -0.058230 102 150 238
-0.093951 0.193494 -0.075795 100 148 237
0.142848 0.274105 0.012907 255 255 255
0.195123 0.264110 0.037318 254 255 253
0.071275 0.276665 -0.016201 255 255 254
0.192204 0.272845 0.025368 255 255 254
-0.109782 -0.080430 0.015877 102 151 238
-0.113679 0.080525 -0.091486 101 149 238
0.358840 -0.258826 0.016624 255 255 255
-0.043478 0.278434 0.022937 254 254 255
0.193911 0.263405 -0.003699 254 255 254
-0.114059 0.162089 -0.089316 102 149 238
0.260525 -0.252622 0.020628 255 255 254
0.031600 -0.277976 -0.004306 254 254 254
-0.062892 -0.280294 0.015697 255 254 255
0.128745 0.264859 0.038230 255 255 254
-0.003794 -0.278814 -0.018593 254 255 254
0.268215 0.264774 -0.005420 255 254 255
-0.092631 0.190593 0.009653 102 150 236
0.391964 -0.247876 0.063257 254 255 254
-0.115011 -0.145623 0.043166 103 150 236
0.196411 -0.256255 -0.002744 255 255 255
0.149329 -0.261652 0.007439 255 255 255
0.167063 0.264060 -0.009486 255 255 255
-0.096303 -0.222087 -0.069896 103 150 237
-0.083068 -0.270234 0.001777 254 254 254
0.139162 0.263743 0.056617 255 255 255
0.071193 0.265438 -0.018789 255 255 255
0.076128 -0.264837 -0.013962 253 254 255
-0.099550 0.073890 -0.096486 101 145 224
-0.106293 -0.188134 0.054290 102 150 237
-0.106904 0.198063 0.031961 103 150 236
-0.111536 0.031007 -0.024023 103 149 235
-0.107185 -0.137967 -0.095383 102 149 237
0.209885 -0.260953 -0.008593 254 254 255
0.365203 -0.259199 0.041641 253 255 254
-0.096928 0.125925 -0.035657 101 146 230
-0.112646 -0.113915 -0.012075 102 150 237
0.329188 0.263618 0.020859 255 255 255
0.226644 -0.264465 0.059140 255 255 255
-0.108980 0.143807 -0.048845 102 149 238
-0.109357 -0.211961 0.016747 102 150 237
-0.001755 -0.269878 0.041639 255 255 255
0.096773 0.265272 0.031704 254 254 255
0.189570 0.257236 0.023017 255 254 254
0.271791 0.263140 0.031873 255 255 255
-0.111712 0.202662 -0.056747 103 150 237
-0.045052 -0.272685 -0.012369 255 255 255
-0.096228 0.080586 -0.012022 102 150 237
0.110724 -0.265173 -0.012599 254 255 255
0.047751 -0.266460 0.018997 255 255 255
0.384935 -0.246598 0.005801 255 254 255
-0.007245 0.276716 0.010881 255 255 255
-0.106153 -0.237918 -0.047277 104 151 236
-0.091045 -0.068440 0.021048 137 137 143
0.091091 0.275802 0.013366 255 255 254
-0.045977 -0.273932 0.020902 255 255 254
-0.051486 -0.272926 -0.025977 254 255 255
-0.109464 0.264048 -0.066749 100 144 225
0.051462 -0.279844 0.061975 255 255 255
-0.076692 0.268128 -0.026998 255 255 255
-0.010115 0.276793 0.015772 254 254 255
-0.108368 -0.218898 -0.006651 101 149 238
0.219705 0.272882 0.025745 255 254 255
0.236947 -0.264414 0.029759 254 254 255
-0.112235 0.102203 -0.061759 104 151 238
0.056729 0.271906 -0.030239 254 254 254
0.175346 0.272066 0.044569 255 255 254
-0.111332 -0.106646 0.020557 102 149 237
-0.098991 -0.198208 -0.051516 103 149 234
-0.023041 -0.267386 -0.021411 254 255 255
-0.052147 0.282580 0.055387 253 254 255
0.198033 -0.254804 0.045116 254 255 255
0.335633 0.263846 0.018318 255 253 255
-0.104659 0.020327 -0.043725 101 150 238
-0.093547 -0.197134 -0.085189 102 149 238
-0.110587 -0.056024 0.007167 102 150 237
0.244899 -0.254351 -0.007096 255 255 254
0.293767 -0.249072 0.003118 255 254 255
0.285628 0.260531 0.026542 255 254 254
-0.044276 -0.271044 -0.024844 253 253 255
0.421623 0.262120 0.019381 255 254 254
0.362180 -0.249655 0.016248 254 255 254
-0.086665 -0.281478 -0.031852 255 254 255
-0.097599 -0.260492 0.049954 103 150 238
0.424024 -0.257917 0.039322 254 255 255
-0.096504 0.235395 0.032925 102 150 238
0.005042 -0.279776 -0.001923 254 254 254
0.399119 0.261448 0.049332 254 253 255
-0.095034 0.180810 -0.073693 102 150 237
-0.096835 0.095145 -0.026582 101 150 237
0.039407 0.267511 0.004281 255 255 254
0.406313 0.261531 0.025198 255 254 254
0.128972 0.265696 0.061585 255 254 255
0.392959 0.269373 0.056398 253 255 254
0.166975 -0.258366 0.019045 253 255 254
0.252162 0.264546 0.066396 255 255 254
-0.093505 -0.129397 0.032026 104 151 237
-0.090450 -0.071915 -0.050362 100 148 238
-0.112287 -0.096177 -0.052840 103 148 237
-0.120062 -0.195484 -0.050668 103 151 235
-0.093964 0.203005 -0.019104 103 150 238
-0.092712 0.085976 -0.093611 103 150 238
-0.095985 -0.195863 0.014505 102 150 237
0.027945 0.276688 0.001347 255 255 255
-0.030672 0.277269 -0.020875 255 255 254
-0.099685 -0.101334 0.036446 104 150 237
0.056246 -0.276825 0.049904 255 254 255
-0.093883 0.139312 -0.049017 101 150 238
-0.100979 -0.193264 0.052895 103 151 237
0.282205 -0.250997 0.037136 254 255 254
-0.080437 -0.279540 0.058255 255 254 254
-0.094222 0.160973 0.015329 102 149 234
-0.095611 -0.086545 -0.028031 104 151 238
-0.112123 0.113043 -0.032387 101 150 238
-0.094898 0.102486 -0.029309 105 143 218
0.178078 -0.261895 0.061552 254 254 254
0.304465 0.270576 0.059161 255 254 254
0.327451 0.270640 0.061747 255 255 255
0.303298 0.269547 0.005341 255 255 255
0.395955 -0.260299 0.012761 254 255 255
-0.107013 0.274365 -0.049208 102 148 233
0.235995 -0.258050 0.060063 254 254 255
0.243007 0.271551 0.028415 255 255 254
0.159606 0.263032 -0.011473 254 255 254
0.363015 0.262060 0.052845 254 255 254
0.272792 0.264738 0.017969 255 255 255
-0.094022 0.185984 0.032428 104 150 237
0.084536 -0.274356 -0.003483 254 255 254
-0.048313 0.263988 -0.022358 255 255 255
-0.030748 -0.281659 0.026524 254 255 255
0.202494 -0.269660 -0.006149 254 254 254
-0.040521 0.277866 0.032443 255 255 255
0.194306 -0.267594 0.047900 255 255 254
0.065446 0.268603 -0.025938 255 255 255
-0.033458 -0.281266 0.055774 255 255 255
-0.103487 -0.212388 0.054964 104 151 238
0.283052 -0.251777 0.038715 253 254 255
-0.112680 0.089940 0.022195 101 149 238
-0.092732 -0.101941 0.032204 102 149 238
0.235452 -0.252543 -0.007613 254 255 255
-0.092423 0.242253 -0.029648 102 150 238
-0.100130 0.271276 0.025903 100 147 232
-0.025361 -0.281793 0.061516 255 255 254
-0.080509 0.280241 0.045577 255 255 255
-0.112156 -0.094646 0.029955 101 149 237
0.329088 0.271365 0.031403 255 255 255
0.029880 0.276322 0.028668 255 255 255
-0.095246 0.125050 0.030839 104 150 237
-0.099342 -0.286610 -0.034676 103 149 237
0.072532 -0.276311 0.014776 254 254 254
-0.096048 -0.146548 0.023113 102 149 237
-0.094721 0.211674 0.051815 102 150 236
0.000418 0.277183 0.008824 255 255 254
0.205514 -0.269142 -0.006956 255 255 255
-0.107100 -0.224470 -0.063852 101 151 237
-0.079783 -0.272425 -0.002652 254 255 255
-0.019832 0.277000 0.045633 255 255 255
-0.098709 -0.172014 -0.004811 102 149 234
-0.112365 -0.079401 -0.034424 103 150 237
-0.077485 0.266814 0.017798 254 255 255
0.246725 -0.264817 0.016884 254 255 255
0.218736 0.273009 0.034948 253 253 255
0.145286 0.263474 0.046379 255 254 254
-0.063975 -0.281391 0.010652 254 254 254
-0.113483 0.154187 -0.068395 103 150 236
0.014326 -0.271944 -0.026705 254 254 255
0.110060 0.268768 0.042585 255 255 255
-0.096537 -0.272889 -0.060149 102 150 235
-0.098230 0.222305 -0.019719 102 148 235
0.214046 0.273695 -0.005678 255 255 255
0.151887 -0.270956 0.031963 255 255 254
-0.102160 -0.038309 -0.038509 101 149 237
0.085384 0.275860 -0.028098 253 255 254
0.099736 0.264961 0.010282 254 255 255
-0.092440 0.022406 -0.035435 104 150 237
0.055287 -0.264142 0.011769 254 255 255
0.029934 0.275989 0.029678 255 255 255
-0.113826 0.106421 -0.018374 102 150 236
-0.094717 -0.093872 0.030935 102 149 238
-0.114410 -0.048511 -0.052478 101 148 238
0.300027 -0.261862 0.035471 255 255 255
0.132860 0.264244 0.002503 255 255 254
0.178083 -0.256895 0.037732 255 255 255
-0.111285 -0.125812 0.031283 130 139 149
-0.111328 0.089917 -0.006744 103 150 238
-0.036298 0.270059 0.052775 254 255 255
0.069135 -0.264661 0.041489 254 254 254
-0.109438 -0.089602 -0.050884 104 149 238
0.367640 0.261448 0.065456 255 255 254
-0.055603 -0.273691 0.025322 254 254 255
-0.023502 0.265672 -0.011347 255 255 255
-0.112121 -0.064263 0.030043 101 148 238
0.056695 0.275780 -0.006253 255 255 254
-0.100233 0.236076 -0.078701 102 148 235
-0.071550 0.279957 -0.032885 254 255 255
0.115055 0.266233 0.007007 255 255 255
-0.098603 -0.180455 -0.039827 102 150 237
-0.018401 -0.270352 -0.007884 254 254 255
0.359151 0.270441 0.044069 255 255 254
-0.111877 -0.206467 -0.004452 103 151 238
0.346378 0.271493 0.040212 255 254 255
-0.109109 -0.227068 -0.061850 102 150 238
0.147572 0.270762 -0.017450 253 253 253
-0.001455 0.267740 0.059079 255 255 255
0.039398 -0.266696 0.002672 255 255 255
-0.001158 -0.278642 0.060381 255 254 254
0.076677 -0.264509 0.013836 255 255 254
-0.108265 -0.082458 -0.071242 101 150 239
0.062066 0.264610 -0.023450 255 254 255
0.150322 -0.269816 0.009282 254 255 254
0.082805 0.266654 0.018055 255 255 255
0.290959 0.262103 -0.001516 255 253 255
-0.095571 -0.189162 -0.046805 104 151 237
0.325130 0.271872 0.033561 255 255 254
-0.096552 0.227870 0.053777 101 150 238
-0.097822 -0.171957 -0.089324 102 149 236
-0.073993 0.277954 0.028130 255 254 254
0.081112 -0.277451 -0.008234 255 255 254
-0.106640 -0.071552 -0.038820 103 150 238
-0.108432 -0.125393 -0.097990 101 149 238
-0.097015 -0.198874 0.019424 104 151 236
0.307705 -0.253510 0.016799 255 255 255
-0.114121 0.230194 0.031809 103 150 238
-0.113927 -0.131269 -0.007241 104 148 232
-0.097564 0.106128 -0.033838 102 150 238
-0.044962 -0.282653 -0.000434 253 253 254
-0.075326 0.266174 -0.012820 255 255 255
-0.085737 -0.272029 0.052102 254 255 253
-0.118340 -0.104363 -0.072536 101 149 236
-0.011731 -0.280891 0.017735 254 255 255
0.137681 0.274461 0.024945 255 254 255
-0.092712 -0.093776 -0.029772 103 150 237
-0.017210 -0.281613 0.002646 255 255 255
-0.114267 -0.069278 -0.005641 102 150 237
-0.092661 0.154766 0.024465 134 137 143
-0.108481 -0.170122 -0.074394 103 149 236
-0.025259 0.279206 -0.029097 254 254 254
-0.068413 0.279218 0.012667 255 255 255
0.399184 0.266249 0.062663 255 255 255
0.066778 -0.267473 0.040258 255 255 254
0.071784 0.274206 0.032228 255 255 255
-0.100558 0.122184 -0.093193 101 149 236
0.328942 0.261829 0.009345 255 255 254
0.330812 0.270821 0.026688 254 255 254
-0.065074 -0.273009 0.040314 255 254 254
0.107358 -0.264173 -0.019208 254 254 255
0.191230 0.263185 0.056359 255 254 255
-0.104958 0.143678 -0.091190 102 149 238
0.138197 -0.274350 0.000301 253 255 253
0.121410 0.270650 0.065639 255 255 255
0.010107 -0.268060 0.060395 253 253 254
-0.107221 -0.079258 0.008224 103 149 236
0.085683 -0.275876 0.009628 254 254 255
0.073563 -0.266669 -0.020625 255 254 255
0.208426 -0.253202 0.060031 254 255 255
0.030531 0.276335 0.064427 255 255 255
0.322467 0.261351 -0.000513 254 255 254
-0.105666 0.022294 -0.032014 101 150 238
-0.114979 -0.174308 -0.047996 103 149 238
-0.109165 0.108134 0.021826 101 150 237
-0.110448 -0.252041 -0.074954 102 149 238
0.153931 -0.270016 -0.011900 255 254 255
0.067119 -0.274579 0.008862 254 254 255
0.119278 -0.262168 0.015900 254 255 255
-0.033934 -0.272002 0.036949 255 255 254
-0.107988 0.077085 -0.005063 101 150 238
0.402451 0.262648 -0.007318 255 255 254
0.000667 0.274117 -0.026067 255 255 255
0.011942 -0.279064 -0.005754 255 254 254
-0.109386 -0.215659 0.006499 102 149 238
0.085482 0.267924 0.065168 255 255 255
-0.111225 0.092842 0.021430 101 149 236
0.218786 -0.254481 0.020618 255 254 254
0.382534 -0.249835 0.009015 255 255 255
0.092131 0.266072 0.001833 255 254 254
-0.108409 0.256235 -0.070902 103 149 237
-0.003696 0.276517 0.038140 254 255 255
-0.097027 0.212431 0.050269 103 149 238
-0.116485 0.148675 0.008693 102 149 236
0.181160 0.274137 0.003732 255 255 254
0.059178 -0.276870 -0.007736 255 255 255
0.275655 0.272248 0.006367 254 254 255
0.108406 0.263964 0.049304 255 255 255
0.369388 0.265219 0.061816 254 254 255
0.066416 -0.276393 0.055034 254 255 255
-0.094727 -0.248352 0.050148 103 150 237
0.192306 -0.265708 -0.000486 255 255 254
-0.098955 -0.154063 -0.091818 103 150 238
0.125409 0.274264 -0.011204 255 255 254
-0.081418 0.266731 0.003761 255 254 255
-0.047787 -0.284721 -0.030967 255 254 255
0.320145 0.270659 0.044274 254 254 255
0.136506 0.274399 0.003982 255 255 254
-0.093378 0.108877 -0.074783 102 150 237
0.213178 -0.253902 0.023497 255 255 255
0.410172 0.263944 0.019394 254 255 254
-0.112796 0.083720 -0.084240 134 141 149
-0.111253 -0.212673 0.027317 103 151 237
-0.108057 0.243032 0.053042 102 150 238
0.206220 -0.259870 0.060470 255 255 255
-0.094406 0.115143 -0.074615 101 150 239
0.221473 0.267090 -0.009131 255 255 255
-0.097217 -0.158896 -0.013456 102 151 236
0.093249 0.265357 0.052714 254 255 255
0.397917 -0.247912 0.051578 254 255 255
-0.068875 0.278836 0.013933 255 254 255
-0.112627 0.128087 -0.019347 102 151 237
0.403592 0.268751 0.050611 255 255 255
-0.116124 -0.051832 -0.027340 102 150 236
-0.096467 -0.066871 -0.090292 101 148 238
-0.095088 -0.033951 -0.029336 104 149 238
-0.093906 -0.233604 -0.066235 101 149 235
-0.092233 0.140879 -0.012162 102 149 237
-0.115764 0.199915 -0.003034 103 150 236
0.068262 0.270704 0.065044 254 255 255
0.138002 -0.260487 0.001409 255 255 254
0.122840 -0.260965 0.009601 255 255 255
-0.111514 -0.197810 0.046163 104 151 238
0.049085 -0.266086 -0.002983 254 255 255
0.025114 -0.276834 0.002571 255 255 254
-0.028761 -0.271149 0.010166 253 253 255
0.071441 0.274936 0.035819 254 255 255
-0.039229 -0.283900 -0.021998 254 255 254
-0.095873 0.254979 -0.029897 101 149 238
-0.096105 -0.195013 0.053052 102 150 239
-0.092358 0.221120 0.009165 102 149 236
0.166476 0.264444 -0.006709 254 255 255
0.024143 0.266430 0.001762 255 255 255
-0.110532 -0.040785 -0.003150 102 149 237
-0.100461 0.041189 -0.076449 103 150 238
0.081703 0.277384 -0.030086 255 255 255
0.153162 -0.264185 -0.015522 254 254 254
0.271105 -0.263724 0.026508 254 255 254
-0.109776 0.084926 -0.082320 102 149 237
-0.091992 0.168187 -0.038667 101 150 238
-0.112409 -0.104178 -0.095008 102 147 227
0.167419 0.273585 0.055123 255 255 255
0.226446 -0.264222 0.056657 254 254 255
-0.001477 0.263402 0.038986 255 255 254
0.136150 -0.271534 0.038361 254 255 255
0.035961 0.276893 0.031742 254 255 255
0.199530 0.263374 0.039161 255 255 255
-0.094192 0.272711 -0.001788 103 150 237
-0.101468 -0.105428 0.038062 102 149 238
0.269132 -0.259560 0.010628 254 254 254
-0.103154 -0.286106 -0.014114 103 150 237
-0.028540 0.272456 0.063994 255 254 255
-0.109299 -0.226031 -0.049287 103 151 238
-0.095428 -0.213339 -0.026591 101 149 238
-0.104143 -0.210752 -0.088711 102 149 237
-0.056157 -0.282870 0.040566 254 255 255
0.208990 0.273914 0.010605 255 255 254
-0.108307 -0.209909 -0.026756 103 149 238
-0.092026 -0.124381 -0.087796 139 135 150
0.118969 0.264304 0.047006 255 255 255
0.105022 -0.259517 -0.012839 254 254 254
-0.106586 0.251418 -0.002864 104 149 237
0.378453 0.260361 0.060441 254 254 255
-0.093782 -0.111543 -0.002572 139 138 143
0.375647 -0.249286 0.063610 255 255 255
-0.113637 0.125386 -0.049784 102 150 236
-0.112658 0.184654 -0.010864 101 148 232
-0.111768 -0.250554 0.053075 103 148 233
-0.049995 -0.282859 0.042015 254 254 255
0.027246 0.276173 0.036552 253 254 254
0.338450 0.261651 0.044428 255 255 255
-0.098167 -0.170211 -0.060287 103 150 237
-0.093885 -0.258971 0.048268 102 151 238
0.098539 -0.275265 0.021021 255 254 254
-0.092676 0.204273 -0.068376 103 150 238
0.091230 -0.275608 0.010678 255 254 254
0.053374 0.264449 -0.002545 254 254 254
-0.090784 -0.081716 -0.012147 100 150 238
-0.094507 -0.196011 0.042135 102 151 237
-0.092043 0.110007 -0.041955 103 150 237
-0.096933 -0.243316 -0.016912 103 150 238
-0.020340 -0.271582 -0.023753 255 255 255
0.356074 -0.249290 0.060918 254 254 254
-0.109657 -0.183735 -0.042478 103 150 237
0.077187 -0.265597 -0.017824 255 255 255
-0.068466 -0.282835 0.047767 255 255 254
-0.091918 0.155586 -0.002856 101 148 238
-0.095336 0.070386 -0.035086 103 150 235
-0.094498 0.124651 -0.025208 103 150 235
0.069488 -0.274766 0.062631 255 255 255
0.132771 -0.262260 -0.016311 255 255 255
-0.015406 -0.280052 0.027550 253 255 255
0.318483 -0.262936 0.055346 255 255 255
-0.115745 0.142456 -0.082130 101 150 237
-0.095407 -0.276814 0.012390 104 145 223
0.112190 0.264574 0.051026 254 255 254
0.178483 0.275018 -0.000314 253 255 255
-0.091828 0.227523 0.030833 103 151 236
0.315249 0.271207 0.043761 254 254 254
0.090292 -0.271413 -0.019179 255 254 255
0.265055 0.263998 0.048353 255 255 255
-0.113243 0.100121 -0.087468 102 150 235
-0.042170 0.282157 0.055349 254 254 255
-0.107925 0.075346 -0.001121 103 150 237
-0.036209 -0.285200 0.026052 255 255 255
0.145712 0.273534 0.041229 255 255 255
-0.112819 0.036477 0.036835 101 150 237
-0.111728 0.124104 0.034592 101 149 236
-0.113446 -0.098560 0.020781 102 149 237
-0.106617 -0.074264 0.033075 102 150 239
-0.111216 -0.169644 -0.079540 102 151 237
0.119685 -0.273350 0.018331 254 254 254
-0.108299 0.241530 -0.064815 139 134 143
-0.093849 0.213379 0.001515 102 150 236
-0.095430 0.176227 0.032442 101 150 237
-0.111856 0.198064 0.021484 103 150 235
0.130450 -0.260764 0.013776 255 255 255
0.165722 -0.266255 0.040898 254 254 255
0.321986 0.263867 0.023959 255 254 255
-0.111003 -0.094905 -0.050778 101 150 238
-0.108319 -0.148359 -0.038536 104 151 237
-0.109885 -0.183077 0.021319 103 149 237
-0.015279 0.264723 0.041220 255 255 255
0.300951 0.262661 0.013761 254 255 255
-0.096008 0.072912 -0.005019 104 151 236
-0.109188 0.114470 0.026762 102 150 238
-0.024792 0.277704 0.027395 254 254 255
-0.108900 -0.086426 -0.025202 103 150 237
0.004377 0.276340 0.059355 254 254 255
0.092310 0.274310 0.016870 255 255 254
-0.110977 -0.038078 0.015740 102 149 238
-0.111785 0.177712 -0.068920 101 150 236
-0.109472 0.182966 -0.007610 103 149 236
0.003701 -0.280176 -0.000253 254 254 254
-0.031952 0.267412 0.033228 254 255 254
-0.095542 -0.259503 -0.040431 102 150 238
-0.093755 0.248204 -0.069251 101 150 235
-0.110775 -0.139376 -0.010255 102 150 237
-0.111650 -0.237045 0.006481 104 147 230
-0.096831 -0.078243 0.033458 103 150 235
0.083356 -0.262484 0.032836 255 255 254
-0.089161 0.280766 0.009252 254 254 254
0.106081 0.263146 0.064834 255 254 255
0.245880 -0.251822 0.034707 253 255 255
-0.093117 -0.029399 0.023443 102 148 237
0.109685 -0.274478 -0.010981 254 254 255
-0.096551 0.184661 0.049697 102 148 234
-0.102787 0.281655 -0.018276 102 149 235
-0.111675 0.088947 0.003168 100 145 226
-0.101145 0.256103 -0.070643 101 148 238
-0.112882 0.132160 0.005616 103 150 238
-0.110124 0.200577 0.001158 102 151 237
-0.096210 0.172419 -0.071034 102 150 237
-0.068047 0.279086 -0.010716 255 254 255
0.035428 -0.273293 -0.007655 255 255 255
-0.108981 -0.204197 -0.030717 102 150 238
-0.094272 -0.156075 -0.042556 104 150 237
-0.002807 0.278664 -0.032506 255 254 255
0.255996 0.261544 0.050838 255 255 255
-0.007428 -0.269990 0.000972 255 255 255
-0.111577 0.135662 -0.036155 135 141 151
0.014349 -0.279835 0.002986 254 255 255
0.374416 -0.245054 0.026993 255 253 255
0.226752 0.262513 0.033490 255 255 255
-0.010961 0.265773 -0.017692 255 255 255
-0.074786 0.279952 -0.042576 255 254 255
0.144095 -0.259882 0.038622 255 255 254
-0.093898 -0.166265 -0.069558 103 149 237
-0.099988 0.036911 -0.075490 100 146 230
0.217458 0.273577 0.018413 255 255 255
0.140507 -0.272398 -0.005091 255 254 255
0.391952 0.271097 0.033018 253 255 254
0.115510 -0.272813 0.047994 255 255 254
-0.110159 0.106268 0.012737 102 151 235
0.126130 0.264830 0.051037 254 255 254
0.109097 -0.274246 0.008205 255 255 254
-0.110897 -0.230043 -0.039125 101 150 237
-0.098736 -0.060362 0.031488 103 149 237
0.033294 -0.267657 0.015053 254 254 255
-0.098755 0.253694 -0.056563 101 148 235
-0.091054 0.194359 0.032140 101 149 238
0.017688 -0.278077 0.044506 254 255 255
0.127293 0.265994 0.044915 254 255 255
0.091343 -0.263896 0.021783 255 255 255
-0.105566 0.211080 0.051316 104 149 231
0.323576 0.270743 0.041272 253 255 255
-0.095310 -0.152614 -0.074571 102 149 236
0.178486 0.273227 -0.004049 255 255 255
-0.093206 0.204674 0.006024 101 148 236
0.254919 0.261700 0.065380 255 255 255
-0.015560 -0.278613 0.017616 254 255 254
0.271229 -0.263446 0.025668 255 255 253
0.245555 0.272692 0.031669 255 254 255
0.373482 0.265723 0.027015 255 255 255
0.425721 -0.251864 0.026894 255 255 255
-0.041242 -0.270650 -0.012303 255 255 255
-0.093541 -0.228318 -0.078653 102 150 238
0.128782 0.263641 0.033337 255 255 255
-0.109974 -0.165061 0.007997 102 149 237
0.058917 0.275196 0.052656 255 255 255
0.400738 0.267392 0.014076 254 254 255
0.017298 -0.265104 0.062111 255 255 255
0.186830 -0.257586 0.009994 254 254 255
0.276750 0.271645 0.042320 255 255 254
0.276921 -0.263939 0.018892 255 255 255
-0.008780 -0.268122 -0.024760 255 255 255
0.126057 0.263939 0.022751 255 255 254
-0.095146 -0.164178 -0.078477 103 149 238
-0.112651 -0.048104 -0.056756 102 149 237
0.306790 0.263503 0.068228 254 254 255
-0.111902 0.226890 -0.055960 103 150 238
0.317022 -0.248451 0.049849 255 255 254
-0.113016 -0.086989 -0.075247 104 150 236
-0.075451 0.278722 -0.011923 255 255 255
-0.096741 -0.091422 -0.004152 103 151 236
-0.094185 0.219235 0.031056 101 148 237
-0.107540 -0.285254 -0.055223 101 149 237
0.033353 0.276201 0.027576 254 255 255
-0.092215 -0.247708 -0.029822 102 150 235
-0.093071 -0.120277 -0.004956 102 151 239
0.049151 -0.279130 -0.024766 253 254 254
-0.110046 0.023026 0.017920 103 150 238
-0.109946 -0.277634 0.013265 103 149 238
0.066603 0.266650 0.027910 255 255 255
-0.025343 0.277903 -0.002387 254 255 254
-0.066413 0.272292 -0.037712 255 255 255
-0.110681 -0.191999 0.019841 134 136 144
-0.092726 -0.125542 -0.060895 103 151 237
0.321896 0.269781 0.054971 254 254 254
0.072331 -0.276114 0.003119 255 255 254
-0.097315 0.015404 0.006198 103 150 236
0.323209 -0.248732 0.045520 255 254 255
-0.096107 -0.163651 -0.075089 103 149 236
-0.070645 -0.283400 0.019397 255 255 255
0.061465 -0.277049 -0.006091 254 254 255
0.098608 -0.274109 0.033702 255 254 255
-0.046937 0.267415 -0.013480 255 254 255
0.266353 -0.250516 0.012481 253 254 255
0.157448 -0.258681 0.039751 254 255 254
0.107871 -0.260759 0.057127 255 255 255
0.133543 -0.260740 0.033077 255 254 255
-0.095884 -0.068338 -0.018453 102 150 238
-0.108349 -0.174501 -0.063994 101 149 237
-0.065782 -0.277928 0.061375 255 255 254
0.050784 -0.277081 0.003449 255 254 255
-0.050702 -0.282770 -0.015140 255 255 255
-0.114756 -0.240869 -0.071825 102 149 238
0.310501 -0.262280 0.052287 255 255 255
0.039932 -0.277751 0.030292 255 255 255
0.071664 0.263909 0.038765 254 254 254
0.144044 -0.271912 -0.011106 254 254 255
0.042801 0.266411 -0.007007 255 255 255
0.369188 -0.245454 0.022346 254 254 254
0.375532 -0.248461 0.061852 255 255 255
-0.097105 0.057836 -0.052448 102 149 237
-0.112811 0.259373 -0.023826 102 148 236
0.002510 -0.269616 0.045514 255 254 255
0.194241 -0.267379 0.022788 253 255 254
-0.115993 0.057457 -0.014568 103 150 236
0.221218 -0.264866 0.033187 254 255 254
-0.091424 0.193671 -0.016851 101 149 238
-0.052500 -0.271801 0.058978 254 255 255
0.251090 -0.264938 0.003600 254 254 255
-0.114615 -0.106289 -0.094887 101 150 239
-0.110822 -0.048888 -0.031405 103 151 236
-0.096824 0.099348 0.016119 103 151 240
-0.094157 0.089995 -0.081230 101 149 235
-0.112444 -0.151827 -0.048841 101 151 238
0.158635 -0.258602 0.012622 253 254 255
0.372586 -0.259797 0.046437 255 254 254
0.190343 -0.268015 0.033132 255 254 255
0.114195 -0.261920 -0.007703 255 255 255
-0.098211 0.046373 -0.089285 103 150 235
0.381820 -0.248812 0.011259 254 254 254
-0.099785 0.020738 -0.006983 101 149 237
0.306247 -0.248167 0.054821 254 254 254
0.199270 -0.264947 0.049563 254 254 255
0.316897 0.272899 0.013863 255 255 255
0.075887 -0.275875 0.028715 254 255 254
0.084556 0.265885 -0.012473 254 255 254
0.423476 -0.250764 0.032174 255 255 255
-0.104041 0.022485 -0.035396 104 150 239
-0.058000 0.278300 0.015777 255 255 255
-0.105230 0.032150 -0.069989 102 149 237
-0.046440 -0.282440 -0.016370 255 255 255
0.420931 0.262153 0.040082 255 255 255
-0.109236 -0.268863 -0.071487 102 150 238
0.257517 0.272427 0.037083 253 255 253
-0.086793 0.274832 -0.015912 255 255 255
0.010982 0.265647 0.053762 255 254 255
-0.111952 0.275495 -0.023082 101 149 237
0.339635 0.270809 0.047200 255 254 255
0.145835 0.262067 -0.003513 254 255 255
-0.111619 -0.109559 -0.016722 102 150 238
0.102244 -0.274669 0.016740 255 254 254
0.388230 0.262300 0.030068 255 255 254
0.149464 -0.257525 -0.010887 255 255 255
0.330310 -0.261016 0.030442 255 254 254
0.313541 0.272130 0.014756 254 253 255
-0.108815 0.258881 -0.011378 103 150 237
0.131916 0.260425 -0.011814 255 254 255
-0.093429 0.107465 0.016742 145 139 146
-0.113512 -0.187786 -0.049258 102 151 237
-0.105203 -0.279143 0.001953 103 151 238
-0.011561 -0.268051 0.059910 255 255 255
0.168369 -0.257943 0.054116 254 254 255
0.204336 -0.266636 0.006329 253 254 255
0.028413 -0.278618 0.022986 255 255 255
0.229036 -0.267108 0.010226 255 254 253
0.164646 -0.260309 -0.012160 255 255 255
-0.111713 -0.051723 0.030300 103 150 237
0.357671 -0.252917 -0.001779 255 254 254
-0.108839 0.089413 0.004950 101 150 237
0.105746 0.268236 -0.025389 253 254 254
0.117373 -0.272972 0.034583 255 255 255
0.083134 -0.276084 0.062149 254 254 255
0.037869 0.267095 0.006185 255 255 255
0.010858 -0.267880 0.039861 254 254 254
-0.105186 0.258000 -0.068675 137 137 144
-0.112075 0.105467 -0.026457 103 149 235
-0.093389 -0.110073 -0.046203 101 149 237
0.121625 0.275439 -0.013268 254 255 254
-0.099634 -0.212529 0.015268 104 151 238
0.056594 -0.261625 0.054730 255 255 255
-0.112052 0.120458 -0.083206 103 149 235
-0.007976 0.276241 -0.011716 255 255 255
-0.095936 -0.054051 -0.081219 103 147 230
-0.111971 -0.175058 -0.082174 103 150 237
-0.091774 -0.076003 -0.085843 102 149 236
-0.093178 -0.180047 -0.076657 100 145 228
-0.117006 -0.073783 -0.001884 103 149 237
0.257257 -0.250978 0.016690 253 254 255
0.310136 -0.248703 0.031866 253 255 255
0.149425 0.275622 -0.013048 255 254 255
0.036038 0.276552 0.001245 255 255 254
0.058715 0.265566 0.000833 255 254 255
0.336398 -0.264596 0.059419 255 254 254
-0.118011 0.136052 0.020792 103 150 238
-0.022759 -0.270739 0.050580 254 255 255
0.163031 0.274417 0.059443 253 254 255
-0.097041 -0.189145 -0.089243 103 150 238
-0.113516 0.103099 0.022064 104 150 237
-0.092308 0.191335 -0.011949 104 150 238
0.001197 0.277173 -0.013245 253 254 255
0.215041 -0.260275 0.060698 255 255 255
-0.107417 -0.036444 -0.031253 102 148 238
-0.068932 -0.283215 -0.017194 255 255 255
-0.095197 -0.245774 -0.009170 103 150 236
-0.107058 -0.256515 0.017868 102 149 234
0.023497 0.277523 0.055650 255 255 255
0.093735 0.277717 -0.024223 254 255 254
-0.107581 0.037921 0.020809 101 149 238
-0.109996 0.223268 0.038190 103 150 236
0.220104 -0.253470 0.031602 255 255 254
0.068745 0.265497 -0.017624 254 254 255
-0.111387 -0.137248 0.027358 101 149 237
0.116978 0.273099 0.048122 254 255 255
-0.095974 -0.268981 -0.050241 101 149 237
-0.110835 -0.044455 -0.069244 102 149 238
-0.097586 -0.161579 -0.091571 102 149 235
0.267424 0.264631 0.028955 255 255 255
-0.112281 0.280810 -0.013880 101 149 235
-0.094121 -0.073848 -0.038127 101 148 235
0.269475 0.263222 -0.003007 254 254 254
0.078720 -0.263325 0.049877 255 255 255
0.081848 0.265376 -0.017437 255 255 255
-0.096222 0.093299 -0.096187 101 150 238
0.191773 0.273452 -0.004922 254 255 254
-0.096043 0.236447 -0.056648 103 150 237
0.017081 0.276388 0.029535 255 254 255
0.339479 0.259958 0.001351 254 255 254
0.089950 -0.264159 0.061550 254 254 254
0.241388 -0.252458 0.027465 254 255 255
-0.082055 0.265186 0.055663 255 254 255
-0.093384 -0.222908 -0.078127 101 147 231
-0.093619 0.085361 0.029343 101 149 235
0.262444 -0.251769 0.036711 253 255 255
-0.095588 0.056745 -0.052267 101 150 238
-0.053581 -0.278141 0.049437 254 255 255
0.007644 -0.268877 -0.002368 255 255 254
0.176852 0.274191 0.001522 254 255 254
0.248957 0.272175 0.037219 254 255 254
0.122880 0.275087 0.015617 255 255 255
0.174891 0.273402 0.043378 254 254 255
0.118898 -0.261605 0.045475 254 255 254
-0.090787 -0.108627 -0.091424 102 150 237
0.107546 -0.274264 0.059165 255 255 255
-0.106206 -0.173534 0.047270 101 149 236
-0.090611 -0.092493 -0.010628 102 150 238
-0.095467 -0.279843 0.027619 255 254 254
-0.113485 0.083582 -0.088780 101 149 238
0.072398 -0.272953 -0.021476 254 254 255
0.003818 -0.269241 0.007324 253 255 254
0.311218 -0.257993 0.052885 255 255 254
-0.093326 0.108745 0.021198 104 144 213
0.148972 -0.272043 -0.010084 255 255 255
-0.092980 -0.045470 0.001191 100 149 239
0.051886 -0.277284 0.013687 254 255 254
-0.093386 0.102157 -0.050481 101 148 233
0.407917 0.270200 0.036109 255 255 255
-0.093940 0.206351 -0.056588 101 149 237
0.042643 0.276151 0.016780 255 255 255
0.163178 -0.258110 0.036696 255 255 254
0.060618 0.274199 0.042047 254 255 254
-0.095180 0.081656 0.012382 102 150 236
-0.094158 0.257055 0.018268 102 150 238
0.169879 0.267430 -0.017917 255 254 254
-0.074908 0.267903 0.018409 255 255 255
-0.096262 -0.238439 -0.002191 102 150 236
-0.067725 0.268584 -0.009859 255 255 255
-0.097904 -0.239730 -0.040816 103 151 238
0.100881 -0.273818 0.036387 255 255 255
0.061872 0.265067 0.025792 254 255 255
-0.104936 0.008107 -0.003271 101 148 235
0.161546 0.265881 0.065951 255 255 255
0.196640 0.271787 0.044410 255 255 254
0.095218 -0.275605 -0.017085 255 255 255
-0.091928 -0.237382 -0.026904 102 149 235
0.165194 -0.270111 0.047921 255 254 255
-0.095134 0.147524 -0.013882 103 151 238
0.375405 -0.258952 0.015747 255 255 255
0.274968 -0.250378 0.044652 255 255 254
-0.092181 0.184958 0.049109 102 150 238
0.222973 -0.252667 0.005007 255 255 255
-0.091511 0.164830 -0.012404 100 140 210
-0.095084 0.263406 0.017147 101 149 236
-0.095856 -0.093732 -0.062868 102 150 237
-0.094200 -0.113611 -0.013013 101 148 237
-0.062680 -0.268738 0.039411 254 254 255
0.066758 -0.265305 0.058429 255 255 255
-0.092493 0.146577 0.040632 100 148 239
-0.055983 -0.272537 0.048275 255 255 255
0.163807 -0.267176 -0.008330 255 255 255
0.228566 -0.254356 -0.001227 253 255 255
0.178911 -0.264835 0.055421 255 255 255
-0.031881 0.278016 -0.025695 254 254 254
0.193182 0.273671 0.017770 254 254 254
0.371801 -0.259722 0.044949 255 255 255
-0.093086 0.123203 0.028922 103 150 237
-0.052703 0.281537 -0.031590 254 255 255
-0.018806 -0.270722 0.013433 253 255 254
-0.111021 0.261409 0.044094 103 150 237
0.101895 0.264420 0.058417 255 255 254
-0.107884 0.177580 0.031344 139 148 160
-0.093432 -0.246780 -0.069281 100 148 235
-0.112693 -0.192591 0.046113 101 150 237
-0.093069 0.036617 -0.041922 102 150 239
-0.112178 -0.081912 0.015328 101 150 237
0.213829 -0.263815 -0.006435 255 253 255
0.284724 0.263759 -0.001374 254 255 255
-0.097248 -0.181899 -0.047301 103 149 237
-0.113518 -0.193078 -0.016851 100 149 237
0.056144 -0.276335 -0.006719 255 255 254
0.014281 0.279085 0.062054 254 255 255
0.039491 0.265973 0.031192 255 255 254
0.182556 0.263773 0.019061 255 254 255
-0.097458 -0.253035 -0.056989 103 149 233
-0.017003 0.265718 0.046609 255 255 254
-0.109221 -0.112171 -0.079587 103 150 236
-0.074254 -0.271545 -0.018301 255 254 255
-0.108519 -0.038182 -0.032972 102 150 236
-0.092155 0.042081 -0.084172 101 149 238
-0.110881 -0.201107 -0.045620 102 149 236
0.196743 0.264012 -0.007001 254 254 255
-0.096617 0.029477 -0.016623 102 149 238
-0.112795 -0.224960 0.046682 104 150 237
0.148717 -0.261624 0.059995 255 255 255
-0.078442 -0.272923 0.010966 254 254 254
-0.106948 -0.093111 0.009647 135 141 147
-0.111027 -0.276279 0.000559 100 144 223
0.162582 -0.268553 0.060943 254 255 255
-0.093936 -0.242328 -0.063685 103 150 238
0.088454 0.274550 0.047042 254 254 255
-0.110009 0.021632 0.027542 101 148 233
0.071840 -0.264768 -0.011665 255 255 255
-0.107859 0.098290 -0.093643 101 148 238
-0.111644 -0.049371 -0.058308 101 149 238
0.136347 -0.260822 0.017835 255 254 255
-0.040028 0.264437 0.055938 254 255 254
0.176480 -0.261234 -0.010720 255 255 255
-0.110856 0.253744 0.029401 101 149 235
0.216347 -0.267583 -0.004962 255 255 255
0.158717 -0.266285 -0.019913 255 255 255
0.326152 0.262085 0.038378 255 255 255
0.348085 0.273859 0.024202 254 254 254
0.167215 -0.261674 0.038996 255 255 254
0.183609 0.273091 0.026404 255 255 255
-0.005889 -0.270264 -0.009711 254 254 254
0.216813 -0.264341 0.015341 255 255 254
-0.113147 0.025452 -0.063086 102 150 236
-0.107467 -0.087510 0.009723 101 150 236
-0.078289 -0.282552 0.061424 254 255 255
