ply
format ascii 1.0
element vertex 1181
property float x
property float y
property float z
property uchar red
property uchar green
property uchar blue
end_header
-0.044055 -0.265014 0.038847 179 183 190
0.157125 -0.268331 -0.009108 254 255 255
-0.066474 0.239343 0.012286 116 130 156
-0.070430 0.069893 0.004856 117 132 161
-0.068970 0.060688 0.013823 112 130 165
-0.088524 -0.251828 0.027251 116 131 161
-0.067175 -0.121310 0.021529 127 127 132
-0.092931 -0.226914 -0.020853 118 130 152
-0.082943 -0.145774 -0.083283 123 127 133
-0.088034 -0.247845 0.006923 111 140 188
-0.090644 0.186112 -0.077402 123 131 141
-0.056704 0.264515 -0.032093 253 253 253
-0.088918 -0.209035 0.036225 110 142 197
-0.088857 -0.202868 0.052037 117 149 205
0.073164 -0.261815 0.058555 253 253 252
-0.092634 0.136351 0.038383 130 131 135
0.192052 0.281379 0.026483 252 252 253
-0.088113 0.250483 0.001830 109 140 194
-0.067322 0.051756 -0.031571 128 129 133
-0.067081 0.045459 0.039136 112 144 201
0.072133 -0.263604 -0.011674 250 250 253
0.032092 0.280158 0.028244 252 254 254
0.266582 -0.270498 -0.005186 252 252 253
-0.069946 -0.271915 0.024106 117 147 201
0.066108 0.268719 0.025500 251 251 252
0.026275 0.264246 -0.033312 251 252 253
-0.028319 -0.262925 -0.030470 253 253 253
-0.089776 0.124648 0.033880 114 139 185
-0.087318 0.247910 0.021844 115 135 169
-0.059770 -0.264094 0.040181 129 133 136
0.020954 0.267326 -0.008265 252 252 254
-0.094955 0.033115 -0.034375 133 136 140
-0.088759 -0.153037 -0.015138 131 132 138
-0.070422 -0.052105 0.039738 125 129 133
0.231338 0.276758 0.062330 254 254 253
-0.089086 0.259475 0.042713 123 130 140
0.235193 -0.276225 0.058843 254 255 255
0.218275 0.272233 0.028159 252 253 253
-0.090747 0.186475 -0.040397 131 134 138
0.082786 0.278831 -0.032463 252 253 253
-0.082371 0.163913 -0.080799 126 127 132
-0.067227 0.039931 -0.003599 136 139 144
-0.085907 0.024553 -0.007369 114 146 206
-0.091423 0.260873 -0.044319 139 143 148
-0.064843 0.053962 0.025399 127 129 132
-0.047921 -0.266082 -0.005308 255 255 255
-0.094818 0.091370 -0.058052 130 131 137
-0.024738 -0.268477 -0.044492 254 254 254
0.237348 -0.270198 0.026455 254 254 254
0.094102 -0.265146 -0.003891 249 250 252
-0.065062 -0.231360 -0.054390 128 128 131
0.252294 -0.277967 0.017852 253 252 254
0.199873 -0.268561 -0.002436 253 254 252
0.100921 -0.272176 -0.023170 252 253 254
-0.092361 -0.138418 0.009298 120 129 143
-0.063499 -0.185609 0.022193 109 140 196
-0.002172 0.263810 0.055847 252 253 254
0.006850 0.270634 0.066155 250 252 252
0.125873 0.280696 0.041561 255 254 254
-0.091609 -0.212323 0.032392 130 131 136
-0.085349 -0.059330 -0.064227 124 129 137
0.095557 0.269691 0.061718 251 252 253
-0.064410 0.252222 -0.014832 129 141 162
0.178802 0.281518 0.021256 249 250 251
0.130414 -0.271428 0.006342 254 253 252
-0.093994 -0.150194 0.046925 129 131 135
0.073612 0.270214 -0.004723 254 254 255
-0.061467 -0.082993 -0.076694 130 132 135
-0.090802 -0.084704 0.025837 116 142 186
-0.042795 -0.261550 -0.014200 252 253 252
0.095764 -0.265705 0.049693 254 254 255
0.247646 0.282317 0.035770 248 249 250
-0.066204 0.102024 0.048539 126 127 132
0.111840 -0.264671 -0.013797 253 255 255
-0.091949 -0.055889 -0.011581 118 129 148
0.362005 -0.272219 0.043271 253 251 252
-0.044798 0.262737 0.015399 252 252 253
0.078768 0.267548 -0.022698 254 254 253
0.078496 -0.275483 0.054165 254 252 253
-0.083868 -0.201546 -0.079897 128 130 135
-0.002562 0.257710 0.057975 254 255 254
-0.064241 -0.110236 -0.084406 127 128 131
-0.093278 0.044034 -0.072967 131 130 137
-0.097666 0.148862 -0.008663 121 143 182
0.192296 -0.278202 0.001842 252 254 252
-0.081788 -0.035637 0.003853 126 128 133
-0.060601 -0.241560 -0.060494 172 178 182
-0.089947 -0.243693 -0.004628 114 137 179
0.212257 0.273402 0.028260 250 250 252
-0.091211 -0.197771 -0.001616 113 133 170
-0.067818 -0.064491 -0.040476 127 130 137
-0.091039 -0.258827 -0.011866 113 145 200
-0.064948 0.168348 0.013030 127 128 133
-0.063002 0.261721 -0.068865 128 130 137
-0.079976 0.114980 0.047088 128 132 138
-0.065038 -0.081097 -0.078244 125 126 130
-0.089495 0.234337 -0.044597 131 130 133
0.354150 0.276071 0.049338 250 251 252
0.158996 0.275227 0.066361 253 252 253
0.003895 0.280736 0.000307 251 251 252
-0.088573 0.008478 0.025715 132 132 135
-0.081440 0.088498 0.050762 125 127 130
-0.072359 0.276428 -0.041566 120 128 146
-0.008940 -0.266527 -0.026905 253 252 251
-0.074516 0.158892 -0.083764 110 143 203
0.296394 0.283174 0.019238 254 254 252
0.130082 0.270811 0.012932 250 252 251
-0.090898 -0.076401 0.037565 110 140 193
-0.093808 0.137269 0.032948 125 127 132
-0.085298 -0.283092 0.000868 128 130 135
-0.060539 -0.269589 0.043043 121 137 165
-0.088606 -0.266708 -0.029832 128 132 135
0.269703 -0.271257 0.057006 250 251 253
-0.082034 0.027781 0.041426 120 148 198
-0.010733 -0.261989 0.005206 253 252 253
0.296983 0.283975 0.046507 250 250 253
-0.087679 0.216288 0.016996 109 140 195
0.166551 0.271686 0.059170 254 255 253
-0.066476 -0.161778 -0.018482 126 130 132
-0.094387 0.070740 0.014606 112 146 206
-0.066262 0.026080 0.008763 107 143 205
0.339886 0.273977 0.023775 252 251 253
-0.065234 0.106966 0.043111 110 140 194
0.060269 0.280654 0.017171 253 255 255
0.026226 -0.261415 0.038115 255 255 254
-0.075204 0.036353 -0.060345 114 147 207
-0.073270 -0.197483 -0.081374 129 131 139
-0.070772 -0.138221 0.038068 109 147 213
0.334532 -0.279822 0.014594 255 253 255
0.304361 0.272639 -0.001701 253 252 254
-0.010753 -0.261977 -0.030880 249 250 250
-0.091285 -0.077287 -0.076444 118 145 190
-0.067850 0.169819 0.047449 134 136 140
-0.089097 -0.056554 -0.032557 122 132 151
-0.063008 0.277220 -0.018076 117 143 186
-0.086378 0.153972 0.054982 119 131 155
0.076541 0.268919 -0.013463 255 255 255
-0.076112 0.014315 0.020703 128 134 144
-0.033502 -0.277446 0.042454 254 255 254
-0.068664 0.174010 0.004614 129 133 143
0.125738 0.280295 0.046165 255 255 254
0.338307 0.283702 0.038233 254 252 255
0.088484 -0.267011 -0.016917 184 189 192
-0.094669 -0.136153 -0.025315 120 153 209
0.296449 -0.272670 -0.002643 250 250 250
0.306685 0.276261 0.057888 247 247 249
-0.018664 -0.275603 0.009390 255 255 255
-0.065411 -0.122184 0.005788 130 129 134
-0.087106 0.187881 0.035234 117 127 147
-0.090683 0.252329 -0.028949 116 133 162
-0.095491 -0.104177 -0.080433 124 128 135
-0.078162 -0.122329 0.047157 113 137 177
-0.070246 0.138131 -0.076990 126 140 160
0.244461 -0.278217 0.039293 255 254 254
-0.066478 0.201462 0.008497 126 128 137
0.082265 -0.266798 0.019834 255 255 255
-0.090186 -0.204773 0.047708 121 134 161
-0.088204 0.206293 -0.048694 131 134 138
0.133615 -0.277815 0.042782 251 253 254
-0.092886 0.101292 -0.037869 127 130 137
-0.061588 -0.052151 -0.060817 130 131 135
0.326795 0.274609 0.007707 253 253 253
0.241890 0.280136 -0.003238 253 255 255
-0.065793 0.032007 0.019054 116 129 154
-0.094050 0.173025 -0.016594 126 147 185
-0.092762 0.096863 -0.030131 128 130 133
0.057517 -0.268590 -0.033321 251 253 253
-0.085435 -0.050788 -0.033107 112 140 193
-0.084272 0.239671 0.059518 129 130 133
-0.082147 0.254546 -0.070957 124 128 134
0.170810 -0.275059 0.026264 255 255 255
0.246538 -0.267200 0.013559 249 250 250
-0.063180 -0.115072 0.007548 126 127 130
-0.024672 -0.263884 -0.008759 253 253 253
0.083180 0.279951 -0.015478 249 250 252
0.047738 -0.264859 -0.017570 253 253 253
0.151380 0.272109 0.024409 254 255 253
-0.090101 0.118338 0.033295 123 130 139
-0.065878 -0.208944 0.042309 119 132 153
-0.089884 0.216279 0.010647 126 127 132
-0.066164 0.276227 0.018795 253 253 253
-0.074281 -0.081325 0.046913 114 140 182
0.051065 -0.267941 -0.030506 252 254 254
-0.092407 -0.138794 -0.019575 110 144 205
0.109967 0.271170 0.025250 254 253 253
-0.034783 0.263652 -0.013537 255 255 253
0.283412 0.283408 0.042244 251 251 254
-0.067117 0.191272 -0.064177 111 146 205
-0.077789 0.012402 0.007517 125 129 133
0.357974 0.275548 0.015311 252 254 251
-0.039612 -0.263070 -0.020764 255 255 255
-0.066523 -0.100625 -0.067141 124 127 131
-0.065023 0.160814 0.045122 120 136 163
-0.085172 -0.207754 0.062158 128 131 134
-0.085725 -0.251463 0.048912 118 133 158
0.219920 -0.270057 0.023613 252 253 252
-0.039602 -0.272410 0.068160 253 251 252
0.003069 -0.277163 -0.007064 254 255 255
0.319698 0.274086 0.030820 249 250 251
-0.062514 -0.265828 0.039316 123 129 140
0.146394 0.273804 0.065845 253 254 254
-0.070559 0.278671 -0.030783 130 131 134
0.132053 0.278847 0.048203 253 253 254
0.280225 0.283440 0.025103 251 251 252
0.122953 0.282362 0.051426 254 253 253
-0.064582 0.263528 0.023075 134 136 141
0.001922 0.266603 0.012578 253 253 254
-0.087118 -0.116167 -0.086666 119 132 153
0.147865 0.283263 0.062329 252 252 252
0.039519 0.261391 0.027117 254 253 254
-0.062054 -0.123562 0.037526 135 144 159
-0.094121 0.079384 0.015022 119 146 192
-0.067000 -0.272570 0.031480 144 163 195
-0.023045 0.264496 0.013804 251 251 253
-0.091911 0.192682 -0.062237 126 130 134
0.146577 0.283714 0.019417 251 252 251
-0.005513 -0.276439 -0.023153 251 252 253
-0.066525 -0.249503 -0.030006 112 150 220
-0.065526 -0.281656 -0.021109 125 131 144
-0.091902 -0.190194 0.009253 131 134 136
-0.065458 0.064451 0.038179 127 128 133
-0.072844 0.080704 -0.067205 112 140 189
-0.067826 -0.066960 -0.020874 110 145 203
0.059013 0.266304 0.065125 255 255 254
-0.068408 0.056119 -0.040272 108 147 216
0.012688 0.264386 -0.026586 254 253 254
-0.090324 -0.072438 -0.053667 129 129 132
-0.068612 0.143109 -0.065146 122 135 155
0.158314 0.273648 0.047863 250 252 251
-0.091911 -0.179268 -0.031597 125 126 129
-0.090030 -0.128665 0.009993 128 130 136
-0.094618 0.076737 -0.024122 126 129 134
-0.062850 0.177662 0.032763 129 129 133
-0.095025 0.057190 -0.077026 132 133 138
0.020669 -0.261887 -0.028135 252 253 253
0.066073 -0.275594 0.043587 249 249 252
0.275619 0.287704 0.049432 250 250 254
-0.090164 0.088791 -0.085794 130 133 138
0.099373 -0.267394 -0.017258 251 252 252
-0.097504 0.143497 0.002811 129 129 132
0.009417 -0.263955 0.021789 254 255 254
-0.069593 0.156441 -0.011242 130 132 135
-0.060731 -0.272337 -0.001043 126 128 134
-0.067865 0.030732 -0.023677 109 145 213
0.102972 -0.273282 0.062329 252 252 252
-0.061192 -0.242390 -0.020990 131 133 137
0.288746 -0.272352 0.040958 254 255 255
-0.095217 0.125028 -0.066710 116 133 162
0.229244 0.272421 0.038788 255 255 253
0.301711 -0.280253 0.036031 255 255 255
0.230274 -0.269531 -0.012766 248 249 250
-0.089197 -0.058110 0.011709 111 135 180
0.185547 0.271748 0.013284 250 251 252
-0.090454 0.187966 -0.071934 125 129 135
0.334185 0.283098 0.027894 255 255 253
0.088486 0.280073 -0.022312 255 253 255
-0.064455 -0.146290 0.050554 130 131 135
-0.061737 -0.261904 -0.019092 250 251 251
0.077236 0.270174 -0.002043 253 253 253
0.102793 0.269657 -0.010086 252 252 252
-0.010986 -0.276256 0.031220 254 255 255
-0.089769 0.045474 -0.005737 118 129 149
-0.071298 0.262422 -0.014487 254 253 252
-0.070048 -0.147625 0.050282 114 142 198
-0.067445 0.190358 -0.001948 128 129 134
0.035397 -0.277693 0.011875 255 255 254
0.150672 -0.277457 0.015255 252 252 252
-0.067208 0.101947 0.038112 120 128 142
0.263020 -0.271473 -0.003389 252 252 253
-0.059206 -0.245107 -0.038477 164 169 175
0.002246 -0.263382 0.048849 254 253 253
-0.091650 -0.166504 0.040128 132 133 137
-0.066227 0.159543 -0.080455 128 129 134
-0.095266 0.048511 -0.068136 122 135 158
0.109680 0.280169 0.040954 253 254 255
0.228376 0.281817 0.058613 252 251 252
-0.070492 0.099801 -0.045953 110 148 213
-0.065315 0.225977 0.006191 126 127 130
0.246954 -0.268259 0.038746 248 250 250
0.304046 -0.281731 0.040595 247 248 250
0.348825 -0.280306 0.053242 253 254 252
0.115256 0.269859 -0.010694 253 254 255
-0.092435 -0.219177 0.019199 130 133 137
-0.091364 0.209792 -0.033898 129 132 136
-0.075412 -0.266939 0.043268 113 142 193
0.014841 0.266267 -0.020938 254 253 255
0.141647 0.281196 -0.009444 252 252 252
-0.092617 0.113065 -0.020609 129 129 132
-0.091090 0.134325 0.027314 128 131 137
0.163768 -0.280837 0.023497 255 255 255
0.166849 -0.272840 -0.019093 253 253 253
-0.085504 0.022692 -0.033184 115 138 181
0.019381 0.278138 -0.032501 253 254 252
-0.066156 0.028347 0.005735 109 148 215
-0.034735 0.277097 -0.051647 251 251 251
-0.092430 0.022876 -0.020643 120 142 182
-0.060225 -0.258242 0.037828 130 129 132
0.156062 0.285025 0.055242 253 254 254
-0.090548 -0.146761 0.015964 125 129 134
0.103723 0.270169 0.043454 251 251 252
0.041492 -0.268656 0.064015 255 255 253
-0.084123 -0.067916 -0.067253 128 129 133
-0.092490 0.201554 0.017107 129 131 134
0.038779 0.272821 0.065156 250 251 252
-0.034389 0.265745 0.008846 253 255 253
-0.033204 -0.269216 0.064663 253 254 253
-0.079251 -0.240841 0.057492 120 140 175
0.096568 -0.277042 0.048007 251 253 253
-0.012294 0.263756 -0.050022 254 254 254
-0.088106 0.208199 0.055272 116 147 204
0.102522 -0.266932 0.061736 253 253 254
0.104337 0.269706 -0.011512 254 253 254
-0.091989 0.257557 0.003324 126 128 135
-0.091677 -0.135819 -0.064014 128 129 134
-0.068532 -0.154850 -0.032448 110 146 209
0.120648 -0.273912 -0.020251 251 251 252
-0.035274 0.265541 0.050245 251 251 253
-0.064962 0.193792 -0.075774 130 131 136
0.126593 0.280656 0.045865 254 255 255
-0.091266 0.234803 0.034036 130 129 134
-0.085401 -0.245756 0.061537 124 127 131
0.075635 -0.264691 0.031972 251 253 252
-0.066827 0.137816 -0.037723 131 130 135
-0.090405 0.255783 -0.018490 121 132 156
0.199177 0.272641 -0.013652 252 252 253
-0.083718 0.020848 0.030714 125 127 130
-0.094029 0.056362 0.004133 115 141 189
0.298370 0.277293 0.027286 254 252 253
-0.024410 -0.267361 -0.011775 253 253 252
0.331087 0.283289 0.018740 250 250 253
0.257822 -0.277098 0.022774 254 254 254
-0.066214 -0.111911 0.020345 131 133 139
-0.059729 -0.261329 0.062503 254 252 254
-0.070090 0.159828 0.002817 149 163 188
0.298871 -0.270317 0.011877 253 255 253
-0.024136 0.263072 -0.043212 254 255 253
-0.044656 0.264425 -0.001697 252 252 251
-0.068675 0.154425 0.040791 110 134 178
0.216513 -0.269093 0.048193 254 253 252
0.103120 -0.277334 0.022534 253 254 255
-0.091208 0.127878 -0.030959 113 139 184
0.003783 0.278502 0.022908 253 254 253
0.028580 -0.265586 0.004490 254 254 254
-0.064553 0.035047 -0.059644 129 131 137
-0.001738 -0.268888 -0.043481 251 251 251
-0.070110 0.091250 -0.010502 126 128 133
-0.072911 0.046155 0.039730 129 131 135
0.026951 0.279238 0.032814 248 249 251
-0.067763 0.215159 -0.044186 131 132 136
0.277562 -0.279914 0.027860 252 252 253
-0.090889 0.131207 -0.009667 107 141 206
0.361071 -0.280241 0.014716 254 253 252
0.120049 0.281244 0.008699 250 250 252
-0.064276 -0.130179 0.026987 129 129 135
-0.067432 -0.104589 -0.080015 110 148 214
-0.053022 -0.265673 0.022498 172 182 200
0.075010 0.280630 0.019610 251 253 254
0.070436 -0.264769 0.053972 252 253 254
-0.062853 -0.139495 0.042029 110 144 202
-0.093175 -0.205902 0.005129 126 127 131
-0.025562 -0.248299 0.042847 162 166 173
0.110220 0.266603 0.063067 254 255 255
-0.037421 -0.279001 -0.006641 252 254 252
-0.061162 0.269680 -0.046076 253 254 254
0.152378 -0.279248 0.063768 253 253 252
-0.040272 -0.262947 0.019851 253 252 253
0.015206 0.278529 -0.024098 253 254 255
0.091650 -0.273903 -0.020838 253 252 253
-0.050037 0.260309 0.028320 252 251 253
-0.018173 0.264055 0.064690 252 252 253
0.302419 0.281101 0.001765 252 252 252
0.221355 0.273198 0.036899 253 254 254
0.033814 0.271311 0.026182 254 253 252
0.251711 -0.270948 0.034740 251 252 253
-0.060503 -0.193791 0.057975 127 130 133
0.135779 -0.279387 -0.000606 252 253 254
0.081573 0.268158 0.046285 254 255 255
-0.056127 0.264114 -0.045582 252 252 252
-0.093127 0.109173 -0.025032 121 133 150
-0.025975 0.273518 -0.042970 167 169 175
-0.071163 0.128061 -0.009412 121 130 142
-0.064767 0.205399 0.018196 125 126 129
-0.068551 0.079274 -0.015104 119 132 159
-0.090687 0.254574 0.010503 122 136 160
-0.018310 -0.264465 0.001713 253 252 253
-0.090442 -0.076037 0.037775 137 143 157
-0.095116 -0.115633 -0.014186 115 141 187
0.005995 0.277120 0.006603 251 252 251
-0.051748 0.267728 0.048459 156 159 164
-0.079574 0.070543 0.045319 131 131 134
-0.095349 -0.148883 -0.000437 127 149 188
-0.050262 0.277573 0.065842 255 255 255
-0.080555 -0.273951 0.034140 112 145 200
0.269214 0.279717 0.013151 253 252 254
-0.002573 0.266798 -0.020927 250 251 252
0.005029 0.277648 0.039915 253 255 253
0.121916 -0.266949 0.038341 253 252 254
-0.082373 -0.209553 0.050988 130 133 138
-0.081227 -0.167321 -0.081172 130 130 134
-0.081138 -0.061403 -0.061183 119 133 158
-0.077095 0.071723 -0.080840 129 127 131
-0.065199 0.274394 0.017615 129 127 131
0.267561 0.283424 0.022680 255 255 255
0.111441 0.280496 0.055846 253 254 255
-0.068095 -0.278200 -0.000213 130 131 134
0.123945 0.280089 0.054322 252 253 252
-0.063600 -0.163879 -0.074135 129 131 135
-0.051701 0.274689 0.065871 253 255 255
-0.088083 -0.283282 -0.010004 113 141 189
0.101088 0.281692 -0.017089 252 254 255
0.103106 0.276038 0.062543 251 252 252
-0.057703 0.271021 -0.052975 253 252 254
-0.083743 0.269279 0.035051 129 130 137
-0.066146 -0.028500 0.023242 129 130 136
0.380493 -0.280352 0.024635 252 253 252
-0.092281 0.241252 -0.064587 114 138 177
-0.058888 -0.263993 0.041971 167 171 176
0.362021 -0.280217 0.023860 255 255 255
0.209370 -0.269181 -0.009630 251 253 254
-0.007720 0.272912 -0.043192 253 254 253
-0.093458 0.110460 0.022575 128 128 134
-0.024218 0.277528 0.065144 255 254 255
-0.021620 0.264912 -0.015338 253 253 254
-0.067192 0.045398 -0.038092 128 128 132
-0.015098 -0.270197 -0.038356 254 253 252
-0.090170 0.098194 0.003017 126 130 140
0.000252 -0.274698 0.054144 254 254 253
-0.066099 0.195695 -0.074519 113 134 169
-0.093329 0.111045 0.042296 111 146 205
0.127432 0.273771 -0.018314 254 254 253
-0.079342 -0.044186 -0.026552 127 125 129
-0.088533 0.205321 -0.042395 127 128 132
-0.090302 0.206239 -0.054835 111 133 171
-0.064547 -0.060890 -0.067647 128 142 168
0.150084 0.272034 -0.018683 254 253 255
-0.061465 -0.219354 -0.004253 125 126 130
0.127774 0.279911 -0.000700 252 254 254
-0.067652 0.023516 0.034496 127 127 131
-0.064757 0.276035 0.022614 132 134 137
0.329773 -0.283070 0.019105 254 254 254
-0.079566 -0.085055 0.047525 143 146 149
-0.062582 -0.269440 0.054899 253 251 251
0.064450 -0.275920 -0.003297 253 253 254
0.382329 -0.278496 0.010577 255 255 253
-0.004352 0.277824 0.033840 255 255 255
0.012067 0.271804 -0.045632 249 250 251
-0.014877 0.272009 -0.038562 251 251 251
-0.058003 0.264491 0.041215 252 253 253
-0.004777 0.276284 0.058081 254 253 255
0.037455 0.270421 0.042945 251 253 252
-0.049310 -0.281743 -0.015362 253 252 252
-0.057093 -0.266775 0.028530 132 134 138
-0.055320 0.273732 -0.045570 253 255 255
0.087818 -0.275783 -0.009041 254 255 255
-0.090639 -0.043406 -0.001932 132 133 138
-0.073821 -0.032306 0.017755 126 129 131
-0.066511 -0.097501 0.032547 127 130 132
-0.091059 0.144195 0.004754 118 145 192
-0.093072 -0.161271 -0.004786 115 145 197
0.111400 0.270660 0.024454 253 252 253
-0.091669 -0.126444 -0.062846 124 137 159
0.256388 0.285311 0.010554 252 253 254
0.157953 0.280291 0.062245 252 254 255
-0.068155 -0.125864 -0.064324 115 142 189
0.048985 0.279870 0.053140 253 252 253
0.345551 -0.272533 0.014452 253 253 254
-0.092468 0.091706 -0.037807 112 150 218
0.158178 0.281447 0.047022 254 253 254
-0.091904 -0.191919 -0.073205 114 142 193
-0.083681 -0.081625 -0.078149 118 134 159
-0.062631 -0.044449 0.032902 127 129 131
0.022989 -0.275603 -0.041695 252 254 252
-0.086367 -0.046728 -0.012225 129 132 135
-0.062224 -0.158473 0.016891 135 139 142
-0.071886 -0.269082 0.007547 253 252 252
0.190490 -0.276797 0.033982 253 254 253
0.105199 0.280611 0.038779 252 253 253
0.324438 -0.272605 0.025830 254 253 252
0.087037 -0.261921 0.020799 253 252 253
-0.083244 0.148094 -0.083658 131 133 139
-0.092397 -0.226091 0.040750 136 141 149
0.006758 0.266617 0.007857 255 255 254
0.063461 -0.274862 -0.022766 253 251 254
0.293028 0.279692 0.059716 253 253 253
0.120359 0.269953 0.020907 250 252 252
-0.027116 0.273014 0.029617 255 254 254
-0.088695 0.190781 0.030109 128 131 134
0.100300 0.279640 0.012364 251 253 252
0.010736 0.266631 0.027104 254 254 253
0.014828 -0.263245 0.011867 251 251 251
-0.065332 0.050883 0.032267 124 126 131
-0.073733 -0.275296 -0.043940 123 131 143
0.019244 -0.276474 -0.028756 250 251 253
-0.080003 0.261729 -0.064552 127 128 132
-0.085737 0.203250 -0.082297 129 130 136
-0.086522 0.247137 0.021903 129 133 136
-0.063268 -0.169866 -0.014962 131 134 138
-0.065132 -0.265010 -0.006855 251 250 251
0.148729 -0.282121 0.050775 254 255 255
-0.065330 -0.138829 0.005863 127 128 134
-0.075250 -0.074237 0.048150 126 133 140
-0.089340 0.032978 0.035111 127 127 131
-0.078249 -0.276658 0.031593 255 255 254
-0.087178 0.218685 0.055541 126 127 131
0.014072 0.275887 -0.002053 251 251 251
-0.087951 -0.266682 0.035106 124 136 157
-0.041352 -0.266306 -0.046607 251 251 253
0.008653 -0.276781 -0.010462 253 254 254
-0.064724 0.270132 0.047999 128 132 135
0.237321 -0.270215 0.012517 252 253 252
-0.093899 -0.260267 -0.044840 121 131 150
0.152171 -0.278073 0.000481 252 253 254
0.191493 -0.279052 0.021715 252 253 253
0.032422 -0.277630 0.006800 253 253 253
-0.066967 0.091552 -0.080922 127 127 131
0.087432 -0.275037 0.060200 255 255 255
0.009838 0.264750 0.052877 252 252 252
-0.066258 0.268872 -0.041845 248 249 250
0.194400 0.271541 0.009719 253 253 253
0.078877 0.268737 0.037476 251 251 254
-0.064120 -0.247543 -0.057477 127 136 157
-0.048782 0.253511 0.053156 252 251 252
0.284281 -0.273414 0.012895 255 255 255
-0.091352 0.048645 0.011459 123 127 135
-0.066142 0.175053 -0.003961 131 132 137
-0.087082 0.250920 0.003295 137 139 143
-0.066917 0.124857 -0.078092 126 128 133
-0.092141 0.137859 -0.077265 118 129 147
-0.070516 0.026424 0.015556 114 139 186
-0.075017 -0.087586 0.043525 112 143 202
0.297475 -0.271027 0.010567 248 250 250
0.063810 -0.264459 -0.019436 252 254 254
-0.091587 -0.061979 0.017818 131 132 136
0.277767 -0.280988 0.010044 254 254 255
-0.062463 -0.093685 0.035663 126 130 133
0.218081 0.272476 0.011050 255 255 255
-0.067209 0.030792 -0.013939 116 131 159
0.077591 -0.276975 0.032227 250 250 252
-0.095850 -0.136514 0.041956 129 130 133
-0.082901 -0.122656 0.049728 129 131 135
-0.069769 -0.277189 -0.018925 252 253 254
0.206021 0.273274 0.026780 253 254 255
-0.083944 -0.028529 0.006315 250 250 252
-0.077556 -0.051477 -0.053658 128 129 133
0.215773 0.275207 -0.012347 252 253 252
-0.086137 0.242813 0.021714 120 128 141
-0.050162 0.263489 -0.035107 251 251 251
-0.082593 0.277177 -0.026367 138 142 148
-0.066486 0.193643 -0.035258 125 127 131
-0.072656 0.035013 -0.062941 126 128 132
-0.001879 -0.275547 -0.032477 253 252 252
0.214709 -0.268496 0.000094 252 254 252
-0.070930 0.261712 -0.050681 253 251 251
-0.065846 -0.181902 0.033733 128 128 133
0.380874 -0.274946 0.003635 250 252 252
-0.067877 0.169408 0.026829 128 130 133
-0.091325 -0.220276 -0.001130 126 127 131
-0.024312 -0.273654 -0.042525 251 251 251
0.064536 -0.276757 -0.022116 252 254 254
-0.057557 0.271040 0.053055 251 252 254
-0.088350 0.232339 -0.015869 134 140 152
0.277571 0.283437 0.049463 253 253 253
-0.092722 0.147126 -0.004271 118 139 175
-0.066468 0.230865 -0.061956 128 130 135
-0.056036 -0.220635 0.049068 169 174 181
0.264900 0.281540 0.001482 252 253 253
0.152570 -0.276187 0.055209 254 255 255
0.336253 -0.272588 0.044678 252 253 254
-0.090766 -0.163799 -0.063871 127 127 131
-0.068408 0.200418 0.004261 129 129 133
-0.091553 0.137979 -0.028662 132 133 136
-0.079558 0.222830 0.063297 132 134 138
-0.090904 0.085591 -0.011101 127 130 134
-0.067486 -0.198519 -0.010092 129 131 137
0.334617 0.282820 0.043962 254 253 255
0.140681 -0.268105 0.020651 252 254 253
-0.090236 0.253720 0.002165 125 134 153
-0.062968 -0.043282 0.011152 127 128 131
0.291803 0.277481 -0.006954 243 245 247
-0.061018 -0.213338 0.028289 127 129 132
-0.069156 0.199012 -0.047863 127 129 134
-0.089393 0.045713 -0.011935 127 136 154
-0.064429 0.217215 -0.022435 119 130 153
-0.017272 0.268932 0.067277 252 253 254
-0.021097 0.277133 0.032297 251 252 254
-0.088004 0.269777 0.043157 126 128 133
-0.087696 0.249130 -0.055971 128 130 134
0.090994 -0.276492 0.035970 253 255 254
0.063828 0.266597 0.061025 254 253 253
-0.089906 -0.267167 -0.054272 115 136 171
-0.066889 0.078193 -0.009728 124 131 146
-0.084528 0.260646 -0.067100 129 130 134
0.086995 0.274409 -0.021950 254 253 253
0.241479 -0.270639 0.029428 255 255 255
0.022193 0.267978 0.052369 250 252 252
0.304565 -0.281299 0.051141 254 253 252
0.217272 0.272113 0.063417 251 253 254
0.122724 0.281277 0.038143 254 255 255
0.317531 0.283385 0.024151 253 254 253
0.004360 -0.264858 -0.041435 252 252 251
-0.065816 -0.224038 -0.055287 135 137 141
0.133383 0.280963 0.010852 254 253 255
-0.007051 0.277422 0.057623 251 251 253
0.242669 -0.269588 0.045164 251 254 254
0.125895 -0.270950 -0.021098 253 253 254
-0.091751 -0.052351 0.014318 131 130 133
0.120193 -0.276850 -0.008397 250 251 253
0.109878 -0.268722 0.000116 248 249 250
0.290755 0.274161 0.053719 255 255 255
0.278198 0.284911 0.033869 249 249 251
-0.088835 -0.208127 0.050958 110 140 198
-0.092862 -0.088781 -0.042725 130 131 133
-0.079469 -0.275161 -0.055779 128 131 134
0.309200 -0.280938 0.050231 251 252 253
-0.062514 0.249170 -0.035575 117 139 176
0.246318 -0.270848 -0.005213 253 254 253
-0.048286 -0.276007 -0.038138 255 255 255
-0.091597 0.127903 0.032299 123 131 150
-0.088846 0.032611 -0.014389 128 130 138
-0.009342 -0.277437 -0.033552 253 254 253
0.320685 -0.278021 0.054961 254 252 252
-0.002690 0.279899 0.032650 252 253 254
-0.082324 0.267458 0.027192 116 148 205
-0.093705 -0.230919 -0.015551 114 136 175
-0.092850 0.055297 0.012165 141 146 151
-0.018592 -0.276339 0.035805 252 251 252
-0.094031 -0.078253 -0.075962 113 136 178
0.158806 0.271919 -0.016757 253 254 254
0.194087 0.271666 0.024953 252 254 253
-0.092078 -0.178794 -0.034282 124 128 135
-0.073801 0.079013 -0.062145 124 126 131
-0.076036 0.259031 0.054329 115 134 171
0.210050 -0.268108 0.052470 250 251 251
-0.089613 0.117419 0.043543 114 141 192
-0.023084 0.277383 -0.019533 254 255 255
-0.023236 0.278341 0.003573 251 252 251
0.169307 0.271358 -0.007696 254 253 253
-0.081334 0.222220 -0.073520 132 133 136
-0.067489 -0.105640 -0.071172 131 130 134
-0.067841 0.188731 0.016988 128 129 132
-0.007845 -0.265176 -0.014261 249 250 251
-0.061175 -0.078872 -0.064525 127 130 134
-0.092261 -0.153408 -0.080928 115 134 166
-0.086474 0.243123 0.015956 128 131 133
0.158636 0.281092 0.002875 252 252 253
-0.002185 -0.263081 -0.021577 251 252 252
-0.059349 -0.275411 0.005605 254 255 254
-0.094203 0.170451 -0.034736 119 133 154
0.069905 0.268015 0.024631 252 252 253
-0.073305 0.154587 0.051129 121 143 181
0.073843 0.274737 0.064284 251 253 253
-0.065120 0.057294 0.044403 116 136 170
-0.080641 -0.057928 0.035754 118 131 153
-0.014371 -0.276778 -0.031298 252 251 252
-0.088021 -0.282745 -0.000291 121 136 161
-0.060669 -0.159280 0.031299 125 129 131
-0.055805 -0.262114 0.051918 250 251 250
-0.089065 0.022892 0.036719 129 130 134
-0.009234 0.278502 -0.027104 255 253 255
0.073977 -0.267654 0.038307 255 255 255
-0.066194 0.259916 0.043852 126 127 130
0.036628 -0.275788 0.048285 254 254 255
-0.035788 0.266545 -0.046134 254 254 253
-0.062935 -0.190040 0.013575 130 130 135
-0.095594 -0.105609 -0.078216 112 143 199
-0.022761 -0.276582 0.053867 251 253 252
-0.088551 0.220459 0.011642 128 128 132
-0.091125 0.181080 -0.074854 132 134 139
-0.068677 -0.049350 -0.053289 124 133 147
0.030493 -0.264849 0.050235 252 253 253
0.058521 -0.275498 -0.016735 254 254 255
-0.089204 -0.052434 -0.043594 130 132 135
-0.079836 -0.083164 0.040090 113 144 203
-0.067144 0.170944 0.029191 117 130 155
-0.012496 -0.261537 0.034499 250 250 250
0.129108 0.280191 -0.013890 254 254 253
-0.091607 0.031931 -0.052797 124 133 143
-0.064906 0.239927 -0.068649 112 137 181
0.311984 -0.272368 0.055497 255 255 255
0.178519 -0.277919 0.004196 255 255 255
0.022975 -0.259104 0.056307 253 253 252
0.062816 0.280991 -0.026274 254 254 254
0.309230 -0.282397 0.013021 251 253 251
0.081611 0.267257 0.026297 253 252 255
-0.081602 0.182012 0.053104 131 133 136
-0.064589 -0.188124 -0.050471 114 135 171
-0.092336 -0.162443 0.038685 113 143 196
-0.091188 0.270176 -0.002827 129 127 132
-0.092243 0.145864 0.032084 115 137 172
-0.064731 0.214701 0.028200 125 130 140
-0.008895 -0.263081 0.014293 255 255 255
0.170314 0.272212 0.033149 249 249 251
-0.008873 -0.275494 0.033727 251 251 251
-0.067985 0.029082 -0.029022 134 139 146
-0.060856 -0.268107 0.001164 126 129 137
-0.064669 -0.099373 -0.033384 125 128 134
0.210176 0.272625 0.055903 254 254 254
0.072311 -0.276657 0.042385 252 255 253
-0.018669 0.265759 0.065818 254 254 254
0.270938 -0.271251 0.022036 253 254 252
-0.065467 0.038949 -0.060562 126 127 133
-0.068566 -0.088950 0.008607 130 132 136
-0.064272 -0.081061 0.031421 128 127 130
-0.088904 0.227140 0.032692 116 141 186
0.063061 0.267913 -0.019886 250 251 253
0.007384 -0.277566 0.006667 253 254 253
-0.094326 0.129041 0.000991 113 150 212
0.046381 0.280319 0.019801 255 255 253
-0.084523 0.115916 -0.090192 129 129 134
-0.090503 -0.130406 -0.063004 130 131 136
-0.093322 0.076571 0.026013 126 129 131
0.229380 -0.270330 0.025293 254 253 253
0.158453 -0.275995 0.061930 252 252 251
0.007901 0.278915 0.005355 251 252 254
-0.092519 0.137570 -0.034838 126 130 132
-0.081399 -0.132961 -0.085904 127 129 134
0.158138 0.271850 -0.007573 253 255 254
-0.064723 -0.097636 -0.081572 127 129 135
0.320235 0.275427 0.012081 255 255 254
-0.070403 0.168241 0.001717 115 135 171
0.099417 -0.278658 0.040125 248 249 250
-0.087993 -0.241481 0.041180 124 148 192
-0.084501 0.276453 0.015230 119 129 146
-0.029086 0.261276 0.059233 254 255 252
-0.049827 0.280786 -0.012949 252 253 254
0.280709 0.274396 0.026457 253 252 252
0.003760 -0.268743 -0.040080 254 254 254
0.086324 0.282932 0.023197 252 251 252
-0.063981 -0.198142 0.016741 127 127 130
0.227153 0.283572 0.049096 252 253 253
-0.066529 0.283278 -0.024521 126 130 136
-0.063618 -0.170026 0.040369 126 129 132
0.251237 0.286715 0.005594 251 251 254
0.060170 -0.275778 0.003936 255 255 255
0.043303 0.267997 -0.025886 254 255 255
0.010384 0.278912 -0.000408 254 255 253
-0.008271 0.266378 -0.018214 254 252 253
-0.010711 -0.263321 0.024563 250 250 253
0.185134 0.277765 0.028178 255 255 255
-0.071714 0.125591 0.000348 110 145 207
0.130938 0.270961 0.041003 251 252 253
0.259391 0.284357 -0.004241 254 254 254
-0.089365 0.263487 0.002458 109 146 207
-0.063392 -0.054294 -0.054818 128 130 136
-0.070927 0.124742 -0.019453 111 145 205
-0.072466 0.071784 0.049413 126 129 132
0.080090 -0.276457 0.020319 254 253 252
0.119348 0.270706 0.055873 251 251 252
0.101154 -0.274262 -0.022068 253 255 253
0.014910 0.269644 0.039212 254 254 255
0.007956 0.262747 -0.040496 251 252 253
0.064168 0.280342 0.042648 255 255 252
0.205477 -0.269430 0.052302 252 253 253
-0.070297 0.276853 -0.004682 248 248 250
-0.068131 0.146354 0.006214 135 145 161
-0.066969 -0.137857 0.041656 119 130 152
-0.089987 -0.054166 0.025150 124 128 134
0.173643 -0.267520 0.031032 252 252 253
-0.089086 0.231537 -0.031547 118 147 197
-0.064229 0.222096 -0.023107 125 128 133
-0.091411 0.223370 -0.058965 119 134 167
0.188159 0.271207 0.020836 255 254 255
0.277511 0.273883 0.004945 252 252 253
0.071506 0.278477 0.049749 250 252 252
0.182468 -0.267023 0.031242 253 253 252
-0.090081 -0.283561 -0.031149 113 140 186
0.113212 -0.266989 0.020738 252 254 253
-0.091881 -0.220460 -0.072490 112 138 183
-0.091288 -0.110728 -0.018215 126 128 131
0.156411 0.270058 -0.017055 250 250 251
-0.065436 0.269648 0.027011 253 255 255
0.175727 -0.276715 -0.004360 255 255 254
0.093510 -0.274330 0.064699 254 255 255
-0.014375 -0.263545 0.041982 255 255 254
-0.086106 -0.049114 0.038233 118 129 151
-0.007363 -0.276943 -0.029923 252 251 251
-0.087755 0.248473 -0.039816 130 130 133
0.269242 -0.280053 0.032973 253 254 254
-0.068351 0.187699 -0.074730 128 130 132
-0.011532 -0.262998 0.025040 252 253 253
-0.091638 -0.092742 -0.074919 120 145 186
0.070941 -0.264153 -0.030171 252 254 253
0.077827 -0.264755 -0.005463 252 253 251
-0.063866 -0.277226 0.051583 253 254 253
0.149594 -0.265773 0.063507 252 251 254
-0.093424 -0.125743 -0.084179 115 135 169
0.205188 -0.269307 0.036072 252 253 254
-0.041252 -0.276153 0.014997 251 251 252
-0.095143 0.075769 -0.034740 125 127 131
0.220719 0.273296 0.021298 251 253 255
0.151692 0.275298 0.066885 251 252 252
-0.009797 -0.266026 0.008275 250 251 251
0.328529 0.277443 0.047343 255 254 253
-0.080536 0.279399 -0.032496 126 127 134
0.060112 -0.266267 0.060040 252 252 253
0.232722 0.275824 0.042834 255 255 253
-0.074069 0.031466 0.041643 116 132 162
-0.093920 -0.083951 -0.032794 119 134 161
0.350614 0.272191 0.017649 254 254 255
0.049612 -0.266534 0.064493 250 251 251
-0.089410 0.189666 -0.046231 127 131 134
-0.071800 0.263410 0.015486 252 251 253
-0.035793 -0.277513 -0.029021 254 252 254
-0.034826 -0.268058 0.066281 251 254 252
-0.072851 -0.035335 -0.015431 128 130 133
-0.095212 0.094820 -0.070765 128 129 132
-0.093947 0.108951 -0.078436 116 138 173
-0.083261 -0.154743 0.051910 111 147 210
-0.090396 -0.062914 0.019365 114 141 187
-0.063645 -0.075351 -0.012156 129 144 169
-0.018371 0.278095 0.048461 254 254 255
-0.090975 -0.139957 0.020816 116 139 181
-0.076350 0.218106 -0.076689 112 136 183
-0.059250 -0.263544 0.045374 250 250 250
-0.093400 0.241633 -0.063921 126 128 134
-0.091239 -0.267127 -0.002288 126 129 132
-0.066533 -0.090158 -0.039983 131 129 132
-0.059586 0.256219 0.029057 128 131 138
-0.089333 0.194727 -0.005304 113 136 176
-0.081443 -0.281770 0.003230 130 132 137
-0.090050 0.197302 -0.002750 117 141 185
0.129875 -0.267568 0.033808 250 251 253
0.375507 -0.273364 0.018938 255 255 254
0.092992 -0.262819 0.014585 253 254 254
-0.094766 0.082607 -0.025563 125 127 132
-0.094414 -0.143655 0.007567 115 136 175
-0.072260 0.086653 0.011142 128 134 147
0.385166 -0.280860 0.030135 253 255 254
-0.068231 0.160127 -0.030257 128 133 135
-0.093555 0.155234 0.016576 124 150 193
0.104618 -0.276411 0.042500 252 252 254
-0.004063 0.275220 0.055583 171 175 179
0.362022 0.276316 0.040892 252 253 252
0.255086 -0.278082 0.020658 254 252 252
-0.086399 -0.240027 -0.072062 123 128 135
0.211306 0.272752 0.008305 252 253 255
0.059314 0.275972 -0.036558 251 251 253
0.009175 0.272062 0.065723 254 255 255
-0.090986 0.108913 -0.022575 132 133 139
0.089952 -0.276365 0.019924 255 255 255
0.356967 -0.272978 0.048083 252 252 251
-0.079824 0.088928 0.048860 111 137 183
-0.052755 0.264144 0.065068 253 253 252
-0.067336 -0.145082 -0.072068 138 144 157
0.103349 0.272728 0.064751 254 255 255
-0.067696 0.145997 -0.011103 108 147 217
-0.081532 0.104598 0.041925 121 126 138
-0.088988 -0.185576 0.018252 126 127 131
0.237698 0.274045 -0.002920 255 255 255
0.067619 0.269410 -0.023781 254 253 253
-0.078660 0.256186 -0.062692 127 129 134
0.025133 0.279936 0.034814 254 254 252
0.262587 0.281516 -0.002628 253 255 254
-0.048139 0.270962 -0.051648 255 254 253
0.054554 0.280999 0.000050 254 253 252
0.301487 0.283477 0.034503 251 251 254
-0.062669 0.240204 0.044336 126 127 132
0.087953 -0.267477 0.001904 180 183 184
-0.087590 -0.272438 0.029402 128 129 133
0.266561 -0.278531 0.025309 252 251 251
0.250209 -0.280198 0.052239 254 253 253
-0.067830 -0.189623 0.057977 111 134 178
0.009636 0.273388 0.058244 254 252 252
0.263495 0.277911 0.028233 252 253 253
-0.054713 0.263170 -0.035315 252 254 253
-0.020234 -0.270233 0.058730 255 255 254
0.053670 0.280345 0.031443 253 255 255
-0.076358 0.044049 -0.065556 124 130 135
-0.089070 0.214110 0.025871 125 127 132
0.297533 0.275158 0.021474 249 250 251
0.075559 -0.275982 0.013611 254 254 252
0.025690 -0.263404 0.009944 250 252 253
-0.065812 0.233890 -0.074037 120 129 147
-0.092141 0.138499 0.026737 137 140 144
0.024934 -0.277707 0.023307 254 254 252
0.332222 -0.280959 0.033354 252 252 251
-0.090063 0.180069 0.054507 113 147 211
0.226892 0.271612 -0.004750 253 252 254
-0.090687 -0.190797 0.036523 119 132 154
-0.066131 -0.078185 0.048085 131 130 133
-0.089481 0.162841 -0.009618 127 128 131
0.095114 0.280709 0.009904 253 254 255
-0.065520 -0.240286 0.059050 119 136 165
0.219873 -0.269390 -0.012981 251 254 253
-0.011858 -0.275701 -0.028217 248 249 250
-0.093771 0.065324 -0.080396 133 140 152
0.013922 -0.260974 -0.031817 250 250 251
-0.089669 0.051817 0.007665 126 127 131
0.192380 -0.269245 0.062473 252 254 254
-0.092164 0.108946 -0.000680 130 135 140
0.325509 -0.272319 -0.003048 254 253 253
-0.062670 -0.263706 0.020662 252 254 254
-0.096643 -0.175229 -0.076884 126 126 129
-0.057640 -0.264784 -0.036953 253 254 254
-0.064859 0.025720 -0.024106 128 127 132
-0.093543 -0.087871 -0.060153 122 129 142
-0.066066 0.023333 0.020321 128 127 131
0.299038 -0.272754 0.040093 250 252 254
0.371523 -0.278919 0.019032 253 252 251
0.018541 0.279241 0.013883 254 255 255
0.130062 0.269889 0.058571 254 253 254
-0.064997 -0.107586 -0.064589 127 128 132
-0.091346 -0.182271 -0.059843 112 146 207
-0.089426 0.210864 0.020805 124 130 137
0.168318 0.272542 -0.008204 253 253 254
-0.061197 -0.262889 0.054788 254 254 252
0.007307 -0.262071 0.027378 253 252 253
0.085633 0.268074 -0.023277 251 253 252
-0.089379 0.037516 -0.012418 127 127 131
0.084879 0.277819 -0.021995 250 251 251
-0.063898 -0.220067 0.044196 113 135 177
0.022353 0.278909 0.025099 255 255 254
0.011020 0.278917 0.053569 255 255 255
-0.066589 0.133494 0.023753 124 125 129
0.276591 -0.279358 0.049958 254 252 253
0.031526 0.265728 0.038609 253 253 254
-0.089620 0.253522 -0.069711 123 131 147
0.009509 0.263805 0.052789 255 255 255
0.056208 0.280196 0.016687 250 252 252
0.067939 -0.275873 0.039123 253 252 252
-0.092168 0.124878 -0.005516 118 136 167
-0.066065 0.160292 0.000147 112 148 216
0.304599 -0.271872 0.016295 253 254 252
-0.067916 0.230201 -0.073809 127 129 133
0.063681 -0.263868 -0.021330 254 254 254
-0.078287 0.144307 -0.081525 119 150 208
0.089983 -0.269952 0.063842 254 254 254
-0.091767 0.197778 -0.012697 129 130 137
0.278093 0.283017 -0.005144 253 254 252
-0.070187 0.132630 -0.055266 131 134 138
-0.069788 0.184411 -0.022963 119 130 153
-0.087676 -0.232340 -0.033427 126 130 132
-0.090359 -0.118919 -0.082579 132 133 137
0.066434 -0.264084 -0.025063 253 252 252
0.308018 -0.280638 0.002246 251 251 252
-0.075343 -0.112832 -0.087395 113 140 188
-0.090377 0.017719 0.018940 116 147 200
-0.065789 0.186539 0.032574 129 130 133
-0.090322 -0.093140 0.039078 115 135 165
0.226383 0.273795 0.037415 252 254 254
-0.091943 -0.169466 -0.075002 113 141 188
-0.091380 0.146767 -0.010256 126 128 132
0.297439 0.283947 0.017627 253 254 254
-0.062576 0.210192 0.018701 124 128 132
0.245352 -0.269459 0.042042 253 252 254
0.233898 -0.270964 -0.010260 255 255 255
-0.088439 0.214668 -0.054719 129 128 134
0.201594 -0.277589 0.027889 249 250 252
-0.089054 -0.241445 0.042487 118 130 153
0.037939 0.264742 0.052928 255 255 255
0.062208 0.281272 0.020613 251 251 252
-0.064382 -0.206936 -0.045292 128 131 135
-0.095375 0.138665 -0.002490 126 128 132
-0.066618 0.188667 -0.046507 120 133 150
-0.089535 -0.073865 0.000858 129 132 137
0.072542 0.277483 -0.026199 252 253 254
0.002203 -0.263800 0.048564 253 254 254
0.070564 -0.276258 0.018412 252 251 253
0.128965 0.271187 0.054920 253 252 253
-0.067159 0.224823 0.002618 113 145 204
-0.091987 0.208537 0.020840 114 132 167
-0.091145 0.151864 0.050190 138 143 154
0.315084 -0.284003 0.046882 252 251 251
-0.020347 0.265676 -0.033353 255 255 254
-0.091310 -0.150378 -0.019217 127 128 131
0.004367 0.265743 0.061188 253 254 255
0.367673 0.276728 0.021278 253 251 253
0.317615 -0.273242 0.048256 252 253 253
-0.065738 -0.273264 0.060521 253 254 254
0.074839 0.269254 0.041446 253 254 253
0.105665 0.280317 0.036863 252 254 252
-0.092504 0.048138 -0.076476 127 129 136
-0.032080 0.267668 0.047498 181 187 199
0.215890 0.283319 0.031963 249 249 251
-0.021652 0.265747 -0.034915 255 255 254
-0.001356 0.263825 -0.022085 253 253 254
-0.068015 -0.263042 0.046375 118 131 155
-0.036511 0.279070 0.031579 249 250 250
-0.044396 -0.265995 -0.020079 249 251 250
-0.018368 -0.276516 0.022106 252 252 253
-0.064546 -0.132397 0.041854 127 154 202
0.141448 0.280360 0.004752 254 255 254
-0.090614 -0.196825 0.057547 117 133 161
-0.065540 0.029815 -0.014145 115 140 184
-0.061963 -0.039463 -0.024293 126 127 130
0.122427 0.280215 -0.013715 252 253 254
-0.066360 0.177235 0.006311 125 128 132
0.066679 -0.262321 0.026334 251 254 252
0.001522 -0.267084 -0.031560 176 180 183
-0.063045 0.243964 0.050406 118 146 196
0.293055 -0.279295 0.026353 253 254 252
0.249962 0.283886 0.050781 251 251 253
0.089334 -0.265902 -0.022922 249 248 250
-0.036061 -0.265013 -0.011352 250 251 251
-0.013067 0.271062 -0.050313 253 254 254
0.067311 0.282541 -0.018353 254 252 253
-0.089676 0.275970 0.036187 124 127 131
-0.075279 -0.140764 0.043397 129 127 134
-0.062612 -0.243492 -0.063040 110 145 207
0.272721 0.275937 -0.004685 254 254 255
0.161567 0.273941 -0.017334 254 253 254
0.214144 0.283010 0.003527 248 248 249
-0.063077 -0.274656 -0.037677 123 128 137
0.158233 -0.277322 -0.000239 252 252 252
-0.092730 0.190393 -0.016938 125 127 130
-0.068368 0.264753 -0.037274 249 250 251
-0.028806 0.265936 -0.043099 255 255 253
-0.094852 0.138955 -0.035281 116 137 172
0.102634 -0.272008 -0.028880 252 252 253
0.014221 0.269214 -0.015380 252 251 252
-0.066505 0.098380 0.046555 126 128 133
0.220315 -0.268329 0.021784 251 253 251
0.206041 0.282009 0.011670 247 248 249
0.363536 0.276539 0.035127 253 252 252
-0.068146 0.184491 0.001600 118 131 155
0.218332 -0.276194 -0.011811 255 255 255
-0.090035 -0.244480 0.001213 119 132 153
-0.090608 -0.179706 -0.063557 129 130 132
0.107971 0.277084 -0.031622 253 254 253
-0.088581 0.168283 0.038674 116 143 190
0.170866 -0.268497 0.027345 254 255 255
-0.068605 0.076162 -0.071011 125 127 131
-0.089090 0.171683 0.022188 116 135 173
0.020858 -0.265692 0.064130 254 255 255
0.114890 -0.276851 -0.000982 251 251 253
0.005367 0.264567 0.052669 254 254 255
0.001190 -0.264642 0.020669 252 252 252
-0.078325 -0.128356 0.049090 133 134 140
-0.087379 0.270778 0.025215 112 142 194
-0.090737 0.204022 0.035296 113 147 207
-0.058113 0.260381 -0.005820 252 252 254
0.034313 0.266823 -0.029332 255 254 253
-0.091332 -0.227193 0.030691 128 131 136
-0.089060 0.220058 -0.045462 128 130 133
0.179415 0.272288 -0.009395 254 253 252
0.126725 -0.277369 0.007040 251 252 254
-0.093849 0.181211 0.005832 117 138 173
0.138033 -0.277240 0.026170 255 254 253
-0.081817 0.074327 0.044841 112 131 166
0.157347 0.271943 0.033120 251 251 253
-0.091849 0.062748 -0.040265 128 132 137
-0.058382 -0.266612 -0.039056 249 250 251
-0.091086 -0.225735 -0.008199 120 133 159
-0.070736 0.160667 0.053654 131 132 136
0.060827 0.266366 -0.008760 255 255 255
0.360478 -0.272763 0.020738 253 253 253
0.102760 -0.277565 -0.024200 254 253 255
-0.068008 0.192454 -0.069228 136 140 149
-0.066169 -0.265255 -0.044755 253 253 252
0.247367 0.271626 0.034177 254 254 252
0.038413 -0.279756 0.044373 184 187 190
-0.064983 0.255928 -0.052731 123 127 134
0.260960 -0.274834 -0.005263 250 250 252
-0.004189 -0.264742 0.018143 249 250 253
-0.065593 -0.148272 -0.035720 115 131 163
0.238906 0.272628 0.032863 253 253 254
-0.064984 -0.153600 -0.061665 125 128 132
-0.064838 0.272734 -0.038615 116 135 170
0.023593 0.268877 -0.027764 251 251 252
0.286078 -0.281680 -0.001069 250 250 253
-0.072282 0.142152 -0.055878 130 132 135
0.087422 0.268205 0.033667 254 254 255
-0.066276 0.174605 0.057944 136 139 143
-0.069737 0.086063 -0.076738 129 133 139
-0.078894 -0.273605 -0.048536 126 133 144
-0.083610 0.225287 0.062269 123 129 145
-0.054808 -0.272561 0.049191 251 253 252
-0.062630 -0.279233 -0.040634 124 125 129
-0.067447 -0.040878 0.008451 128 130 136
0.129137 0.277768 0.061876 253 254 254
-0.067482 0.156075 -0.030566 129 130 134
0.028041 -0.264043 0.026740 253 253 252
0.363436 0.280908 -0.000827 254 255 254
0.025851 0.279679 0.044640 248 249 251
-0.088245 0.184753 0.045116 125 128 131
-0.065757 -0.059947 0.009757 130 131 134
0.152688 -0.277462 -0.012691 253 254 255
-0.067262 -0.127786 0.021447 113 149 212
-0.062492 0.174412 0.033269 129 129 132
-0.092985 -0.079882 0.033159 126 130 132
-0.066682 0.204238 0.031066 123 133 153
0.100985 0.280554 0.009176 251 254 252
0.367735 0.283630 0.013086 251 253 252
0.101660 0.270293 0.006472 254 254 255
0.298292 0.284772 0.006212 254 253 253
-0.064654 0.064311 0.037764 112 143 196
-0.026308 0.278017 0.057613 255 254 253
-0.092649 -0.204824 -0.050691 137 140 145
-0.066229 -0.202238 -0.073490 131 129 135
-0.093819 -0.190728 0.016573 131 130 134
0.236741 0.277861 0.065106 252 251 252
-0.059913 -0.274081 0.016852 109 138 188
-0.083230 -0.280591 0.024621 130 133 138
0.227274 -0.277306 0.002956 253 252 252
-0.085974 0.023955 0.003481 132 136 140
-0.057265 -0.278036 0.045889 253 254 254
0.245666 0.276233 -0.008461 254 253 254
-0.053832 -0.264888 0.030714 249 250 250
0.157648 -0.267978 0.043274 253 253 252
0.003257 0.265780 0.053489 255 255 255
0.128506 -0.277160 0.003147 250 251 252
-0.068450 0.274391 -0.027122 113 135 171
0.148400 -0.278355 0.032330 255 255 255
-0.046344 -0.261351 -0.042670 254 252 252
-0.002744 -0.275424 -0.020801 252 251 251
-0.088021 0.235424 0.054677 116 136 170
-0.091453 0.087037 -0.039139 114 134 169
0.198019 -0.277671 0.007480 253 252 253
0.262129 0.285259 0.044613 254 253 255
-0.091125 -0.121356 -0.059575 127 128 131
0.164511 0.281688 0.048598 253 252 254
-0.046615 0.274219 0.018453 251 252 253
-0.094282 -0.162136 -0.084754 120 130 147
-0.028623 0.265367 0.044128 250 251 251
-0.091322 0.161825 0.009417 126 133 139
-0.046830 0.264278 0.010488 253 252 253
-0.065737 -0.078625 -0.005141 127 127 130
0.224422 -0.278267 0.046839 252 251 251
-0.088658 -0.204685 0.048792 127 131 132
-0.075670 0.199516 0.038618 130 130 134
0.170797 0.267140 0.018927 255 255 253
0.243743 0.279533 0.067898 252 251 253
-0.090778 -0.158483 -0.037191 128 131 133
0.014930 0.278839 0.004661 253 255 255
-0.022702 0.274268 -0.042181 251 253 253
0.094564 -0.265956 0.001353 250 252 251
-0.053658 -0.262399 -0.026588 251 254 253
-0.090541 -0.159730 0.019682 116 132 161
-0.066442 0.032793 0.009353 115 146 201
-0.087120 0.063901 -0.079804 127 131 141
0.270876 -0.280147 0.057174 254 252 254
-0.079403 0.130529 0.050353 128 132 133
-0.069853 -0.069049 -0.067446 129 130 132
-0.068934 -0.203068 0.063514 128 129 133
0.187574 -0.276569 0.035466 252 251 253
0.107998 -0.267408 -0.005338 251 252 253
-0.073560 -0.049357 -0.029379 114 148 207
0.048836 -0.266238 0.065016 254 254 253
0.307195 0.283508 0.032658 253 252 253
0.124081 -0.267254 0.034712 254 254 254
-0.064495 -0.168259 0.004744 128 129 132
-0.069917 -0.235994 -0.076897 128 131 133
-0.091825 0.104918 -0.040109 130 134 140
-0.059547 -0.264349 0.046521 252 252 252
-0.061269 0.276552 -0.033421 129 134 145
0.360656 -0.273057 0.019641 255 255 255
0.238340 -0.278636 0.006379 252 252 253
-0.041547 0.276518 0.026474 252 253 254
0.024626 0.280217 0.029938 253 255 255
0.060818 0.274639 0.060934 255 253 254
-0.068474 0.107166 -0.072903 127 127 132
0.030625 0.274479 0.054159 253 253 252
0.193633 0.273105 0.008172 250 251 252
0.260067 -0.278743 0.018121 254 255 254
-0.070638 0.123728 -0.009291 112 135 175
-0.082627 0.141761 -0.081375 114 133 173
0.244693 -0.277796 0.025393 252 251 253
0.185552 0.281891 0.034576 252 251 252
-0.070622 -0.270618 -0.014372 252 252 253
0.008114 -0.277928 0.042127 252 253 254
0.064245 -0.277204 0.048157 253 254 253
-0.089369 0.246718 0.015927 110 142 196
0.360757 -0.272436 0.006477 251 252 252
-0.092711 -0.121859 0.026272 112 144 197
-0.090200 0.221913 -0.036280 109 141 196
0.231577 -0.275613 -0.000486 254 254 254
-0.068256 -0.181693 0.057450 112 144 202
-0.067456 0.172566 0.004812 117 133 161
-0.091979 -0.193305 0.025177 129 130 137
0.065628 -0.275901 0.062463 250 251 251
-0.097563 -0.124132 -0.007805 128 129 132
-0.082950 0.077919 0.045129 129 129 133
-0.035594 0.268160 -0.042572 254 253 255
-0.091284 -0.245801 -0.053484 117 140 178
0.212490 0.277373 -0.008863 253 253 253
-0.026340 -0.276167 0.006920 251 251 253
-0.089289 -0.170611 0.021735 132 135 140
-0.065088 -0.232538 -0.003953 114 136 177
-0.071619 0.206173 0.059906 131 132 137
-0.065191 -0.039873 0.002988 126 126 130
0.091190 -0.264855 0.030207 254 251 252
