ply
format ascii 1.0
element vertex 1179
property float x
property float y
property float z
property uchar red
property uchar green
property uchar blue
end_header
0.134610 0.270113 0.046217 254 254 253
-0.042183 0.261532 0.013347 254 254 254
0.035830 -0.277016 0.032283 254 253 254
0.369361 -0.269746 -0.003228 253 255 254
0.096682 0.275070 0.066824 254 254 254
-0.098345 -0.215513 -0.070190 106 151 229
-0.093439 -0.210962 0.030702 111 132 172
0.224998 0.273168 0.029013 252 253 255
-0.097677 -0.199582 0.057858 116 141 184
-0.093343 -0.285077 -0.029378 126 130 136
0.209893 -0.269367 0.042098 253 254 255
0.048528 -0.277957 0.036979 255 255 254
0.023500 -0.265769 0.022145 251 251 251
0.264692 -0.279202 0.001636 254 254 255
-0.020092 -0.276027 -0.040513 253 254 254
0.058432 -0.265960 -0.000010 254 252 254
-0.097870 0.111907 -0.046333 144 148 154
-0.038717 0.278258 0.009249 253 253 254
0.094938 -0.278213 -0.018193 252 253 253
-0.097274 0.221323 -0.063099 135 137 142
0.003345 -0.265917 0.065705 253 255 253
0.217143 0.273149 0.025109 253 254 254
-0.079436 -0.136888 0.051177 109 149 220
-0.093750 -0.098970 -0.083857 108 141 203
-0.093652 0.253851 0.027089 135 138 143
0.093111 0.265995 0.033237 254 254 252
-0.074533 0.075827 0.031119 132 139 146
-0.072673 0.118302 0.037352 105 148 226
-0.099365 0.178181 0.047711 108 140 198
-0.072366 -0.034673 -0.008435 129 131 140
-0.093492 -0.279975 0.006512 108 136 187
0.057266 -0.276895 -0.012027 253 254 255
0.252320 0.283772 0.021214 255 255 254
0.195432 0.271836 0.007975 252 253 254
-0.088208 0.012540 0.015105 106 145 213
0.031127 0.275327 0.062855 253 253 253
0.000011 -0.266580 -0.000261 253 253 254
-0.026429 -0.265426 -0.020809 253 252 252
-0.099655 -0.158561 0.008406 109 139 197
0.088486 -0.264243 0.064937 253 252 253
0.032746 -0.266051 0.041003 251 252 252
0.048440 0.276790 0.062977 253 254 254
-0.033949 -0.266092 -0.032844 182 184 190
0.007152 0.280135 0.017500 251 252 252
-0.096104 -0.206171 0.058294 112 135 175
-0.097778 0.186134 -0.077977 126 134 145
0.090880 -0.266633 0.015090 253 253 253
0.135220 0.280302 0.007471 254 253 252
-0.067731 -0.271919 0.018711 255 253 255
-0.089657 -0.102613 -0.083869 110 145 210
0.043120 -0.273066 -0.020214 253 253 254
-0.075795 0.167732 -0.057165 119 133 158
-0.009628 -0.268717 -0.040829 254 253 252
0.319955 -0.277172 0.024621 251 252 252
-0.009188 -0.266107 -0.025203 255 255 255
-0.068991 -0.049136 -0.010426 126 127 131
-0.099172 -0.212412 -0.077636 117 134 163
-0.057354 0.262641 0.060537 252 254 254
0.026472 0.276355 -0.025741 254 252 254
-0.082297 0.111404 -0.086671 127 131 141
-0.053568 0.275980 0.021512 253 254 252
-0.067973 -0.128190 0.046323 129 129 136
-0.099056 0.249727 -0.023933 134 131 135
0.241093 -0.277589 0.000133 254 255 255
0.304930 -0.279253 0.049919 252 253 254
-0.097908 -0.228794 -0.031748 112 135 178
-0.075465 0.093289 -0.008881 108 142 207
-0.095743 -0.097808 -0.007425 128 131 137
-0.009661 0.277290 0.037458 255 254 253
-0.031720 0.265440 -0.045043 253 253 254
-0.072965 0.246410 0.003007 129 132 135
-0.098045 0.044994 -0.065693 108 144 208
-0.095757 0.175971 0.026642 110 139 188
-0.037323 -0.265772 0.011105 253 255 252
-0.064158 -0.264355 -0.000371 251 252 253
0.298506 0.278949 0.062406 252 252 254
-0.079261 0.277892 -0.041800 135 138 144
0.014658 0.267093 -0.007137 254 254 254
0.150542 0.268983 0.065674 255 253 254
-0.075837 0.174841 -0.031600 131 133 137
0.080410 -0.278538 -0.003347 254 253 255
-0.070526 -0.212113 -0.014387 112 143 202
-0.070262 0.086607 0.031020 114 139 184
-0.053009 0.276163 0.029590 255 253 255
0.200848 -0.280027 0.028727 255 254 254
-0.076530 -0.269355 -0.016920 253 253 254
0.221838 0.274988 0.027614 254 254 254
-0.013973 0.265971 0.008294 255 255 255
-0.073804 -0.207888 -0.049832 111 143 198
0.104779 -0.276677 0.055387 253 254 253
-0.073051 -0.237797 0.006825 129 141 157
-0.073482 -0.225423 -0.020283 108 150 226
-0.035523 -0.266805 0.001172 252 253 253
-0.072610 0.222865 -0.072849 114 133 168
-0.094059 -0.201717 0.007660 109 143 206
0.252725 -0.276363 0.041251 255 255 255
-0.081971 -0.148882 0.052527 130 132 139
0.100434 0.280114 0.046885 255 255 253
-0.074634 0.185055 0.019899 110 145 208
0.078581 0.269580 0.064522 253 252 254
0.012591 -0.277316 -0.014840 254 254 253
-0.072409 -0.102569 -0.038071 108 149 226
-0.034366 0.277719 -0.018116 255 255 253
0.126173 -0.266096 0.054741 255 255 255
0.002332 0.265819 0.031582 254 255 255
0.379266 -0.276563 0.050520 252 252 253
-0.095115 -0.197533 -0.015929 132 136 140
0.102086 0.282121 0.024484 249 250 251
-0.060267 -0.280700 -0.001514 255 255 253
-0.077767 0.015814 0.006733 112 132 169
-0.097996 -0.082311 -0.070499 109 142 205
-0.074343 -0.256194 0.051704 107 145 211
-0.096169 -0.103050 -0.030699 109 135 182
0.205320 -0.265872 0.048854 253 255 252
-0.099883 0.046354 0.003451 118 144 191
0.329630 -0.273474 0.038985 252 253 255
0.363324 0.276668 0.055424 255 252 253
0.337049 -0.266571 0.037386 252 252 253
-0.086414 -0.050906 0.035906 126 140 163
-0.100388 0.098878 0.028206 114 148 211
-0.070051 -0.239040 -0.030308 129 130 134
-0.073709 -0.060282 -0.006271 110 144 208
-0.086946 0.133614 0.047460 107 138 196
-0.006013 -0.278081 -0.006821 254 253 255
-0.072141 0.167312 -0.027928 106 147 223
0.236397 0.283213 0.056876 251 251 252
-0.071339 -0.051004 -0.034875 112 140 186
-0.075541 0.216497 -0.012066 105 140 201
0.049440 -0.277201 0.028931 254 253 254
-0.096008 0.143044 -0.020922 106 141 206
-0.006340 -0.266785 0.010600 254 254 254
-0.011044 0.264090 0.062762 254 253 254
-0.076132 0.087764 0.000697 106 150 227
-0.098564 0.029536 0.025794 114 140 186
0.137519 -0.273814 0.062261 252 253 252
0.013497 0.266775 0.017441 253 254 255
-0.046114 0.263239 -0.020481 253 253 254
0.026249 0.279787 0.057488 253 255 255
0.020185 0.266134 0.028000 254 255 255
0.042930 0.280012 -0.037800 253 253 254
-0.074586 0.267403 -0.020252 254 253 254
-0.007950 0.264940 0.052660 251 252 253
-0.099979 0.150767 -0.020885 107 147 217
-0.088189 -0.064715 -0.071239 107 147 221
0.171947 0.281587 0.027630 253 255 255
-0.076252 0.092351 -0.013318 105 144 214
0.148052 0.269934 -0.015759 253 253 255
-0.070629 -0.252728 0.036209 112 143 196
-0.073147 -0.095756 -0.004001 126 137 157
-0.081595 0.274011 -0.006473 106 142 209
0.002937 -0.262065 -0.005060 250 250 251
-0.083914 -0.040756 -0.029708 127 129 133
0.265049 -0.276560 0.036510 253 254 252
-0.074976 0.100995 -0.029166 131 133 139
0.139848 0.268884 0.064070 255 255 255
-0.029046 -0.266884 0.000498 254 254 252
-0.093886 -0.083306 0.012398 111 139 190
0.061678 -0.266657 0.000722 253 253 255
0.268885 -0.276952 0.000587 253 255 255
0.013899 -0.274019 -0.038935 253 252 253
-0.071329 0.217751 -0.042216 104 141 211
0.154937 -0.274776 0.062129 254 254 255
0.216281 0.282431 0.038571 255 255 255
-0.072330 -0.238076 -0.063329 127 130 134
0.044136 0.266859 0.032035 252 253 253
-0.080730 0.014043 -0.014261 131 134 144
0.321569 0.283980 -0.003738 249 250 251
-0.071357 -0.241856 -0.019117 130 131 135
-0.068729 0.261280 -0.000388 252 251 254
-0.036044 -0.275355 -0.042440 253 254 253
0.129943 -0.276012 0.050646 252 255 252
0.285422 0.283719 0.055372 254 254 255
-0.097394 0.092995 0.041060 108 145 210
-0.070627 0.225065 -0.060614 108 141 202
0.112023 0.270309 0.006643 255 255 252
-0.094283 -0.287125 -0.031853 123 129 141
0.027852 -0.265394 -0.004946 253 252 253
-0.092965 0.242298 0.003410 110 134 175
-0.070055 -0.219810 -0.033339 107 138 193
-0.071556 -0.185352 -0.057655 130 132 136
0.344220 0.284760 0.009908 253 255 255
0.052860 0.269059 0.023786 255 254 255
-0.075452 0.109565 -0.002845 105 138 202
-0.006282 0.279056 -0.005753 252 254 253
0.359305 0.283025 0.012228 252 252 253
-0.071509 0.145476 0.040032 111 137 180
-0.034398 -0.277683 0.006155 253 254 254
-0.068656 -0.244635 0.061326 172 184 201
-0.073989 0.047013 -0.016219 114 130 159
-0.073385 0.024706 -0.025976 107 150 228
0.072735 -0.279117 0.019059 254 253 254
0.069203 -0.278096 0.028048 253 252 253
-0.072546 -0.105870 -0.004808 107 139 197
0.281235 0.273002 0.026385 251 252 253
0.079453 0.281820 0.038988 255 255 255
-0.044051 0.262380 0.014446 252 252 253
0.129985 0.280336 0.020361 251 252 252
-0.074943 0.108492 0.021891 109 144 212
-0.032431 -0.278152 -0.027471 252 252 253
-0.095282 -0.133115 0.025925 111 140 195
-0.076073 0.221926 -0.018914 137 141 147
0.224443 -0.267305 0.042410 253 253 253
-0.072970 -0.265916 -0.026437 107 138 194
0.005609 -0.279818 -0.012054 251 252 252
-0.072538 0.268561 0.005288 110 144 204
-0.006028 0.277246 0.045947 255 255 255
-0.099101 0.179968 -0.081661 107 145 216
0.191013 0.280146 0.035837 252 253 253
0.187389 -0.266806 -0.005845 254 255 254
0.081544 -0.266899 0.034393 252 253 254
-0.096989 -0.244346 -0.063671 112 140 191
0.285485 -0.267769 0.037707 253 255 254
-0.094992 -0.211082 -0.078017 129 133 135
-0.073085 -0.109368 -0.034889 113 138 184
0.313568 0.274586 0.001381 250 250 252
-0.044620 -0.265470 -0.028380 253 255 255
-0.076213 0.201664 0.019755 105 144 211
0.010284 -0.265948 -0.008312 250 251 252
0.087446 -0.266892 0.023917 253 255 254
-0.069135 0.265694 -0.012958 255 255 253
-0.068040 -0.219658 0.049096 143 152 170
-0.071300 -0.075341 0.031631 109 138 194
-0.069933 -0.208771 0.037201 146 164 192
-0.095751 0.257364 0.010055 146 150 157
0.136948 -0.278024 0.003092 255 255 254
-0.072822 -0.275475 -0.015236 114 137 179
-0.072523 -0.222492 -0.018544 107 138 191
0.259474 -0.276343 0.032811 254 255 254
-0.097312 0.212388 0.001075 111 140 193
-0.075655 0.155483 -0.054489 109 143 208
-0.067287 0.274509 0.043076 251 252 253
0.092463 0.281005 -0.014052 255 254 254
0.010136 -0.278825 -0.037019 253 253 253
-0.065570 0.262321 0.047585 252 252 253
-0.071888 0.016846 0.016712 106 141 209
-0.070638 0.166501 0.043553 110 140 189
-0.096057 0.197147 0.053505 130 129 134
0.229274 0.283145 0.003200 254 254 253
0.083933 0.280887 0.003346 252 252 252
-0.068810 0.249862 -0.011002 129 132 134
0.266303 0.283051 0.013764 253 253 255
-0.074477 0.106365 -0.087343 134 136 141
-0.076332 0.084820 -0.034130 107 141 201
0.068875 0.280693 0.014932 253 255 255
0.052036 0.267874 0.005630 254 255 255
-0.073539 0.041622 -0.063228 131 133 137
0.074215 0.281046 -0.005357 253 252 253
-0.076399 -0.171094 -0.088023 129 129 134
-0.095237 0.073422 0.034753 107 133 179
-0.096663 0.087059 -0.005566 126 132 143
-0.090170 -0.283673 -0.040996 132 134 136
-0.073980 -0.193905 -0.086092 124 132 140
-0.097020 0.118468 -0.027647 108 135 183
-0.020899 0.277805 0.027438 253 253 254
0.001054 -0.277510 -0.028862 252 251 251
0.027094 0.266679 -0.012185 253 253 254
0.071135 -0.277581 0.024404 252 253 253
0.047873 0.278745 0.065110 255 254 255
0.014301 -0.277955 -0.024082 250 251 252
-0.096134 0.251110 0.000784 110 132 169
0.282469 -0.277892 0.002614 254 254 253
-0.094416 -0.247622 0.043067 130 132 136
-0.098307 0.033433 -0.022233 129 131 134
-0.070040 -0.146929 0.048397 130 130 136
-0.096129 -0.156695 -0.006222 128 131 133
-0.100075 0.128480 -0.070450 108 146 213
-0.096708 0.073596 -0.084072 107 150 229
-0.073073 0.252146 -0.023286 110 131 170
-0.100340 0.098698 -0.024945 108 136 185
-0.072674 0.263761 -0.050692 134 136 141
0.180949 0.282005 0.014050 255 254 254
0.028091 -0.266456 0.033500 253 254 252
-0.069518 -0.280594 0.002395 253 254 253
-0.084862 0.045069 -0.073892 107 145 218
0.078240 -0.266524 0.016521 253 254 255
-0.096786 0.208939 -0.038221 106 145 215
-0.072670 0.094958 0.007203 108 149 224
-0.069807 -0.049887 -0.015377 130 131 134
0.312768 -0.279005 0.049973 252 254 253
-0.056602 0.275983 0.034097 252 253 254
0.033430 -0.268091 -0.035250 253 252 252
-0.066913 0.270262 -0.032131 254 255 254
0.133681 -0.266904 0.031325 253 255 254
0.013445 0.264604 -0.039983 254 255 253
-0.063634 -0.265086 0.062531 252 253 254
-0.092744 -0.266866 0.004836 106 149 223
-0.100824 0.116295 -0.008583 109 150 222
0.210344 0.285615 -0.005987 254 255 255
-0.089898 0.256817 -0.067598 127 131 135
0.211754 0.282725 0.026717 255 254 255
-0.073577 0.189335 -0.084254 108 135 184
0.281798 -0.267432 0.014745 254 255 254
0.049570 -0.266632 0.028124 255 254 253
-0.010021 0.263429 -0.035563 254 255 253
0.233824 0.273480 0.045376 254 255 255
-0.073787 -0.134644 0.010287 108 151 228
-0.072423 0.155353 0.017399 116 133 157
-0.018381 -0.277118 0.058611 250 250 251
0.196443 0.282086 0.010220 255 255 255
-0.070185 -0.163797 0.006560 139 142 147
-0.099231 -0.218667 -0.066422 107 140 201
0.023590 0.271830 -0.039959 252 253 254
-0.005616 0.267807 -0.043090 254 253 254
-0.076800 0.218315 0.057887 106 139 199
-0.031723 0.277323 -0.014496 251 251 252
0.053981 -0.266384 0.014768 254 253 254
-0.096414 0.159084 0.012488 131 135 138
-0.069887 0.261045 -0.005495 118 130 148
-0.094139 0.227044 0.057559 133 135 141
0.373516 -0.280807 0.053679 255 255 253
0.046362 -0.265449 -0.021600 253 253 254
0.246115 -0.279173 0.055303 252 254 252
0.325706 -0.277503 0.007086 255 255 255
0.150695 -0.270370 -0.023194 253 252 252
0.070083 0.280882 0.023697 253 253 254
0.226778 -0.277437 -0.001794 253 255 252
-0.079374 -0.273671 -0.000778 127 131 135
-0.097429 0.182947 -0.026617 113 134 176
0.278682 0.285408 0.044127 253 252 253
-0.087735 0.063223 0.045301 122 131 147
0.217000 -0.277108 -0.007126 253 253 252
-0.094791 0.215538 -0.040822 132 133 138
-0.098036 0.258565 0.018326 115 132 163
-0.052963 0.277072 -0.001662 250 250 251
0.021175 0.267306 -0.008132 255 255 255
0.003975 0.281428 0.044743 253 253 255
0.277995 -0.277052 0.052296 252 253 253
0.353085 -0.278424 0.003236 255 255 255
0.078843 -0.266945 0.028675 253 252 254
-0.082164 -0.038592 0.016750 111 139 185
0.161875 -0.276732 0.056181 254 253 252
-0.010604 -0.279073 0.008957 253 254 254
-0.018668 -0.266744 -0.026704 254 255 255
-0.075800 0.132492 -0.008743 106 148 223
-0.056044 0.262558 0.015257 252 253 255
0.310460 0.275322 0.030049 253 252 253
0.330844 -0.273460 0.053838 254 254 253
-0.096102 0.136697 -0.052515 106 138 200
0.020103 -0.265650 0.009175 253 253 252
-0.022137 -0.278202 -0.001172 253 253 253
-0.076338 0.094007 -0.050631 111 135 180
-0.083180 -0.279085 -0.021097 112 139 191
0.076477 0.280963 -0.009859 255 255 254
-0.073371 -0.180730 -0.072201 127 129 133
-0.070450 -0.067134 0.034653 129 132 135
0.308422 0.274546 0.029245 252 251 253
-0.071636 -0.197573 0.007132 109 135 184
-0.074682 0.185303 0.029122 133 137 141
0.226853 -0.273290 -0.001402 252 252 252
-0.076891 0.056454 -0.069715 129 140 157
0.319493 0.283792 0.018891 254 255 255
0.079380 -0.267243 0.003706 253 254 253
-0.076376 0.219355 -0.057831 106 136 192
0.182107 0.282751 0.035746 254 254 255
-0.072392 -0.229576 -0.011423 130 133 137
-0.059267 0.265047 -0.039676 252 253 253
0.260271 0.286134 0.057195 255 253 254
-0.069525 0.134348 0.044570 106 140 200
-0.089314 0.145043 0.050784 109 138 193
-0.077967 0.269476 0.046436 254 255 253
0.164698 -0.275693 -0.006974 253 254 253
-0.074746 -0.278976 0.034806 254 254 253
0.376548 -0.275444 0.001648 253 253 252
-0.092748 -0.214021 0.039766 121 131 153
-0.096949 0.191248 -0.046631 128 129 133
0.316788 -0.268004 0.027113 253 254 252
-0.097874 -0.057946 -0.039640 114 140 183
0.171004 -0.266793 0.048613 252 252 252
-0.089016 -0.141310 -0.087042 109 134 178
0.384667 -0.267537 0.043851 252 255 253
0.258294 0.276209 0.046845 255 253 253
-0.070286 -0.257152 0.043794 143 148 149
-0.054354 -0.278451 0.049838 253 253 253
0.212645 0.271701 0.058402 254 255 254
-0.009093 -0.281282 -0.039112 255 255 254
-0.083355 0.165557 0.048150 105 145 218
-0.089757 -0.259678 0.047188 118 140 180
-0.076315 0.273764 0.035896 129 131 135
0.262937 0.283637 0.019817 254 255 255
-0.073134 0.043796 -0.002294 113 140 187
-0.072125 -0.117240 -0.036716 109 149 225
-0.094626 -0.116408 -0.068894 106 138 197
0.284822 0.276068 0.058310 254 253 254
-0.074272 -0.101399 0.004356 105 140 202
-0.084026 0.266915 -0.058110 110 133 176
0.213160 0.273291 -0.004080 253 252 252
-0.013265 -0.267175 0.026431 253 253 253
-0.057725 -0.280162 -0.014144 253 254 253
-0.078541 0.169211 -0.082626 130 133 135
-0.068868 0.207117 0.058607 129 130 137
-0.075231 -0.098226 -0.034243 106 148 227
-0.093603 -0.130406 -0.085162 126 127 132
-0.060290 0.275355 0.035263 252 253 254
0.022613 0.266949 -0.025571 253 255 253
0.106757 0.279667 0.049874 254 255 255
0.260177 -0.266598 0.054662 251 251 252
-0.098796 -0.131354 -0.033908 113 140 188
0.014684 -0.264730 0.057518 254 254 252
-0.076087 0.168171 -0.057743 108 142 209
0.174760 0.281770 0.034592 254 255 255
-0.070552 -0.048356 -0.035205 116 130 156
-0.017274 0.277557 -0.023767 255 254 254
0.029527 -0.277009 0.025247 251 252 252
-0.067827 -0.264556 0.043139 108 134 179
0.144411 -0.279194 0.010989 247 245 249
-0.096992 -0.134856 -0.014112 110 134 181
0.113789 0.280916 0.055594 254 252 252
-0.074353 -0.222323 0.006428 106 136 190
-0.093342 0.273242 0.028874 131 132 137
-0.095007 0.038600 -0.036631 109 151 229
0.200897 0.272006 -0.000977 251 253 252
-0.078734 -0.080952 0.041272 124 129 139
-0.030610 0.277308 -0.000752 251 252 252
-0.070388 -0.096377 -0.074846 132 132 136
0.230416 0.283781 0.013378 252 252 254
-0.066717 0.265491 0.033839 128 132 140
0.094927 0.280893 -0.011025 254 254 255
-0.098829 0.049225 -0.063077 110 139 187
-0.040895 -0.278822 -0.037405 255 255 253
-0.037004 -0.277550 0.005664 254 254 254
0.109510 -0.266538 0.011640 252 254 252
-0.093968 -0.098617 -0.085468 106 142 209
-0.101031 0.114571 -0.077780 111 142 196
0.006672 -0.266790 -0.033546 254 254 254
-0.094691 -0.185026 0.036752 109 140 194
-0.102692 0.163713 -0.068173 130 130 136
-0.062519 0.276971 0.026562 253 255 252
0.296613 0.279685 0.000886 250 251 251
-0.072743 0.273105 -0.053566 124 133 147
-0.093720 0.120292 0.017213 107 150 227
-0.095510 -0.186934 0.020706 109 138 191
-0.058255 0.276566 0.062764 252 252 253
0.133131 0.280497 0.021887 255 254 255
0.198436 -0.267164 0.034462 253 254 253
-0.074879 -0.279045 0.015190 110 140 197
-0.099362 0.200858 -0.049256 132 135 138
-0.078883 0.071413 0.044924 114 140 186
-0.069853 -0.223177 0.055170 128 130 135
-0.068598 -0.158524 -0.052483 105 145 213
0.046813 -0.266171 0.017407 252 254 254
-0.034233 0.276362 0.021184 255 254 254
0.259148 -0.277104 0.061348 255 255 254
0.003589 0.278582 -0.029991 253 252 254
-0.098800 -0.131919 -0.043011 135 137 140
-0.092472 -0.065890 0.015286 129 131 136
0.208538 0.271916 0.002288 254 254 252
0.231246 0.283106 0.039806 255 254 255
-0.091399 0.013160 0.023519 108 137 194
0.135827 0.277958 -0.022666 254 254 255
0.253512 0.273745 0.010065 255 254 255
0.046151 -0.264293 -0.017093 251 251 252
0.138693 -0.278438 -0.013489 252 252 253
0.163679 -0.267163 0.010411 254 252 254
0.099653 -0.272322 0.000492 254 254 252
0.291906 -0.275018 0.055645 253 252 254
-0.062847 -0.278737 0.062462 253 253 254
-0.074778 0.162059 0.023502 131 133 137
-0.073252 -0.266195 0.046340 128 131 134
0.066115 0.283384 0.062684 252 252 252
0.003496 0.277892 0.028018 254 254 254
0.170123 -0.276251 0.024502 251 252 252
-0.085843 -0.055298 -0.065223 108 149 224
0.192235 0.275265 0.063551 252 252 254
-0.095216 0.100239 0.004089 109 136 184
-0.071643 -0.174030 -0.083326 126 133 140
-0.075781 0.102876 0.009148 129 132 136
-0.017117 0.264116 0.046555 252 253 253
-0.088840 -0.276394 0.016860 108 150 224
0.177176 -0.277495 0.059866 252 253 253
-0.025712 0.263123 -0.024749 253 255 253
-0.081973 -0.280637 -0.006551 111 137 183
-0.065710 0.259268 0.053166 161 166 171
-0.095494 -0.250475 0.024519 117 136 171
-0.073821 0.183440 -0.048175 129 132 135
-0.071164 0.185895 -0.067092 108 142 202
0.029323 -0.277118 -0.030460 253 253 253
-0.093282 -0.218054 0.006315 111 136 185
-0.075002 0.161663 -0.054057 108 150 227
0.386644 -0.270710 0.022112 255 255 254
-0.070137 0.267340 -0.041626 252 252 253
-0.053253 0.278412 0.066352 254 254 254
-0.094217 -0.266749 0.035812 112 147 210
-0.096227 -0.207784 0.056934 129 130 135
-0.092457 -0.061892 -0.002370 131 131 136
0.137753 0.269213 0.057613 254 252 253
-0.071457 0.084606 0.046475 134 136 141
-0.085070 -0.083478 0.044131 132 132 135
-0.099484 0.158369 -0.048280 108 144 209
0.104479 -0.276594 0.038941 252 254 253
0.277643 -0.276668 0.030693 253 252 252
-0.095277 0.041571 0.009372 127 128 132
-0.071232 -0.168175 0.021490 117 132 161
0.032585 0.279459 -0.036989 254 254 253
0.149313 -0.270509 -0.022781 253 254 254
-0.095786 -0.146269 -0.032935 112 139 188
-0.075048 0.078087 -0.003158 132 138 149
-0.018542 -0.264622 -0.030908 255 254 255
-0.070790 -0.272879 -0.024261 127 129 135
-0.072004 -0.085384 -0.054821 126 128 132
-0.073622 -0.276889 -0.040662 253 255 255
0.078506 -0.278209 -0.007125 251 251 251
-0.067314 -0.269361 0.017431 252 254 254
-0.044495 -0.265864 0.047275 255 254 253
0.345366 -0.279445 0.007537 253 253 254
-0.000141 0.277977 0.010300 254 254 254
0.179784 -0.274835 -0.011325 254 255 253
0.299090 0.280384 -0.003675 255 255 255
-0.074612 0.184877 -0.024788 106 138 197
0.069676 0.280916 -0.019978 253 254 254
-0.075291 0.148197 0.014413 131 131 138
0.323112 0.283476 0.056036 255 255 255
0.063045 -0.278135 -0.016482 254 255 255
-0.090882 -0.241612 0.058202 119 131 158
-0.068736 -0.149834 -0.062198 109 134 180
0.117248 0.272941 0.063444 253 253 254
0.181614 -0.276700 -0.009947 252 253 252
-0.004837 0.269251 -0.041988 255 254 254
0.120117 -0.266787 0.035207 252 254 255
-0.096756 -0.190919 -0.003380 131 131 135
0.113025 0.267923 0.065725 255 255 254
-0.072765 0.106008 -0.039719 108 141 202
-0.002080 -0.264184 0.065263 255 254 253
-0.074254 0.140008 -0.085637 128 128 133
-0.005910 0.265571 0.047650 254 253 253
0.059565 -0.266670 0.016484 253 253 255
-0.068361 -0.274341 -0.002199 129 130 134
0.011542 0.265739 0.043257 255 255 254
-0.094875 -0.179344 0.055121 130 130 135
-0.094791 0.251830 -0.062862 105 144 218
-0.074669 0.097200 0.018731 108 147 218
-0.077214 0.128918 -0.072658 122 129 145
0.014822 0.277469 -0.041903 255 255 255
-0.097054 0.155535 -0.063640 109 145 209
0.112860 -0.266442 0.030032 252 254 254
-0.013191 0.265942 0.003901 255 253 255
-0.097868 0.094570 0.044264 107 150 225
-0.074232 0.225913 -0.066991 115 133 162
0.276518 -0.282130 0.014500 252 253 252
-0.039741 0.277584 0.014434 252 251 252
-0.031712 -0.262445 -0.020121 251 252 252
0.303513 0.275083 0.006208 250 252 251
-0.055162 0.275383 -0.032198 254 254 255
0.243703 -0.277661 0.023428 252 254 253
0.277209 -0.266608 0.057154 252 252 252
0.261358 -0.276595 0.016259 253 253 253
0.341137 -0.270023 -0.002306 254 253 253
-0.041282 -0.276947 0.066692 255 254 254
-0.072357 -0.210384 -0.031782 110 143 201
0.394810 0.284623 0.018223 250 250 251
-0.101642 0.075364 -0.088081 111 142 202
-0.093343 0.234408 0.033095 107 146 219
-0.051872 -0.265774 -0.027795 253 254 254
0.261856 -0.272541 -0.008582 253 254 254
-0.013507 0.265162 0.027391 254 255 253
0.261837 -0.267243 0.006567 255 255 255
-0.069075 -0.113131 0.029242 117 133 160
-0.096416 0.053568 -0.067802 110 141 200
-0.071497 -0.141590 -0.028439 113 144 197
-0.024349 0.276949 0.047923 253 254 254
-0.094201 -0.044477 -0.031782 107 142 203
-0.094859 -0.275433 -0.027963 112 132 168
-0.075148 -0.116534 -0.061593 128 129 134
0.047016 0.279558 0.020789 254 254 254
0.113321 -0.265991 -0.007360 252 252 253
-0.096492 0.269618 0.001586 107 142 204
0.283579 -0.276607 0.044427 254 253 253
0.356586 0.286589 0.046461 253 252 252
-0.075320 -0.278613 0.033161 253 255 254
-0.096934 0.031326 -0.050461 129 131 134
0.088156 -0.277307 0.060138 254 253 252
-0.064080 0.263146 0.046608 253 254 254
-0.095624 -0.103568 -0.072629 129 130 134
-0.092727 -0.097320 -0.052128 112 137 184
0.346767 -0.267363 0.050830 251 254 252
-0.080054 -0.269351 -0.017798 254 255 254
0.133263 -0.273758 0.019229 253 254 253
-0.015571 0.264598 0.059424 253 254 253
0.299994 -0.271437 0.054659 253 254 253
-0.058705 0.259030 0.010586 255 255 254
0.003607 -0.266387 -0.005693 252 252 252
-0.007785 0.265709 -0.001663 252 254 255
-0.071996 0.035024 -0.026838 107 148 220
-0.064043 -0.267956 -0.010590 253 253 254
-0.070002 0.189531 0.034850 126 129 134
0.368903 -0.267765 0.006314 255 255 254
0.373297 0.284685 0.006930 254 252 253
-0.076165 0.171293 -0.005906 127 131 143
-0.062833 -0.281872 -0.014665 254 255 255
-0.065911 -0.268375 0.001828 252 253 254
0.104436 0.284246 0.068337 252 253 255
-0.088327 0.078152 0.046602 111 139 191
0.334403 -0.266235 0.009262 252 252 252
0.285280 -0.276721 0.034333 253 254 253
0.305087 0.273583 0.021096 254 253 253
-0.071741 -0.057833 0.002076 109 139 201
-0.071752 -0.209661 -0.035843 121 141 179
-0.035548 0.262249 -0.036148 255 255 253
-0.016322 0.277508 0.043278 253 252 255
-0.061949 0.255743 0.038239 254 253 253
-0.072021 0.037784 -0.035417 129 133 143
-0.017217 -0.267363 0.010257 254 253 254
0.346095 -0.277274 0.015698 255 254 255
-0.089183 0.274769 0.027617 112 142 197
0.261130 0.278443 0.013302 251 252 253
-0.091822 0.187595 -0.083386 106 139 200
-0.015455 -0.272942 0.001342 252 252 252
0.098777 0.269515 0.017525 253 252 254
-0.093651 0.092769 0.046788 109 142 205
-0.074172 0.251440 0.005436 130 131 136
0.214866 0.283080 0.024021 255 254 254
-0.084050 0.265307 -0.057235 130 134 136
0.030045 -0.272362 0.066642 253 254 254
0.090164 0.281462 0.035168 250 251 251
0.072560 0.280039 0.027038 253 252 253
0.014483 -0.266003 0.006700 254 254 254
-0.097502 -0.170187 0.050535 109 142 204
-0.071342 -0.069810 0.026916 120 129 146
-0.072971 -0.197639 0.038670 113 135 174
-0.040595 0.273308 0.007988 254 253 255
0.338294 -0.266899 0.001765 250 251 253
-0.092595 0.196507 0.059916 106 145 215
-0.089394 0.178390 -0.080515 129 132 135
-0.074996 0.169536 0.008529 112 139 187
-0.070895 -0.202620 -0.012909 132 132 138
-0.072375 -0.205297 -0.051908 112 147 211
-0.040180 0.278095 -0.045874 254 255 255
0.229557 0.273509 0.021349 254 253 255
0.046443 -0.266205 0.065123 253 253 253
0.180539 -0.266552 0.003219 251 251 254
-0.077393 -0.043739 -0.007888 109 152 229
-0.093103 -0.099384 -0.017093 108 145 210
0.189793 -0.276021 0.040048 254 254 252
0.320629 0.280466 0.025123 255 255 254
0.206451 -0.266739 0.049782 254 252 253
0.218152 0.282467 0.011052 254 255 255
-0.063754 -0.269203 0.050611 254 254 253
-0.092222 0.283512 -0.001560 129 130 135
0.129761 0.270409 -0.000955 254 255 254
0.200911 -0.267300 0.027838 252 253 253
-0.097425 0.063445 -0.073000 108 142 204
0.028640 -0.264226 -0.024412 251 253 251
-0.072669 -0.082393 -0.068812 126 133 139
0.206000 -0.275810 -0.011905 253 253 253
0.037583 0.279425 0.012890 251 251 252
-0.093361 -0.215356 0.030962 110 145 207
-0.007462 -0.269514 0.062687 255 255 255
0.147275 -0.276785 -0.000435 252 253 254
0.104668 -0.267015 -0.012288 254 254 254
0.028621 -0.276967 0.027879 252 255 254
-0.072060 -0.268651 -0.034077 253 255 255
-0.098224 -0.077705 -0.059374 131 131 135
0.096962 0.267950 -0.021828 254 254 253
0.277968 -0.267783 0.027820 255 255 255
-0.080749 0.023680 -0.047598 132 136 140
-0.072924 0.059302 -0.084489 111 148 216
-0.096496 0.156496 -0.064989 116 132 160
0.184523 -0.265935 0.015581 253 252 252
-0.094357 -0.264274 -0.000959 132 135 139
-0.095309 0.176759 0.014812 120 135 163
-0.068772 -0.144767 0.018102 118 133 160
0.063684 -0.278514 -0.003758 255 254 253
0.040691 -0.269914 -0.031472 252 253 253
0.135329 0.280729 0.026277 250 251 253
-0.086305 -0.126044 -0.084674 112 143 201
0.266569 0.274231 0.054737 252 253 254
0.372106 -0.267886 0.001509 252 254 251
0.000995 -0.273757 -0.038796 255 254 254
-0.078124 0.020169 -0.011791 109 152 231
-0.075728 0.258039 -0.064671 107 136 188
-0.094455 0.263234 0.019416 113 138 182
0.080860 -0.276750 -0.010640 254 254 253
0.103614 -0.265337 0.060042 252 252 253
0.131434 -0.266193 0.055665 254 255 253
-0.097607 -0.164100 -0.000104 114 145 199
-0.064397 -0.268765 0.065740 252 251 252
-0.095579 -0.146289 0.039148 130 133 137
-0.008504 -0.265743 -0.029526 253 253 253
-0.097079 -0.222441 -0.050610 113 133 172
-0.082175 -0.273961 0.038132 134 138 147
-0.034377 0.263563 -0.042801 254 254 253
-0.075233 0.163634 -0.075010 105 142 207
0.300920 -0.269292 0.057254 255 255 255
0.326555 -0.267899 0.033871 253 254 254
-0.071673 -0.218099 0.015182 105 147 224
-0.072836 -0.163855 -0.071848 106 150 228
-0.014008 -0.277423 -0.003716 252 253 253
0.092164 0.281146 -0.019404 252 253 255
-0.023818 -0.265963 -0.002984 253 254 255
0.279775 0.286734 0.001091 252 251 253
-0.003765 -0.276494 0.046677 253 253 255
-0.076709 -0.059862 0.031570 106 148 223
-0.078973 0.250146 -0.071652 128 131 139
-0.094644 -0.132890 -0.013021 110 147 212
-0.093249 -0.100277 0.027476 106 145 219
0.357420 0.275442 0.019945 254 254 255
-0.097181 -0.089056 -0.022278 110 146 214
-0.076324 0.211504 -0.060931 106 148 226
-0.072774 0.239126 -0.065782 116 135 172
-0.079784 0.232352 0.061570 140 147 153
0.301504 -0.277180 0.019537 253 254 253
-0.064708 0.278785 -0.008489 176 182 187
-0.098203 0.041171 -0.074764 132 134 137
0.144116 0.268989 0.055264 255 255 253
0.075777 -0.276752 0.044514 253 253 254
-0.098156 -0.230077 -0.065182 106 143 207
-0.073945 -0.174428 -0.074008 130 132 135
0.135210 0.274059 -0.020714 254 253 253
-0.072139 -0.059396 -0.025685 111 136 183
0.115034 -0.271647 0.063957 252 253 252
0.338478 0.282184 0.036010 250 250 251
-0.078995 -0.184821 -0.080633 127 132 134
-0.069791 0.277521 -0.015553 130 129 134
-0.075710 0.208166 0.018823 114 134 166
0.029300 0.279553 0.010016 254 253 253
-0.069515 -0.066719 0.038744 109 145 210
-0.079325 0.015151 0.019444 107 142 206
0.196975 -0.266543 0.053275 254 253 253
0.101858 0.280743 0.033811 254 255 254
-0.097425 -0.260646 -0.017193 108 145 212
0.181089 -0.266952 -0.005394 255 255 253
-0.080127 -0.035397 0.003315 128 134 140
-0.101831 -0.173687 -0.080839 112 130 163
-0.073966 0.107222 -0.073645 110 131 169
-0.090019 0.022940 -0.035447 110 138 197
-0.077032 0.140680 -0.058852 129 131 134
-0.074822 0.064434 -0.024158 143 149 155
-0.074900 -0.130705 -0.008523 111 148 217
-0.098856 0.168922 0.047496 109 147 215
0.335588 0.275020 0.029822 254 255 254
-0.094957 0.050790 -0.029683 106 145 215
0.310795 -0.277836 -0.000163 252 252 252
0.220363 -0.268653 -0.013234 255 253 254
-0.093529 -0.077867 -0.081455 106 147 224
0.009510 0.273666 -0.042103 254 254 254
-0.099143 0.274040 -0.019766 138 137 142
0.215945 0.273249 0.025533 255 253 254
0.134430 -0.267306 0.004976 253 252 252
0.318109 -0.278003 0.049448 253 253 253
-0.074667 -0.111073 -0.011393 110 145 206
0.295684 -0.265594 0.042337 253 254 253
-0.098905 0.219960 -0.071141 128 129 135
-0.043186 -0.267332 0.062066 253 253 253
-0.074166 0.236568 0.022734 110 141 198
-0.082488 -0.137613 -0.083240 110 142 200
-0.078655 -0.273714 0.022739 109 136 185
0.000168 0.279048 0.011714 253 253 253
-0.094755 -0.206204 0.054873 111 139 188
0.002744 -0.264672 0.041720 187 189 190
-0.069592 -0.162291 -0.060117 127 129 132
-0.095087 -0.124818 0.011112 107 144 210
0.098482 0.280400 -0.009517 252 252 252
-0.098412 -0.051936 0.021058 128 131 138
0.028604 -0.266022 0.030027 252 252 253
-0.093474 0.258869 0.016649 107 143 208
-0.101280 0.253898 -0.068632 112 145 205
-0.084696 -0.135260 0.045619 107 143 213
-0.085891 0.275600 -0.017874 111 144 203
0.348394 0.276482 0.001277 250 251 251
-0.021393 -0.277952 0.003047 252 254 252
0.051286 -0.264799 0.047580 254 255 254
-0.072848 -0.169067 -0.018224 128 129 134
0.215572 -0.267453 0.028170 255 255 255
-0.019154 -0.277197 0.053981 252 253 252
0.173435 0.281496 0.028595 255 254 253
-0.073247 -0.203689 -0.059051 138 133 138
-0.069764 -0.090699 -0.067689 104 147 224
0.366444 -0.271685 0.044950 250 251 251
0.168942 -0.265903 0.064087 254 254 254
-0.013119 0.279394 -0.032367 254 254 253
-0.100345 0.056445 -0.060668 111 142 199
-0.100018 -0.105425 -0.019271 114 146 202
0.174737 -0.278332 0.015895 252 253 255
0.220907 0.282496 0.039550 253 255 254
0.356428 0.274834 0.036002 254 253 254
0.041447 0.265063 0.022436 254 255 254
-0.013485 -0.266327 0.018043 253 254 252
0.224762 0.283152 -0.000043 252 254 254
-0.068974 -0.094829 0.014101 106 148 223
0.124598 0.275378 0.066698 255 255 255
-0.082794 -0.285887 -0.036373 117 133 158
0.306731 -0.267061 0.013034 253 252 253
-0.078372 -0.101833 -0.086846 112 134 175
-0.097226 -0.205697 0.059402 123 133 150
-0.046780 0.278144 -0.000929 252 254 253
0.240425 -0.277689 0.029057 253 253 252
-0.071687 -0.055835 0.007229 107 145 215
-0.096265 0.260595 0.037392 131 134 137
-0.067041 -0.267317 0.063892 252 253 253
0.230102 -0.276787 0.057167 255 255 253
0.070482 0.274861 -0.034044 254 255 255
0.154244 0.272245 -0.003616 253 255 254
0.133973 0.270083 0.045696 254 255 255
0.126485 0.269711 0.059553 255 254 254
0.111170 0.272796 -0.029689 252 253 254
0.176596 -0.279382 0.054627 253 252 255
-0.070480 0.193943 0.054565 106 137 192
-0.094819 0.196410 0.031115 108 131 177
-0.071653 -0.264883 0.006358 192 194 203
0.096450 0.284143 -0.032670 255 252 252
0.240243 0.271591 0.064674 255 255 255
-0.071650 -0.123078 -0.029481 127 131 134
0.306097 0.285272 0.013521 251 254 252
0.124040 -0.266976 0.041410 251 251 252
-0.071251 -0.071581 -0.037798 131 130 134
-0.015529 -0.276901 0.018674 254 254 255
0.102367 -0.266558 0.016052 255 255 253
0.358653 0.282711 0.037499 253 251 253
-0.049038 0.279276 -0.021900 253 253 255
0.098177 0.283110 0.038892 255 255 255
-0.070016 -0.097404 0.037047 128 132 143
-0.070096 -0.231250 -0.024571 105 138 199
-0.097222 0.066570 -0.058954 108 146 214
0.272778 -0.276564 0.023179 255 253 255
-0.004029 0.277968 -0.040710 253 254 255
-0.094656 -0.135376 -0.028454 107 147 220
0.119347 0.269042 -0.023059 254 253 255
-0.011970 -0.277963 -0.021545 252 255 253
0.100973 0.269970 0.026845 254 255 255
0.074375 -0.266686 -0.028984 253 252 254
0.255149 0.273719 0.045235 255 255 253
0.172827 -0.268418 0.002490 253 253 252
0.005903 0.275124 0.069472 254 252 253
-0.081476 0.065750 0.046856 106 143 209
0.026555 0.267407 -0.018754 254 253 254
-0.073456 -0.058768 -0.067783 133 135 139
-0.070080 -0.166193 0.042261 109 150 225
0.352640 0.272872 0.056024 253 252 253
0.343194 -0.280254 0.014095 255 255 254
0.088993 -0.264841 0.047589 251 254 252
0.381716 -0.272967 0.007325 255 255 252
-0.074271 0.281615 -0.014335 128 132 135
0.354675 -0.269479 0.008391 253 254 254
-0.067666 -0.042064 -0.034512 112 135 182
0.030179 -0.274445 -0.036382 252 254 254
0.112565 -0.266879 0.040093 255 255 254
-0.071757 0.250578 0.040896 123 131 147
-0.073145 0.259271 0.043292 251 252 251
-0.001175 -0.277705 -0.013402 253 254 255
-0.074248 0.202308 -0.041874 123 131 146
-0.087982 -0.181044 -0.078683 132 134 137
-0.072366 -0.233785 0.017474 107 140 196
-0.071702 -0.065529 -0.036002 128 130 137
0.273139 -0.272746 0.029705 254 253 253
-0.072557 0.139716 -0.023222 108 148 219
0.049921 0.280952 0.006025 252 254 252
-0.075509 -0.160599 -0.014289 106 139 196
-0.098332 0.181108 -0.033751 114 134 167
0.297393 0.284618 0.002894 253 254 252
-0.045866 -0.272293 -0.041929 252 252 252
0.090190 -0.278768 0.029946 255 254 253
-0.070934 -0.171667 -0.055685 139 143 147
0.003114 -0.265761 -0.038612 253 254 255
0.113296 0.269727 0.049864 254 255 254
0.153149 0.276585 0.064900 254 254 253
-0.071987 -0.222470 -0.033967 109 138 188
-0.097174 0.253480 -0.034254 138 140 146
0.093450 0.275361 -0.028135 252 252 252
-0.071885 -0.265478 0.022746 113 131 164
-0.095109 0.210675 0.016682 130 131 134
-0.070593 -0.267471 -0.050971 127 128 132
-0.052632 -0.278023 0.020781 254 253 253
0.107103 0.265651 0.065779 253 252 254
-0.096298 -0.219549 -0.033940 110 139 189
0.152205 -0.277373 -0.000088 253 252 254
0.184891 0.270670 -0.013539 252 253 252
0.155403 0.280714 0.036315 252 252 253
0.133500 -0.278802 -0.019157 253 253 255
-0.097265 0.080700 -0.084327 128 130 134
0.204402 0.272847 0.041545 254 252 252
-0.092029 -0.072391 -0.026107 107 145 215
0.090762 -0.273227 -0.024301 254 253 253
0.143073 -0.266601 0.050839 253 252 253
-0.072279 0.042249 -0.071189 112 134 176
0.113373 -0.277849 0.024512 252 252 254
-0.094952 0.202696 -0.081020 128 132 140
-0.096094 -0.237839 -0.042962 108 144 207
-0.085108 0.113245 -0.088461 109 145 211
0.056690 0.269046 0.016907 250 251 253
0.109230 0.283377 0.061118 252 253 254
0.029701 -0.271682 0.063911 253 252 253
0.018312 0.279238 0.008798 254 254 253
0.018327 -0.271929 0.065030 253 252 254
-0.097223 -0.096964 0.031389 110 139 193
-0.094988 0.126956 -0.086520 106 150 229
0.012321 -0.265587 -0.024191 254 254 253
-0.074863 -0.078921 -0.044046 126 135 153
-0.099775 -0.213382 -0.067755 119 130 146
-0.094575 -0.217755 0.054020 129 130 136
0.168572 -0.264772 0.051511 252 255 252
-0.077453 0.227329 -0.018562 129 131 136
-0.094512 -0.038597 0.021753 124 134 155
0.074551 -0.277812 -0.012867 255 255 255
-0.073028 0.179928 0.020024 129 136 150
-0.031104 -0.278577 0.017424 254 255 254
0.131262 0.270333 0.002428 253 253 253
-0.074077 0.217774 0.030548 131 131 136
-0.066307 -0.236077 0.062460 135 136 142
-0.070508 -0.272481 0.033012 109 144 207
-0.072332 -0.124041 -0.065692 129 134 137
-0.084086 -0.282408 0.007269 108 144 210
0.033892 0.279338 0.029520 255 255 255
-0.093964 0.199683 -0.023903 109 149 223
0.289201 0.274100 0.019125 255 254 254
0.234314 -0.266290 -0.005971 251 252 251
0.216410 -0.267043 -0.001603 255 255 252
0.261566 -0.263393 0.051961 251 252 253
0.199923 -0.275997 0.057805 253 253 255
0.102718 -0.276450 -0.015051 253 253 253
-0.031012 0.276098 0.059671 253 253 255
-0.006510 0.278815 0.039944 255 255 255
-0.093486 -0.183085 0.057617 114 137 184
0.034857 -0.275238 -0.035829 251 252 252
-0.076115 0.186227 -0.042797 105 147 226
-0.097884 0.090942 0.026270 121 130 147
-0.070807 0.168631 -0.030095 113 142 193
0.061769 0.268814 0.020137 253 253 253
-0.096926 0.176422 -0.075518 110 140 191
-0.084729 0.276248 -0.006150 109 140 194
0.082613 -0.269350 0.026599 252 254 253
-0.099048 -0.068105 -0.053313 121 130 148
-0.095195 -0.071265 -0.039725 130 130 135
-0.067880 -0.131310 -0.087601 109 134 179
-0.095155 -0.133470 -0.045297 109 151 229
0.195168 -0.276962 0.043440 253 254 254
0.050746 0.278042 0.050759 253 252 255
-0.075972 0.078688 -0.052085 106 148 223
-0.002816 -0.281152 0.027004 252 252 252
-0.097858 0.260924 -0.058745 108 139 193
-0.097100 0.182103 0.046623 109 148 220
0.065170 -0.267866 0.066192 253 253 253
0.294134 0.284321 0.007390 254 255 255
-0.054041 -0.263638 0.015080 253 252 254
0.011431 0.264170 0.025827 254 253 254
-0.084582 0.081513 0.043569 130 132 136
0.325835 0.274740 0.059677 254 253 253
0.033128 -0.272191 -0.008639 253 255 255
-0.070323 -0.198756 -0.049180 106 139 201
0.030961 -0.276929 0.061748 254 254 254
0.027330 -0.265799 -0.007047 252 252 253
-0.084526 -0.281568 0.023990 177 180 185
-0.092212 -0.241022 0.060072 112 135 179
0.295425 -0.267052 0.011758 255 255 255
0.329346 0.274999 -0.000559 254 255 253
0.022951 -0.265876 0.044404 253 253 254
0.014793 0.265772 -0.006503 253 253 254
-0.031435 0.277114 0.006000 253 254 253
0.195226 0.276710 -0.010146 253 255 253
-0.076955 0.096548 -0.074802 110 140 198
-0.076124 0.057983 -0.072313 107 144 210
-0.049930 -0.278729 -0.000587 252 252 252
-0.073563 -0.253387 0.052236 109 138 189
-0.061689 0.275770 0.054447 253 254 254
-0.085264 -0.056945 -0.065709 131 133 136
0.302736 -0.266534 -0.001065 254 253 255
-0.075752 -0.050854 0.036975 127 129 134
0.325376 0.275183 0.009355 252 252 253
0.172425 -0.278233 -0.013595 254 255 255
0.302904 0.285136 0.059618 251 251 253
-0.040881 -0.263334 -0.038922 251 251 253
0.275554 0.274906 0.024219 254 253 253
-0.076880 0.114046 -0.063569 106 144 216
0.320601 -0.280424 0.045059 253 253 253
-0.096437 -0.107091 0.011039 128 129 134
0.161883 -0.266934 0.034947 252 253 253
-0.073037 -0.063308 0.004799 129 132 140
0.115688 0.272447 -0.024472 254 254 254
0.246830 -0.264946 0.049667 254 252 254
0.232178 0.283143 0.009536 252 253 252
0.306831 0.283178 0.026914 254 254 255
-0.097165 0.038129 0.012066 108 147 219
-0.064029 -0.250366 0.035090 177 184 186
-0.074630 -0.125387 -0.044242 106 146 221
-0.099092 0.130026 -0.000025 112 146 208
0.018392 0.279879 -0.042250 255 255 255
-0.068448 -0.269996 -0.048077 252 253 252
-0.088166 0.047273 -0.077133 131 134 137
-0.094650 -0.243292 0.032857 134 136 141
-0.067458 -0.263802 0.064876 250 250 250
-0.080633 -0.206364 -0.083528 111 131 165
-0.093318 -0.265249 0.013587 108 146 217
-0.044241 0.275059 0.022493 253 253 254
-0.096264 -0.143368 -0.053964 111 148 215
-0.068516 -0.243010 -0.004076 162 167 172
-0.069360 -0.245825 0.058322 120 128 144
-0.078445 0.182049 0.052408 131 130 136
-0.086995 0.046960 -0.058087 130 133 137
-0.081162 -0.077418 0.035563 107 149 225
-0.076181 0.128636 -0.032868 117 130 157
0.170910 -0.276481 0.024651 251 252 252
0.003117 0.279654 -0.023222 254 254 254
-0.096059 -0.195653 0.024051 122 138 155
0.014646 0.265581 -0.016079 251 253 252
-0.073808 0.069799 0.040557 107 150 228
0.006199 0.277968 -0.038321 183 188 189
-0.086105 0.067992 -0.081925 121 130 147
-0.082949 0.180748 0.050529 106 135 189
-0.074232 -0.116111 -0.043789 109 151 229
0.048517 0.267744 0.022147 253 253 255
0.003813 0.279427 0.007528 253 252 254
-0.075269 0.279929 -0.013492 108 139 196
0.243418 0.282879 -0.007597 253 252 252
-0.062365 0.281172 -0.008421 254 253 255
-0.083098 -0.046953 -0.022243 106 149 224
-0.094724 0.140019 0.034313 106 136 192
-0.074514 0.175868 0.018812 126 131 134
-0.026598 -0.262028 -0.036041 253 255 255
-0.073747 0.053345 0.034390 105 147 224
-0.016066 0.278540 0.037181 255 255 255
-0.024389 -0.276414 -0.040568 254 255 255
-0.072454 0.187743 0.053707 130 131 134
-0.071324 -0.051026 -0.039493 111 132 169
0.022815 0.267043 0.003056 253 253 255
0.003680 -0.264180 0.027265 251 251 251
-0.098281 -0.173175 0.004470 125 128 133
-0.073024 -0.054563 -0.039253 128 128 132
-0.096753 0.033513 -0.055577 129 134 137
-0.097709 0.243401 0.003409 116 132 165
-0.053887 -0.281689 -0.006982 254 252 253
0.309060 -0.277634 0.000072 254 255 254
-0.098716 -0.186340 -0.077901 118 140 182
0.126197 0.270243 0.026016 253 254 255
-0.073515 0.102043 0.038997 109 136 188
0.093644 -0.275779 -0.025280 253 253 253
-0.070274 -0.210892 0.062449 180 184 194
-0.079737 0.029423 0.039818 131 131 136
0.316000 0.283675 0.049335 255 255 255
0.309822 -0.276802 0.024860 253 252 253
-0.072527 -0.191814 -0.066464 113 142 193
0.270352 -0.268439 -0.001492 253 255 254
-0.075366 0.121305 -0.066650 107 134 183
-0.071564 -0.057331 0.005145 108 144 208
0.100659 0.267072 -0.026735 254 255 255
-0.073509 -0.132133 0.004848 107 135 183
-0.095905 0.169268 -0.021592 111 140 198
-0.097781 -0.049681 0.008601 126 130 133
-0.069631 0.258643 0.046064 111 133 173
-0.081717 0.015309 -0.007715 107 150 231
0.080602 0.281389 0.049114 253 253 255
0.069011 0.276023 0.064487 255 255 253
-0.094427 -0.196315 -0.016857 105 148 224
-0.048444 -0.264884 0.013936 252 252 253
-0.076168 0.202414 0.026970 108 143 210
-0.096032 0.034061 -0.018297 111 136 183
-0.052286 -0.278002 0.049307 255 254 254
0.333076 0.275132 0.036983 254 254 252
-0.086148 0.141905 0.048360 110 147 216
-0.029929 -0.279188 -0.036646 253 254 254
0.012276 -0.276739 0.040992 254 254 255
-0.097213 0.176791 0.014811 105 145 219
-0.092484 -0.068051 -0.002173 109 143 203
0.328832 -0.276423 0.001702 255 255 253
0.373396 -0.267752 0.037015 251 252 254
-0.079676 -0.041243 -0.014750 133 132 136
0.137758 -0.274836 -0.020912 255 255 255
0.188702 0.271496 -0.003769 252 253 253
-0.071977 -0.067163 0.031018 131 134 140
-0.074617 0.232200 0.013915 124 126 131
0.333042 -0.267430 0.047620 254 253 255
0.035382 0.281818 0.056671 251 250 253
0.292696 -0.279835 0.053548 251 252 252
0.360233 0.287203 0.028425 254 253 255
0.174069 0.270355 0.003558 252 253 255
-0.076538 0.064340 -0.083379 124 128 137
0.227444 -0.277034 0.029194 253 253 253
-0.094623 -0.279395 -0.001126 107 142 202
0.089614 0.268753 0.029364 253 254 255
-0.024346 -0.277846 0.066872 255 255 255
0.013169 -0.278839 -0.012026 253 252 252
0.021232 -0.263431 -0.025465 255 255 255
-0.004146 -0.276575 0.036849 253 253 255
-0.096696 0.070145 -0.073141 111 145 209
0.180755 0.271985 0.010951 254 254 253
0.171046 -0.277056 0.011433 253 253 253
-0.067255 -0.230414 0.018887 176 184 189
-0.077035 0.207818 -0.078181 128 128 133
-0.012677 -0.276780 -0.040527 253 254 254
-0.100237 0.099757 -0.088304 110 139 191
-0.012294 -0.267320 -0.004224 253 252 252
0.102721 -0.277369 0.025670 252 253 254
-0.074013 0.196062 -0.068585 130 132 138
0.377981 0.282742 -0.001750 254 254 253
-0.070600 -0.150673 -0.017085 132 133 139
-0.091648 -0.249533 -0.006072 131 134 139
0.013380 -0.280105 0.020901 251 252 253
-0.096119 -0.193376 0.003910 107 145 215
0.139049 0.282259 -0.015951 253 252 253
-0.079657 -0.075401 0.039883 172 177 179
0.108193 -0.266358 0.054840 252 254 254
0.265807 -0.267779 0.034187 252 253 255
-0.071197 -0.078433 0.038137 127 130 138
-0.095703 0.195277 0.045425 128 132 136
-0.070776 0.025801 -0.030421 132 130 134
0.309840 0.284382 0.006419 254 255 255
-0.094487 0.222392 0.048416 107 141 204
-0.080675 0.208438 -0.081909 108 146 218
0.182953 -0.275564 0.053109 252 255 255
-0.076435 0.132326 0.015306 111 136 177
-0.072010 -0.188933 0.001243 110 145 209
-0.097469 -0.126182 -0.088959 108 146 219
-0.042964 -0.279693 -0.002918 253 252 254
-0.021153 0.264439 0.006562 253 254 255
0.108023 -0.265891 0.008875 252 252 253
0.077881 0.280238 0.035817 254 255 255
-0.094828 -0.227173 0.057082 133 132 135
0.029557 -0.265878 0.018141 252 253 253
0.223769 -0.272383 -0.009220 253 253 254
0.201587 0.271481 0.061520 255 255 254
-0.073128 -0.222075 -0.029012 134 135 141
0.044472 -0.262954 0.062795 254 252 254
-0.073059 -0.184938 -0.006135 130 134 136
0.027858 -0.265758 0.004652 250 251 252
0.109607 0.270055 -0.010735 254 255 254
0.037717 -0.277075 0.047942 253 254 253
0.060233 -0.265545 -0.012572 253 254 254
-0.080505 -0.052604 -0.054783 106 150 230
-0.095770 0.174377 0.045398 107 145 217
0.314509 -0.277166 0.003637 255 254 255
-0.096509 0.267263 0.035098 133 137 143
0.070386 -0.277838 -0.028627 255 254 254
-0.099585 -0.149061 -0.006810 106 150 226
-0.092018 0.272903 0.015902 113 137 180
0.008979 0.274010 -0.029828 254 253 254
-0.072460 -0.259173 -0.012084 130 130 133
0.316109 -0.279088 0.016605 254 255 255
-0.074245 -0.206087 -0.023093 111 144 203
-0.099004 -0.204118 -0.007329 107 145 214
0.190922 -0.267516 0.044063 254 255 254
-0.072716 0.227336 -0.057502 110 136 183
0.297082 0.278361 0.064763 254 253 255
-0.070929 -0.104377 -0.000658 109 148 218
-0.074438 -0.273676 -0.010524 254 252 253
-0.099738 -0.104401 -0.058383 108 143 207
0.177171 0.271335 -0.006360 255 254 255
0.251503 0.272352 0.065819 255 255 254
0.081185 0.280929 0.050591 255 255 255
-0.091156 -0.222031 -0.077043 109 148 219
-0.045800 -0.278339 0.008146 253 251 252
-0.096640 -0.212191 -0.009398 108 148 220
-0.096741 -0.196251 -0.017993 126 131 135
0.050164 0.267252 0.042276 253 255 255
0.267207 0.284032 0.044865 253 252 255
-0.043390 0.276365 0.028754 255 255 254
-0.068594 -0.098219 -0.036863 128 141 163
0.089340 0.280330 0.051469 252 254 254
0.200188 -0.277346 -0.003647 254 255 255
-0.067997 -0.278757 0.021774 130 133 136
-0.070653 -0.069373 0.039047 126 129 136
0.366681 0.274136 0.047016 252 252 252
-0.094523 -0.280440 -0.015963 108 136 182
0.072985 -0.278168 0.028975 251 252 254
0.269880 0.274696 0.049528 255 254 253
0.012000 0.272175 -0.040451 252 252 252
-0.074111 0.170341 0.034408 110 151 226
0.147100 0.270737 0.028396 251 252 253
0.214438 -0.275265 -0.009755 254 254 254
-0.076171 0.214436 -0.056075 112 135 175
-0.075612 -0.045429 -0.024147 112 136 181
-0.074143 0.232565 -0.060748 107 134 185
-0.096515 0.049913 0.006625 109 151 226
-0.073574 -0.196458 -0.050663 133 137 141
0.071362 0.277108 -0.032416 253 254 253
0.279435 -0.277765 0.019617 253 253 253
0.036029 -0.280046 0.019535 255 255 254
-0.074902 -0.159354 -0.017314 112 131 164
-0.067636 -0.051509 0.033596 132 135 142
-0.095633 -0.243888 0.001045 111 149 217
-0.077266 -0.268423 0.035107 114 151 219
-0.099515 -0.078539 -0.013460 134 137 142
-0.071378 -0.190179 0.045215 114 130 159
0.144450 0.280497 0.055857 252 253 253
0.110086 0.280665 -0.008586 255 254 255
-0.027388 0.271879 0.065090 254 255 255
-0.074113 -0.064023 -0.049489 106 144 210
0.317763 -0.266769 0.021690 255 255 255
0.123115 -0.276417 0.036084 252 253 254
-0.096600 0.131827 0.040630 107 144 215
-0.061350 0.277252 -0.012335 254 253 253
-0.076525 0.127747 -0.060865 106 145 218
0.152070 -0.277613 -0.019528 254 254 253
