ply
format ascii 1.0
element vertex 1180
property float x
property float y
property float z
property uchar red
property uchar green
property uchar blue
end_header
-0.085004 0.057725 -0.046052 105 147 226
0.351717 -0.265042 0.014551 251 250 252
0.069598 0.265415 -0.001394 255 255 254
0.227100 -0.263783 0.032167 254 252 255
-0.108476 -0.185971 -0.076729 133 133 143
0.241173 0.270644 0.057521 254 254 254
0.374563 -0.274735 0.040570 254 255 255
0.240677 -0.265017 0.032632 254 255 254
0.000430 0.263443 -0.037818 253 255 253
0.328569 -0.275191 0.017807 254 255 254
0.146534 -0.266016 0.028134 255 255 255
-0.100281 -0.207568 -0.052660 105 141 205
0.239748 -0.265034 0.036010 254 255 254
0.127808 -0.276350 0.005711 255 255 254
-0.084027 0.219123 0.055456 103 146 225
-0.087727 0.215969 0.056174 106 151 234
-0.096846 0.181962 -0.034401 105 142 208
-0.104916 0.107488 0.031616 104 150 232
0.146417 -0.270120 0.037222 253 255 254
0.316301 -0.264002 0.008900 255 254 255
-0.058905 -0.278694 -0.036659 252 253 253
-0.104910 -0.071653 -0.024407 107 148 225
-0.082278 0.201663 0.022995 106 148 223
-0.080633 0.119745 -0.004784 105 149 232
0.122086 -0.266418 0.015885 253 253 253
-0.107905 0.096302 -0.021622 113 131 162
-0.074001 0.266637 0.005351 254 255 255
-0.059969 0.262853 0.055816 252 253 253
-0.100201 -0.230237 -0.076536 142 149 158
0.003211 -0.267864 0.024936 255 254 254
-0.099644 -0.164463 0.004623 109 138 195
-0.083078 0.225860 -0.022550 103 147 226
0.184912 0.280151 0.001488 254 254 255
-0.081563 0.069890 0.019137 123 133 148
-0.081182 -0.238285 -0.059818 104 149 231
0.099630 -0.275418 0.052530 254 254 254
-0.082704 0.090819 -0.051227 105 149 231
-0.104196 -0.128835 -0.052236 104 150 233
0.321617 -0.264685 0.023188 253 254 254
-0.006376 0.278911 -0.030914 254 253 253
-0.082245 0.086070 -0.034639 108 144 209
-0.082336 0.225642 -0.035188 103 143 218
-0.102359 0.107337 -0.062886 105 141 206
-0.042997 0.267028 -0.007889 254 254 255
-0.057255 -0.268342 0.008309 254 255 254
-0.009222 -0.279156 0.011641 254 254 253
-0.100083 -0.273023 -0.055791 133 137 144
-0.090997 -0.258123 -0.063845 106 141 203
0.007586 -0.280270 0.013266 253 255 254
0.277093 -0.279290 0.040372 255 253 253
-0.103980 0.189045 -0.080425 133 132 139
-0.105495 0.022997 -0.018617 105 149 231
-0.101676 0.219447 -0.026684 105 149 230
0.328021 -0.275278 0.033809 252 253 253
0.154055 0.269794 -0.003239 252 252 254
-0.103006 0.222220 -0.068420 104 139 203
0.376049 0.269509 0.012263 254 253 255
0.229200 0.280663 0.044688 254 253 255
0.239630 0.276581 0.066230 253 252 253
0.257700 0.281122 0.012542 252 252 255
-0.076300 0.048330 0.009388 106 138 196
-0.091325 -0.054798 0.034841 103 149 232
-0.086959 -0.181691 0.054003 105 149 232
-0.093037 -0.092698 -0.088605 105 149 233
-0.100852 -0.083106 -0.010121 105 139 204
-0.077872 -0.131522 -0.083625 106 147 229
-0.104074 0.125791 -0.008366 103 147 229
0.111416 0.279462 0.007038 254 253 254
0.187684 -0.273863 0.031247 253 254 255
-0.080106 -0.112146 0.028641 106 138 196
-0.104263 -0.172179 -0.084991 107 149 228
0.096651 -0.265690 0.003995 254 254 252
-0.104830 -0.133399 -0.035249 105 150 229
0.195279 -0.264771 0.035645 253 254 254
-0.097919 0.020721 -0.017158 107 136 190
-0.002980 0.279353 -0.016219 255 255 254
-0.078748 -0.130948 -0.023524 107 138 191
0.095706 -0.277707 0.029859 253 253 253
-0.103191 0.075744 -0.019428 127 132 136
0.166767 0.279412 -0.002979 200 200 203
0.137727 -0.265658 -0.014069 254 254 254
0.219378 0.266941 -0.006101 253 252 253
0.153897 -0.270845 0.049932 253 255 255
0.376311 -0.270298 -0.003467 254 254 254
-0.084887 0.213593 0.056187 105 144 219
0.012493 0.278218 0.021579 253 253 253
-0.096919 0.096747 -0.090106 106 147 220
-0.091393 0.262094 -0.067400 121 129 143
0.163959 0.279257 0.046663 255 253 253
-0.082426 0.219028 -0.008627 136 134 138
0.013273 0.272399 -0.035217 253 255 255
-0.074883 -0.184129 0.028085 103 150 234
-0.103496 -0.242119 -0.069784 107 151 235
-0.083899 0.127830 -0.037780 103 146 222
-0.074640 -0.082412 0.016564 107 146 217
0.090844 0.276019 0.003104 254 255 254
-0.081623 0.108586 -0.016574 108 144 209
-0.101824 -0.042568 0.018430 105 143 212
0.269333 0.280925 0.022013 253 254 253
0.079675 0.269141 0.026685 254 254 255
-0.083950 -0.071372 -0.045362 109 141 197
-0.028988 -0.268911 0.029174 253 253 254
-0.100639 0.068452 -0.013160 104 148 228
-0.061144 0.276735 0.063792 254 255 254
-0.073555 -0.109730 -0.058955 103 146 225
0.299299 -0.264078 0.001804 254 253 254
-0.102361 0.165184 0.009652 105 146 223
0.340342 -0.265756 0.046883 254 253 252
-0.106621 -0.149157 0.045555 106 140 196
-0.079258 -0.155970 0.034283 105 148 225
-0.084356 0.202587 0.001136 106 141 202
0.346765 0.270364 0.027965 255 255 254
-0.079113 -0.085984 0.008181 103 147 227
0.166899 -0.278474 0.002015 253 253 254
0.202495 0.267604 -0.002204 253 253 255
-0.056378 0.261532 0.017334 255 255 253
-0.082786 0.085028 -0.005677 105 150 233
-0.096528 -0.251746 0.052031 114 132 166
-0.084169 -0.273316 -0.033329 133 134 137
0.075098 0.269624 0.033122 254 254 255
-0.078677 0.120947 -0.081015 132 136 140
0.344994 -0.265541 0.014848 253 253 253
0.061221 0.269002 0.024778 255 255 255
-0.083690 0.093290 -0.087733 109 135 184
-0.102985 -0.163922 -0.030787 105 148 228
-0.084199 -0.223144 -0.078044 104 141 210
0.246754 -0.267420 0.002053 254 253 253
-0.077929 -0.093379 0.004942 134 136 141
0.326519 -0.274523 0.023412 255 255 255
-0.101998 -0.226044 0.019512 105 140 204
0.193152 -0.265198 0.031260 254 255 254
-0.011016 -0.278966 0.046204 253 255 254
-0.103886 0.036573 -0.015804 133 136 139
-0.085711 0.273517 -0.000223 105 140 200
0.122316 -0.270982 0.033784 253 254 255
-0.080150 -0.208501 -0.067376 131 134 137
-0.099358 0.133484 -0.009074 104 147 231
-0.080362 -0.171132 -0.060824 106 141 201
-0.051573 -0.268862 0.001254 255 254 255
-0.095337 -0.060818 -0.014625 105 150 233
-0.074149 -0.255078 0.043647 107 145 217
0.359490 0.275233 -0.006498 254 254 255
0.005206 0.278285 0.015515 254 254 255
-0.011675 -0.266912 0.050812 253 253 253
-0.107017 -0.075185 -0.056679 107 150 230
0.162006 -0.262977 0.057338 254 253 255
-0.097879 0.233377 -0.045141 105 147 225
0.130027 0.278800 0.026813 255 254 255
-0.033172 0.280888 0.013212 253 255 254
-0.052347 -0.280129 -0.038324 253 254 253
-0.077736 0.143240 -0.076043 136 138 142
-0.101542 0.270660 -0.041191 108 131 173
0.203186 0.269408 0.043032 254 254 254
-0.092134 0.091594 -0.086873 127 131 138
-0.093101 0.251377 -0.073565 105 143 216
-0.083501 0.271245 0.051861 255 255 254
-0.083165 0.043443 -0.059753 136 139 142
-0.024580 0.264157 0.063974 254 254 254
-0.079198 -0.278613 -0.041867 106 147 220
-0.079700 -0.246334 -0.075371 128 130 135
0.348043 0.270847 0.018776 254 254 253
-0.098478 0.088504 -0.088935 106 151 234
-0.008647 -0.279594 0.034088 254 255 254
0.343398 -0.267392 -0.002667 254 255 255
-0.098430 -0.222743 -0.055458 104 139 200
-0.038190 0.280445 0.022660 253 253 253
0.154206 0.279624 0.053043 255 253 253
-0.102249 0.165122 -0.017841 105 139 199
-0.103665 -0.147502 0.044111 106 151 231
0.264057 0.280767 0.036823 253 254 252
-0.103573 -0.268972 -0.056659 105 150 233
-0.101749 -0.218954 -0.055699 137 131 135
0.047114 -0.277147 0.006981 255 255 255
-0.059727 0.277145 0.058351 253 252 252
0.117515 -0.265458 -0.013630 252 253 254
0.347895 0.280054 0.018058 253 252 253
0.313672 -0.265227 0.039448 252 252 254
0.185814 0.278605 0.060486 255 255 254
0.163260 -0.265382 0.050741 252 254 254
0.309915 -0.271190 0.058896 254 254 253
-0.100785 -0.176903 -0.008297 108 137 189
-0.104978 -0.222254 -0.076437 105 146 223
-0.079378 -0.183580 -0.020859 135 138 143
-0.106497 -0.187021 -0.054381 134 139 144
0.162854 0.285179 -0.006905 255 255 255
-0.079291 -0.246675 -0.073415 108 141 199
-0.082768 0.123439 -0.083803 105 146 224
-0.079556 -0.066149 0.024869 107 150 228
-0.106003 -0.199489 0.012569 107 138 191
-0.083824 0.191535 -0.037964 104 150 232
0.035762 -0.266930 0.007894 253 252 252
-0.100449 0.179909 0.046972 107 147 218
0.161707 -0.275811 0.062688 254 255 255
-0.082856 0.149776 -0.019643 106 149 229
0.121061 0.269711 -0.020088 255 255 255
-0.100410 0.233864 -0.056934 105 151 235
0.041133 -0.264728 0.065460 254 254 253
-0.083147 0.099650 -0.045275 103 149 233
0.309869 0.270817 0.042508 252 254 253
0.279785 0.271530 0.034261 254 255 254
-0.078301 -0.074088 -0.001760 127 129 133
0.020004 0.267904 0.024138 255 255 254
0.070939 0.280006 -0.033141 255 255 254
0.071562 -0.276869 -0.019232 252 253 254
0.190701 -0.263781 0.058077 253 255 254
-0.100893 0.109199 0.015010 127 130 139
0.095837 0.275805 0.061996 252 253 253
-0.103755 -0.176124 -0.050390 106 137 190
-0.101846 0.140849 0.016048 107 141 206
-0.083562 -0.127339 -0.065835 104 139 199
0.236683 0.279925 -0.006598 255 253 253
0.039792 0.281888 0.047312 253 254 254
-0.081363 0.183633 0.030755 105 149 230
0.130434 -0.264282 0.057218 253 254 255
0.175288 -0.272753 0.058238 255 255 255
0.239048 -0.265330 -0.005273 254 255 253
-0.099702 0.209743 -0.080487 104 147 224
-0.102374 -0.103727 -0.090429 104 141 207
-0.103917 0.209656 0.005780 104 150 231
-0.108284 -0.222776 -0.041313 105 145 219
-0.080156 0.058883 -0.012304 107 151 233
0.231411 0.270451 0.016420 255 255 254
-0.028013 0.278237 0.022567 255 253 253
-0.077903 -0.189670 0.049479 103 145 221
-0.098564 0.173579 -0.004046 105 144 215
0.373095 0.271917 0.043009 254 254 255
0.067478 0.268880 -0.022684 253 253 254
-0.079814 -0.241849 -0.007935 103 150 231
-0.078922 0.207751 -0.077341 132 135 139
-0.097511 0.089456 0.024288 103 150 234
-0.024782 -0.271893 0.065502 254 254 253
-0.094788 0.024339 -0.014466 106 135 188
-0.077437 -0.081042 0.029651 128 130 134
-0.099454 0.062934 -0.017097 106 148 229
-0.021080 -0.279596 0.017109 252 254 254
-0.079137 0.273262 -0.011936 254 254 253
0.185944 0.269086 -0.003667 253 255 255
-0.076988 0.204080 0.056608 133 135 139
0.165205 -0.264745 0.034030 253 253 254
-0.101682 -0.109740 0.027236 103 146 225
-0.056587 0.272589 -0.045648 255 254 255
-0.101991 -0.214304 0.048973 107 146 217
-0.101850 -0.203312 0.053905 109 132 174
-0.026820 -0.281486 -0.000198 255 255 255
0.110042 0.279592 0.020816 254 254 254
0.150636 0.269166 0.060350 253 253 253
-0.099091 -0.094610 0.026579 107 151 232
-0.096807 0.244570 0.053901 106 135 186
-0.076996 -0.060194 0.035042 130 130 135
-0.083126 -0.172776 -0.068167 103 142 214
-0.099269 0.255084 -0.027023 106 141 207
-0.082336 -0.227735 -0.055699 105 142 209
-0.021779 0.279061 0.025725 254 255 254
0.107873 -0.270555 -0.007889 252 252 253
0.019023 0.278556 0.053901 253 253 254
-0.077537 -0.187075 0.013747 105 149 233
-0.102621 -0.139030 -0.031830 133 133 138
0.028105 -0.273938 0.064375 253 253 253
0.211220 -0.265236 0.022141 255 253 253
0.013657 -0.278420 -0.019639 254 254 253
-0.078681 -0.103501 -0.017813 105 146 229
0.150427 0.274039 -0.022342 255 255 255
0.228726 0.281565 0.049510 255 253 254
-0.001152 -0.278856 -0.009147 254 255 253
0.315887 0.280795 0.016867 255 255 255
-0.077300 -0.139959 -0.082763 106 149 230
-0.077117 0.263009 -0.040587 104 150 234
-0.095626 -0.092097 -0.043372 105 138 200
-0.076240 0.274315 -0.034384 254 255 252
-0.077484 -0.229049 0.036952 128 132 142
0.024882 0.266831 -0.036863 254 255 255
-0.082036 0.041386 0.015789 107 148 224
0.302507 -0.263888 -0.001641 255 253 254
-0.103122 -0.259205 0.013805 104 143 216
-0.049268 -0.282100 0.006451 254 253 255
0.064475 0.266861 0.046576 255 255 253
-0.065683 -0.279225 0.011429 255 253 254
0.177976 -0.278406 0.021624 254 254 252
-0.101018 -0.052654 0.027696 106 150 231
0.112944 0.284342 -0.024899 254 255 254
-0.099160 -0.109404 -0.037084 128 132 142
0.168669 -0.276155 0.013892 255 255 254
0.317011 0.280878 0.014701 255 255 255
-0.019847 -0.268197 -0.030166 253 253 255
0.230746 -0.267363 -0.007566 255 253 254
-0.083365 -0.164703 -0.036424 105 149 229
-0.079010 -0.034543 -0.028674 111 133 176
-0.103812 -0.182689 -0.028079 104 149 232
-0.014456 0.279933 0.000871 253 254 255
-0.087314 0.225160 -0.075726 131 136 141
-0.088654 0.204290 0.042429 129 130 135
0.340032 0.279616 0.019303 255 255 253
0.349863 0.279711 0.033978 253 253 253
0.302964 0.275652 0.007413 254 252 253
-0.095260 -0.034343 0.008447 106 150 230
-0.092261 -0.143610 0.049156 132 132 136
-0.100259 0.258897 0.042233 117 142 183
-0.091728 0.257064 -0.066353 105 144 218
-0.080263 -0.200096 -0.062569 135 132 137
-0.099998 -0.269563 0.028454 129 134 139
-0.098281 -0.171424 -0.021094 105 147 221
0.094205 -0.275735 0.056406 253 255 255
0.160157 0.277675 0.067482 255 253 254
-0.102552 0.113602 -0.040369 103 148 230
-0.082803 0.248336 -0.023643 106 151 234
-0.082391 0.189939 0.009648 107 142 203
0.013919 -0.271941 0.063933 255 254 254
0.021840 -0.271452 -0.032947 255 254 254
0.122945 -0.265959 0.013295 253 254 253
-0.076298 0.204448 0.031946 106 150 232
0.372339 -0.265394 0.014819 254 255 254
-0.027010 0.277977 -0.044802 255 253 253
-0.080677 0.169216 -0.060304 104 148 228
0.066672 -0.264106 -0.025490 255 254 254
-0.087506 -0.124671 -0.089483 104 143 217
-0.096207 -0.101096 -0.043878 108 138 191
-0.098129 -0.252366 0.032319 110 134 178
-0.098671 -0.231009 0.047828 105 146 221
-0.097675 -0.029257 0.010819 106 144 211
0.163367 0.279322 0.038653 255 255 255
-0.103597 0.065364 -0.029871 105 151 233
-0.034427 -0.280383 0.011835 255 255 255
-0.080937 -0.109694 0.013419 105 149 232
0.123135 -0.264528 -0.017875 252 253 254
0.216709 0.269794 0.042660 255 253 253
-0.086152 -0.262069 0.048465 116 133 167
0.284490 0.281517 0.014301 253 253 255
-0.097267 0.038850 0.018820 103 141 213
0.132570 0.276296 -0.023611 255 255 255
-0.105028 -0.239920 -0.050954 104 149 231
-0.097865 0.206877 0.051940 105 145 219
0.192978 -0.264785 0.028696 254 254 253
-0.078446 -0.267043 -0.048169 104 145 222
-0.096764 -0.216429 -0.034152 105 151 233
-0.081339 0.275472 -0.042142 109 139 191
-0.023709 0.268021 -0.018627 254 255 253
-0.094803 0.093734 0.043756 137 138 144
-0.099965 -0.046454 -0.054351 131 134 139
-0.098574 -0.254412 -0.001913 129 131 135
-0.079988 0.248024 -0.072237 108 141 204
0.187671 0.281100 0.030782 252 253 253
-0.003821 -0.268161 0.011284 254 255 254
-0.053137 0.276083 0.020332 254 255 254
0.265851 -0.274742 0.025342 255 255 255
0.001274 -0.278178 0.027571 254 254 255
-0.100571 -0.214377 0.029714 136 131 137
-0.101872 -0.143627 0.048594 132 137 141
0.245172 -0.264635 0.008096 252 252 252
-0.079722 -0.117244 -0.047037 105 150 233
-0.083411 0.113137 -0.056071 105 149 231
0.096054 -0.278836 -0.023719 255 253 255
-0.088267 -0.258513 0.046408 106 149 228
0.091292 -0.266870 0.019463 253 252 253
-0.080530 -0.264294 -0.043882 106 142 205
0.114601 0.279914 0.065282 253 255 255
-0.100225 -0.160004 -0.087932 105 150 233
-0.062271 -0.271461 -0.036339 255 255 253
0.133876 0.269064 0.042242 254 255 254
-0.092859 -0.041709 -0.026382 133 133 137
-0.084180 0.214070 -0.047601 106 150 231
-0.096637 -0.100392 0.039344 104 145 220
0.396037 -0.265444 0.026654 255 253 253
-0.075607 -0.144074 -0.003801 103 150 232
0.336391 0.267665 0.065313 255 255 254
0.242268 -0.278386 0.024003 255 255 255
0.012290 -0.276658 -0.031217 255 255 254
0.275536 -0.265083 0.036082 252 253 253
-0.043086 -0.280294 -0.007789 253 253 252
0.206261 -0.274435 0.036756 254 255 253
-0.080114 -0.161486 0.025605 105 145 219
-0.082796 0.072461 -0.077426 106 150 231
-0.003793 0.271812 -0.023550 255 254 255
-0.081262 0.099547 0.045604 104 142 208
-0.081032 0.102362 -0.065086 104 146 221
-0.062800 -0.269594 0.014684 252 253 253
0.225237 0.270317 0.047461 254 255 253
0.158635 -0.267345 -0.018924 255 254 254
-0.083096 -0.124315 -0.050734 106 135 190
-0.078056 -0.115921 0.035542 104 149 233
0.367372 -0.274059 0.018651 255 254 254
0.337895 0.281278 0.045060 253 253 255
0.002294 0.280631 -0.028541 254 253 255
0.311652 -0.277502 0.028482 253 253 255
-0.082983 -0.208209 -0.016253 104 147 225
-0.080741 -0.079358 -0.000235 105 145 217
-0.084583 0.032482 -0.016824 105 148 227
-0.077817 -0.088281 0.030632 130 134 137
0.053613 0.268536 -0.000231 255 255 253
-0.079611 -0.253290 -0.006871 106 151 234
0.065858 0.268920 0.050650 254 255 255
-0.078745 -0.266002 -0.038410 180 186 195
0.005347 0.279568 -0.042723 253 253 254
-0.103302 0.157672 -0.003571 116 131 162
0.237591 -0.264948 0.014038 253 253 254
-0.076363 -0.217703 -0.019143 136 136 143
0.137959 0.269565 0.020596 254 254 255
0.013276 0.279889 -0.020842 255 255 255
-0.100955 0.154201 0.046559 107 152 233
-0.023983 0.266573 -0.018817 255 255 254
-0.101148 0.237889 0.015010 105 148 227
-0.100491 -0.144693 0.019030 103 145 224
-0.100720 0.106098 0.038122 104 145 221
0.319769 0.271432 0.040260 253 255 255
-0.081326 0.192321 0.017554 107 145 217
0.022283 0.274597 0.011299 217 217 220
-0.026955 -0.268405 -0.027182 255 255 254
-0.079391 -0.071729 -0.077594 104 150 233
0.208624 0.277348 0.006111 252 254 253
-0.071052 -0.275357 -0.019686 254 254 253
-0.075429 -0.136288 -0.013762 131 135 137
-0.082751 0.204490 -0.015135 133 135 140
-0.027645 0.265157 0.039610 254 255 254
-0.101080 0.186919 -0.070412 104 149 231
-0.087904 0.059917 -0.083428 124 133 150
-0.024443 0.279849 0.002471 254 254 253
0.075741 0.268368 -0.000014 253 254 253
-0.080839 -0.094406 -0.073371 106 149 233
0.036589 0.266974 0.039865 253 254 255
0.250110 0.281263 0.003039 251 251 252
-0.080934 -0.192861 0.011667 106 147 223
-0.060350 -0.270764 0.008663 254 253 253
-0.074736 -0.197127 -0.041378 136 136 141
0.170474 -0.265716 0.049903 254 255 253
0.109029 -0.272542 0.063889 255 255 253
-0.104880 0.141992 -0.032009 109 145 208
-0.106619 0.198844 -0.030849 134 136 141
0.144544 -0.275500 -0.020665 253 253 253
-0.076124 0.045697 -0.080149 107 147 222
0.358721 -0.262453 0.056315 255 254 255
0.378584 -0.272842 0.056491 255 253 253
-0.094389 0.140363 -0.010412 104 147 230
-0.102248 -0.091495 -0.066842 104 148 228
-0.097357 -0.246327 0.002085 111 132 169
0.263303 -0.274416 -0.007005 252 252 254
-0.101412 -0.250803 -0.030640 105 149 230
0.021686 0.280659 -0.004457 255 254 254
0.081288 0.269837 -0.029789 254 255 254
-0.075454 0.278493 0.035551 254 252 253
-0.088103 0.092813 -0.088422 104 148 228
-0.056623 -0.280427 0.046133 254 255 255
-0.097490 -0.161976 0.016562 104 147 223
-0.030193 -0.279383 0.042266 254 255 254
0.029126 -0.266405 0.018141 255 254 255
-0.081612 -0.278380 -0.043429 253 254 253
-0.082920 -0.140502 -0.027932 106 149 225
-0.010715 0.279328 -0.015102 254 255 254
-0.076195 -0.233592 0.010669 102 142 213
0.075478 0.270910 0.064362 255 255 255
0.112493 0.269087 0.012523 255 255 255
-0.077387 -0.121467 0.046049 127 129 135
-0.079677 -0.271738 -0.060070 105 142 214
-0.100193 0.217802 0.005803 107 145 216
-0.108475 0.084028 -0.085437 106 146 222
0.163947 -0.265800 -0.009896 254 253 253
-0.090120 0.278740 0.001549 104 149 230
0.235916 -0.275069 0.014681 255 254 254
-0.099013 -0.125970 -0.090685 104 149 231
-0.095579 0.275808 0.023883 122 131 143
0.039066 0.266560 0.031086 254 254 255
-0.081515 0.197435 -0.004194 106 135 191
-0.006506 -0.278908 -0.020463 254 254 255
-0.105135 0.162993 0.001802 108 131 171
0.029868 -0.276205 -0.025175 254 255 255
0.013367 -0.266640 0.051120 255 253 254
0.371454 0.271993 0.016051 254 254 255
-0.079978 0.106812 0.012086 103 142 214
0.371172 0.279666 0.007051 255 253 253
-0.077552 -0.196892 -0.025831 108 140 199
-0.040173 0.278943 0.062958 255 255 255
-0.056308 -0.281518 -0.032323 253 253 254
-0.104238 0.098375 -0.060040 106 149 230
0.378780 -0.277061 0.056865 254 253 255
0.075800 -0.267289 0.045054 253 254 255
-0.104650 -0.119270 -0.092065 105 150 230
0.316870 -0.272222 0.059698 255 255 255
0.319918 0.271625 0.034512 255 254 254
0.134962 -0.270045 -0.022893 254 254 254
0.232972 0.270082 0.055078 253 255 253
0.025212 -0.266600 -0.015608 254 253 255
0.107477 0.276530 0.000339 253 255 253
-0.076256 0.180771 0.028886 105 137 192
-0.049116 -0.277517 -0.004936 253 254 255
0.027212 0.279753 0.057941 254 255 253
-0.080059 0.026312 0.009480 136 138 143
0.376804 -0.275783 0.041461 253 255 253
-0.027950 -0.279842 -0.030736 254 255 255
-0.065730 0.275911 0.052769 255 254 254
-0.099317 0.237949 0.048646 105 143 213
-0.105136 -0.081465 -0.017296 107 147 220
0.045996 -0.265423 -0.027507 254 255 254
-0.073952 -0.185504 0.027530 137 141 146
0.035145 0.267588 -0.025535 255 255 253
-0.081026 0.208099 0.056976 105 143 212
0.245572 0.272085 0.024400 255 255 253
0.135905 -0.265851 -0.002756 253 255 255
-0.102188 0.133510 -0.047007 106 139 201
-0.080328 -0.220135 -0.025662 131 132 137
-0.103361 -0.271197 0.015281 104 146 220
0.054508 -0.279060 0.034640 254 255 255
-0.100106 -0.136892 -0.078525 107 151 233
-0.064205 -0.272762 0.029785 189 191 197
-0.095207 -0.085962 -0.004251 104 149 233
0.069269 -0.266186 0.050438 253 254 253
-0.091967 -0.052565 0.034328 133 133 142
0.262280 0.281466 0.045042 252 252 255
-0.085297 0.181079 0.052017 104 147 224
0.341254 0.271690 0.020020 252 252 253
-0.102648 -0.226192 0.005805 109 144 208
-0.079689 -0.066886 -0.056042 135 137 141
0.002803 0.267952 0.009219 255 254 254
0.071239 0.269590 -0.009322 253 254 254
-0.081994 -0.234537 0.004793 109 139 194
-0.102143 0.123020 0.002408 135 136 139
-0.041740 0.277374 -0.027924 252 254 253
0.230831 0.280330 0.039205 253 254 253
-0.098995 -0.212119 0.014653 131 131 138
-0.094017 -0.251947 0.054212 109 141 199
0.176581 0.275417 -0.019609 253 254 253
0.241154 -0.274797 0.046976 254 255 253
-0.076206 -0.281666 0.042965 254 254 254
-0.081608 0.274113 0.024959 133 136 140
0.042174 -0.266012 -0.019244 253 252 252
-0.083271 0.203544 0.054003 103 149 235
-0.097630 -0.231163 0.044560 104 140 203
-0.098807 0.211121 -0.003078 106 149 230
0.074492 -0.280472 0.000817 254 253 253
0.091736 0.281042 0.067257 254 253 254
-0.090127 -0.053107 0.035740 105 143 217
0.038432 0.268022 0.016190 254 253 254
-0.076260 -0.240031 0.013916 138 132 137
-0.099914 -0.118833 -0.024480 104 151 234
0.080169 0.278811 0.038475 253 253 253
-0.080798 -0.268900 0.037585 132 132 138
-0.095404 -0.098607 -0.051800 105 145 221
-0.085071 0.085979 -0.088497 104 149 234
0.260726 -0.265007 0.055690 254 254 255
0.082420 -0.276612 0.050328 254 254 255
-0.105904 0.115417 -0.082840 131 132 137
0.299296 -0.263632 -0.000104 254 255 254
-0.098738 -0.127426 -0.059648 104 148 233
-0.097259 0.256095 0.020028 104 148 226
-0.032039 0.276633 0.062916 255 254 255
-0.040552 -0.267669 -0.032842 252 253 253
0.247555 -0.265678 -0.010142 255 254 255
0.241878 -0.268347 -0.003937 255 255 255
0.235066 0.281095 0.022398 252 253 253
0.221738 0.280619 0.052014 254 254 255
-0.099211 0.246379 -0.074656 105 146 224
0.075846 -0.268483 0.063677 255 255 253
-0.101068 -0.110312 -0.011234 104 137 197
-0.081845 -0.235209 -0.055490 107 151 233
0.150788 0.280352 0.062120 252 252 253
-0.054745 -0.265482 0.057447 253 253 254
-0.101771 -0.047020 -0.006187 105 148 229
-0.076804 0.278432 -0.038582 105 140 203
-0.101824 0.073279 -0.089486 106 135 189
0.129094 -0.264413 0.003239 192 196 197
-0.105388 -0.165385 -0.071485 106 149 226
0.148370 0.269011 0.014149 255 255 255
0.193759 0.269755 0.021257 255 255 255
-0.082694 0.172816 -0.057743 108 134 182
-0.098645 -0.166408 0.036344 105 149 227
-0.103405 0.055631 -0.085025 104 149 231
-0.085326 -0.271198 -0.041908 255 254 254
0.074000 -0.272276 -0.026890 252 253 254
-0.104676 -0.159932 0.052583 108 147 218
-0.100735 -0.044793 0.008997 106 150 229
-0.080393 -0.185705 -0.073184 108 151 234
-0.082382 -0.128898 -0.040785 107 145 213
-0.083587 0.127718 -0.071384 104 148 233
0.015622 0.268092 0.064670 255 255 253
0.231420 0.280114 0.011957 254 254 253
-0.079057 -0.271232 0.005505 255 255 255
-0.081038 0.110743 0.003783 108 139 193
-0.075616 -0.138777 0.048130 105 145 220
-0.101738 0.241298 0.046472 109 152 232
-0.026039 -0.266938 0.055452 255 253 254
-0.098929 -0.122089 -0.091236 104 150 234
0.321620 0.280161 0.013467 253 252 254
0.083067 0.269180 0.000463 252 253 253
-0.019997 0.267363 -0.021839 254 253 255
-0.091760 -0.253867 -0.068133 108 136 190
-0.017260 0.263955 0.002448 253 254 254
0.021586 0.280125 -0.018149 255 254 254
-0.058449 0.276565 0.000816 253 254 255
0.269134 -0.268482 0.047273 252 254 253
-0.077805 0.169605 0.045496 107 148 229
0.154550 -0.275275 0.017489 253 254 255
0.126185 -0.264264 0.057475 254 253 254
-0.102121 0.112516 -0.054702 111 134 179
-0.102225 0.135312 -0.082220 106 151 234
-0.097905 -0.065145 0.008859 109 134 180
-0.065777 0.276793 0.005839 255 253 255
0.133909 -0.274691 -0.015771 255 255 255
-0.105517 -0.212617 0.005462 136 137 142
-0.076974 -0.043100 -0.000982 104 150 234
0.280169 0.283028 0.001238 252 254 252
-0.103353 -0.124500 -0.067538 107 148 223
0.204602 0.270516 0.008090 254 254 254
-0.082868 -0.040670 -0.028184 106 141 205
-0.022126 -0.267944 -0.024400 254 253 255
0.050700 -0.277056 0.018960 254 253 255
0.134506 0.269688 0.038895 253 254 253
0.059801 0.268749 -0.014236 254 255 255
-0.101001 -0.281601 -0.013568 105 135 190
-0.102133 0.127670 0.044777 105 147 222
-0.098039 0.277355 0.002654 121 135 162
-0.102894 0.063344 -0.023923 137 138 143
-0.000424 0.274785 -0.044434 254 253 254
-0.085564 0.056952 0.041682 132 133 138
0.300808 0.271285 0.050280 255 254 254
0.000769 0.279857 -0.024600 254 253 254
0.228194 0.280023 0.042309 254 255 255
0.008041 -0.269064 -0.031070 251 251 252
0.308380 -0.274831 0.041156 255 255 254
-0.079629 0.214602 0.044095 105 147 223
0.021780 -0.278427 0.050202 254 255 255
0.032946 0.268087 0.048203 255 254 253
0.303701 0.281013 0.006762 255 255 255
-0.104658 -0.166934 0.011415 127 134 138
-0.082099 0.191305 0.026705 105 150 233
-0.088848 -0.062512 -0.078977 107 151 232
-0.039970 0.265179 0.043810 254 253 253
0.110152 -0.275925 0.047480 255 255 255
0.252361 0.274883 0.007789 254 253 254
-0.080168 -0.248905 -0.004548 105 150 233
0.099815 0.269750 -0.013184 253 254 255
-0.081208 -0.284543 -0.010893 106 135 188
-0.078971 0.265232 -0.044123 110 143 200
-0.068881 0.275467 -0.045858 254 253 254
-0.083079 0.028176 -0.054507 105 149 233
-0.026820 -0.280162 -0.012707 255 255 255
-0.081877 0.133443 -0.002180 104 145 217
0.018987 -0.280382 -0.031990 254 253 253
-0.086756 -0.142857 0.050534 134 137 141
0.150459 -0.275481 -0.008583 254 254 254
-0.101636 0.069708 -0.042892 106 150 234
-0.036308 -0.281945 0.049820 255 254 255
0.227896 0.271123 0.051017 254 255 255
-0.068174 -0.282206 -0.034790 255 255 253
0.116347 -0.275922 0.038510 254 255 254
0.331916 0.280152 0.012820 253 255 254
0.214190 0.280229 0.007358 252 254 254
0.218340 -0.274873 0.038124 255 255 254
-0.101576 0.122473 0.033993 139 141 146
-0.096883 -0.132123 -0.050492 104 150 233
-0.093851 -0.199015 -0.079662 133 136 141
0.075996 -0.266674 0.053792 255 255 255
0.069408 -0.276884 0.006235 253 255 255
0.075183 -0.265122 0.059773 255 255 253
0.077256 -0.277149 -0.004760 254 253 254
0.211306 -0.265491 0.017208 254 254 255
-0.011021 -0.283972 0.021059 255 254 254
-0.076612 0.022799 0.033309 103 148 234
-0.098550 0.189418 0.014772 104 142 209
0.303353 -0.265717 0.058273 255 254 254
-0.078036 -0.275249 0.014650 107 147 223
-0.083171 0.192104 -0.045532 103 142 212
-0.047977 -0.280425 0.027529 253 255 255
0.183529 -0.265079 0.005632 252 253 253
0.092455 0.279812 0.047519 253 254 255
0.089423 -0.267184 0.035484 255 255 255
0.372009 -0.274965 0.029814 255 255 253
-0.101080 0.088797 -0.079363 106 134 184
-0.099361 -0.090320 -0.076011 104 150 233
0.147461 -0.265721 0.003743 254 254 254
-0.045868 0.265728 0.036597 255 254 253
0.288398 -0.265253 0.030761 254 254 255
-0.102436 0.268774 -0.054334 110 141 196
0.267052 0.283036 0.004643 254 255 255
-0.038467 -0.280519 -0.035691 252 252 254
0.309183 0.271832 0.041564 254 255 255
0.376628 0.272122 -0.000868 255 254 255
0.089155 0.267700 0.061940 255 255 255
-0.063332 -0.279683 0.009788 254 255 253
0.079885 0.278862 0.061728 255 255 255
-0.091057 0.145870 -0.086529 107 136 186
0.250891 0.276612 0.065793 253 253 254
0.074281 -0.273283 -0.028872 253 255 253
-0.076567 -0.278717 0.006839 118 133 160
-0.095235 -0.119540 0.044224 108 139 198
-0.077735 0.119196 0.042525 106 150 233
-0.079284 -0.139434 0.007741 106 150 233
-0.102196 -0.150537 0.019632 106 150 233
0.298745 0.270658 0.059164 255 253 253
-0.099945 -0.226546 0.033967 104 144 217
0.274783 0.269627 0.062604 253 253 254
0.294759 -0.264410 0.014662 255 253 253
-0.082801 0.083548 -0.024077 103 150 234
-0.076150 -0.135460 0.023521 103 150 234
0.158173 -0.265323 0.008346 252 253 254
0.313262 -0.274167 0.029757 253 253 254
0.258985 -0.266175 -0.006333 255 254 253
0.196424 -0.265779 0.005858 253 254 254
-0.020038 0.278516 0.050393 255 255 255
0.081470 -0.266333 0.007903 253 253 254
-0.076124 0.261848 -0.029636 131 132 138
-0.094882 -0.077488 0.011583 105 147 230
-0.106194 -0.146577 -0.064740 107 152 233
0.319120 -0.274199 0.038199 253 254 252
-0.080132 -0.215961 -0.035825 104 138 201
0.120572 -0.265554 -0.018151 255 254 254
-0.075022 0.033645 -0.006907 106 147 223
0.005776 0.278137 0.036309 253 253 253
-0.098002 0.114205 0.013055 107 143 212
-0.081326 0.119383 -0.066621 104 148 232
-0.098108 0.190130 -0.040514 106 150 229
-0.060189 -0.275257 -0.004803 186 191 205
-0.078560 -0.048829 0.009513 106 149 233
-0.097605 -0.107619 -0.009796 106 148 225
0.331945 0.271706 0.038064 254 253 254
-0.079229 -0.055961 -0.058313 105 140 205
-0.107125 -0.192910 -0.021291 106 150 230
0.257720 0.270751 0.021896 252 252 253
-0.098751 -0.042890 -0.005894 107 146 218
-0.019882 0.278767 -0.010574 180 195 217
-0.105301 0.050972 0.001427 128 136 156
0.254567 0.281395 0.036387 254 253 255
-0.100622 0.023327 0.012838 134 137 140
0.342498 -0.277420 0.049594 254 255 255
-0.084142 0.278553 -0.034373 104 136 193
-0.038195 -0.267846 -0.037765 254 254 253
-0.053876 0.280912 0.013926 252 252 253
-0.009360 -0.279162 0.007837 253 253 254
0.353378 -0.268876 -0.012709 253 255 253
-0.011197 -0.279743 0.022709 252 252 253
-0.084648 -0.275034 0.024484 253 253 254
-0.101183 0.060155 -0.000000 103 139 204
-0.018370 -0.277284 -0.008430 254 255 255
0.048105 -0.279366 0.040190 252 253 253
0.003020 0.279625 0.011611 254 255 255
-0.081901 -0.181653 -0.018555 105 150 233
0.041674 0.267023 -0.005233 255 255 255
0.116695 -0.266033 -0.008821 254 253 253
0.014562 -0.278283 0.007871 254 253 253
-0.080571 -0.273990 0.005656 105 150 230
-0.090667 -0.180238 0.055434 107 142 208
-0.099361 0.124023 0.047966 109 145 211
0.071102 -0.276458 0.035346 255 255 255
0.006737 -0.278981 -0.003859 253 253 252
-0.104770 0.136859 -0.037840 128 131 136
-0.084663 0.224481 -0.032581 106 144 212
0.008121 -0.267206 0.010936 254 254 253
0.356575 -0.275273 0.022503 254 253 253
0.236459 -0.265095 0.029362 254 253 253
-0.081610 -0.047156 -0.035028 107 131 174
-0.079869 0.149987 -0.006606 131 133 139
-0.054416 -0.276766 -0.033818 254 255 254
-0.104282 -0.066328 0.021956 108 142 203
0.003180 -0.278533 -0.017323 252 253 253
0.405753 -0.273254 0.017182 254 253 255
0.189908 0.267967 0.005849 254 253 255
-0.082719 -0.178392 -0.037411 104 149 231
0.001369 0.279467 -0.009414 254 253 254
-0.104898 -0.085330 -0.068080 106 149 232
0.002353 -0.267444 0.043132 253 254 253
-0.104617 0.119519 0.017960 106 145 222
-0.096182 -0.244838 0.030965 105 151 233
0.241316 -0.273536 0.004783 253 254 255
-0.079574 -0.239684 -0.011137 149 177 222
0.173961 -0.265999 0.002316 253 253 253
-0.029282 0.265287 0.050313 253 254 253
-0.078780 0.248137 0.009260 103 144 214
-0.099650 -0.139235 0.038950 134 136 141
-0.102783 -0.196118 0.015248 132 133 138
0.383090 0.275664 0.058162 253 253 254
-0.077419 0.123111 0.036796 132 133 138
0.019310 0.279239 0.062974 253 252 254
-0.086569 0.104305 0.043296 132 136 138
-0.019963 0.266228 0.017714 253 253 253
-0.097069 -0.200798 0.056071 106 143 216
-0.104575 0.048312 -0.005482 104 145 224
-0.055667 0.275535 0.032055 255 253 254
-0.080393 -0.122360 -0.002607 103 148 226
0.057207 0.273293 -0.015395 255 255 255
0.163829 0.280398 0.052990 255 255 253
-0.082458 -0.116428 -0.019663 104 143 216
0.037808 -0.277931 0.002951 255 254 254
-0.103041 -0.143381 -0.066723 130 133 137
-0.016697 -0.279731 0.057012 255 255 255
0.315540 -0.263289 -0.004673 255 254 255
-0.077677 0.057683 0.009151 129 135 145
0.207147 -0.267163 0.065905 255 254 254
-0.099737 -0.262856 0.015479 109 151 226
0.083788 -0.266236 0.022430 254 254 254
0.204698 -0.274947 0.025621 253 254 254
0.278800 -0.265043 0.052753 253 255 255
0.006675 0.278254 0.055355 255 254 255
0.205424 -0.265175 0.013181 255 255 255
0.098397 0.279421 0.016651 255 254 254
-0.049772 -0.280637 0.023160 255 255 254
-0.080303 0.136879 0.028231 104 148 226
0.362344 0.279301 -0.001923 255 254 254
0.174300 -0.265455 0.049184 254 253 254
-0.076846 -0.274533 0.006574 130 133 141
0.191918 0.275458 -0.015730 253 253 254
-0.095321 -0.046124 -0.039738 107 150 232
0.052816 0.280789 0.059561 255 254 255
0.200384 -0.278360 0.004057 253 253 253
0.145245 -0.264900 0.041956 253 254 255
-0.100540 0.052081 0.024838 129 132 135
-0.083651 0.063638 -0.030006 130 133 139
-0.034618 0.279320 -0.036777 254 254 253
0.250364 -0.273908 0.045001 252 253 252
-0.033962 -0.278842 0.070510 255 253 255
0.207262 0.270112 0.052973 255 253 253
0.077468 0.267470 0.052721 253 253 255
-0.102613 -0.138326 0.046066 105 142 208
-0.080751 0.228779 -0.073791 132 132 137
0.288789 0.271717 0.003121 252 252 252
-0.038253 -0.265849 -0.030071 253 253 253
0.050794 0.277999 0.062148 254 255 255
0.074771 -0.267460 0.041454 253 253 255
-0.104890 -0.177148 -0.012688 108 144 209
-0.087585 -0.281238 0.007775 104 145 221
0.024237 -0.277944 0.003147 252 253 253
-0.081445 0.050704 0.039252 105 144 212
-0.074235 -0.206058 0.005113 107 141 200
-0.073048 -0.269139 0.036214 253 254 255
-0.097587 -0.112340 0.021320 106 144 215
0.066169 -0.266776 0.014465 255 255 255
-0.076500 0.265873 -0.005430 254 253 253
-0.098822 0.161093 -0.083955 132 134 143
-0.053644 0.277663 -0.000337 253 252 253
0.109950 -0.276259 -0.012438 255 254 253
0.083311 -0.276841 0.002056 255 255 255
0.357237 0.268819 0.005017 255 255 255
0.077522 0.268344 0.041540 253 254 255
-0.078432 0.178570 0.015584 131 136 141
-0.089501 0.172535 0.048564 108 133 182
-0.062591 -0.267652 -0.032158 254 254 254
0.237483 0.279737 -0.005169 254 255 255
-0.105493 -0.190496 -0.031840 110 132 174
-0.100163 -0.217453 -0.058642 106 151 232
-0.075948 0.098199 0.022505 133 131 138
0.019535 0.267358 -0.025782 253 255 253
0.340650 0.270070 0.036489 254 255 255
0.028251 0.280819 -0.035043 255 255 255
-0.098473 0.018063 0.006792 111 131 169
-0.096241 0.062539 0.020124 106 145 219
-0.030905 -0.269146 0.017357 254 254 254
-0.105740 -0.247127 -0.069826 126 135 141
0.221490 -0.265940 0.037418 254 254 253
-0.103878 0.167015 -0.064443 105 141 207
-0.077151 0.275710 -0.051345 252 251 252
0.357742 0.280169 0.011576 252 252 252
-0.083041 -0.118699 0.045138 110 138 192
-0.013377 -0.281647 -0.006235 252 252 254
-0.082538 0.107469 -0.080771 105 149 230
0.365441 -0.265292 -0.002641 252 253 253
-0.080102 0.228851 0.032487 107 140 197
0.323152 -0.274859 0.009712 254 255 255
-0.099321 -0.058351 0.033834 106 151 233
-0.096298 -0.077195 -0.051733 106 150 234
0.242599 0.271790 0.018728 252 254 253
-0.106423 -0.167938 0.011944 106 148 227
0.052001 -0.277001 0.015521 255 255 253
0.297655 0.270053 0.056319 254 253 253
-0.090680 0.200439 0.051066 104 149 233
-0.096643 0.245059 0.040529 105 143 215
0.250292 0.281227 0.005721 255 255 255
-0.066676 -0.269807 -0.001670 255 254 255
-0.078769 0.273898 0.037642 254 252 254
-0.082041 0.203615 0.017186 106 150 232
0.072867 -0.277259 -0.031332 254 254 255
-0.006118 0.279348 -0.028064 255 255 255
-0.095747 -0.228693 0.058238 105 151 232
-0.083130 0.128444 -0.065602 105 150 233
-0.080085 -0.118426 0.005018 104 145 225
-0.098968 0.033796 0.010044 133 134 139
0.260721 -0.273493 0.017056 254 254 254
-0.083631 -0.200197 -0.047745 104 138 196
0.382401 -0.273178 0.019009 254 253 255
0.159828 -0.277094 -0.009903 252 252 252
-0.102789 0.056797 -0.079379 107 144 213
0.261171 -0.274662 0.022848 255 255 255
0.163269 0.279558 0.019887 255 255 254
-0.101139 0.105557 -0.089735 105 150 234
0.078864 -0.268577 -0.027475 252 254 252
-0.040013 0.265373 -0.038339 254 255 254
-0.101238 -0.177785 -0.006744 104 150 233
0.036831 -0.264045 0.012895 253 252 254
-0.102901 0.096995 -0.029365 132 132 137
0.274846 0.280602 0.023588 251 252 252
0.340972 -0.261503 -0.002729 251 252 252
-0.102179 -0.102006 0.019448 104 147 224
0.256287 0.270296 0.026640 254 253 253
-0.101724 0.180005 -0.082909 105 147 227
0.293891 0.275629 0.000482 253 253 255
0.026893 -0.266449 -0.017577 252 255 252
-0.079214 -0.056810 -0.066908 104 147 226
0.244094 0.271070 0.021282 252 252 254
0.286085 -0.264869 0.013054 253 253 253
-0.081433 -0.061931 -0.014972 130 130 136
0.051191 -0.277554 -0.024750 253 255 254
-0.102758 0.249624 -0.053614 105 149 230
0.383663 -0.277275 0.052712 255 255 253
0.084139 -0.275701 0.004598 254 254 253
-0.084362 0.219584 0.056868 108 138 194
-0.081318 -0.076945 -0.070855 107 151 233
0.240905 -0.264794 0.012868 254 255 255
-0.104450 -0.044475 -0.026509 107 141 200
0.033711 -0.265841 0.054969 255 253 255
-0.078616 -0.174636 -0.085230 104 148 228
-0.097488 0.283845 -0.021046 133 135 139
0.044907 0.281626 -0.034725 254 253 254
-0.100838 -0.051891 -0.067308 106 149 226
-0.093438 -0.269766 -0.060410 107 142 208
-0.018660 -0.267776 -0.016860 253 254 254
-0.001848 -0.278373 0.025243 252 252 253
0.320071 -0.276523 0.050439 253 255 253
-0.047884 0.264914 0.029922 255 255 255
-0.102005 -0.161936 -0.005995 103 142 215
0.140866 -0.265954 0.008515 253 255 254
-0.095609 -0.104209 -0.047412 103 143 217
0.282722 -0.264922 0.024372 253 255 254
-0.077242 0.045264 -0.060616 103 148 230
-0.103993 -0.052846 -0.042440 106 152 233
0.054571 0.280370 -0.019948 253 253 255
-0.005135 0.279812 0.001669 252 253 253
-0.095260 -0.271262 0.036595 127 130 137
0.327707 0.271989 -0.007104 253 255 255
0.060032 -0.279175 0.043264 254 254 254
-0.079829 0.134870 0.039344 103 150 235
-0.030221 -0.283003 -0.025945 254 255 254
-0.099907 0.184634 0.031962 104 147 227
-0.075490 -0.243121 0.051323 129 130 135
-0.022164 -0.280794 -0.033946 251 252 253
-0.086594 0.081764 0.040758 105 144 213
-0.086411 -0.151378 0.048959 105 147 226
0.199043 0.280420 0.026162 253 254 254
0.052614 -0.265980 0.040036 253 253 254
-0.080581 0.171641 0.020250 110 136 188
0.392838 0.276985 0.053027 255 254 254
-0.097553 0.160963 -0.025728 106 149 229
0.012097 0.278177 0.028082 252 254 253
0.108010 0.279775 0.047863 253 253 255
0.240997 -0.273428 -0.005175 254 254 253
-0.083960 -0.085325 -0.029772 106 150 232
-0.101565 0.280232 -0.027336 117 129 149
0.015453 -0.281998 -0.015730 252 254 254
0.315191 0.280900 0.010866 252 253 252
-0.100101 -0.166781 0.019030 110 140 195
-0.082086 0.157169 -0.044519 105 150 232
-0.081885 -0.165371 -0.025988 104 145 218
0.212837 -0.263576 0.056588 255 255 255
-0.077333 -0.177361 0.048945 145 151 159
-0.096986 0.268538 -0.003552 131 135 139
-0.103053 -0.198095 0.052160 127 131 137
0.271050 0.280747 0.036578 254 255 253
0.405108 0.280490 0.019517 252 254 254
0.029971 0.281439 0.029185 254 255 255
0.285106 -0.264703 0.045289 253 254 255
-0.100359 -0.274737 0.018299 106 145 216
-0.105526 -0.219745 0.016968 106 146 225
0.142640 0.281833 -0.016564 254 254 254
0.332750 -0.276484 0.056084 254 253 254
0.053793 0.280264 -0.019286 253 254 253
0.329323 0.281949 0.043961 252 252 253
-0.083029 -0.272655 -0.015173 254 254 254
-0.097856 -0.102766 -0.043324 129 131 137
-0.103992 -0.206451 -0.015529 134 136 141
0.055884 -0.265812 0.035508 253 254 254
0.135444 0.279431 -0.003842 253 254 254
-0.082382 0.139802 -0.005632 104 149 232
0.196429 0.277514 -0.013626 251 251 252
0.368278 0.271824 0.033327 253 254 255
0.181851 0.280697 -0.011023 254 254 255
-0.051440 -0.279793 0.062256 255 255 253
-0.080345 0.113785 0.021398 102 141 214
0.191018 0.270499 0.039702 255 255 255
0.253647 -0.272175 -0.005910 253 254 255
-0.081558 -0.104850 0.006258 105 142 209
-0.075091 -0.277394 0.018107 129 132 137
0.096503 0.267917 -0.023753 253 255 255
-0.083811 0.075032 -0.005602 104 137 199
0.167696 0.279094 -0.000897 253 253 253
0.078043 0.269495 0.034193 255 255 255
0.097502 0.277140 0.065803 252 254 253
-0.077783 -0.191098 0.030184 131 136 141
-0.078406 0.142840 0.050906 122 135 161
0.166115 0.267604 0.068218 254 254 255
-0.078765 0.257058 0.002207 103 138 202
-0.001777 0.267024 -0.008767 253 253 255
0.261788 0.270456 0.002801 253 255 254
-0.078064 -0.229657 0.028784 111 134 176
0.061575 0.279285 0.029405 254 253 255
0.047585 -0.277067 0.021238 255 254 254
-0.081246 -0.071097 -0.012913 104 140 206
0.116962 -0.266590 0.029408 253 253 254
0.157965 0.279378 0.002500 255 255 255
0.339559 0.271506 0.041806 255 255 253
-0.081987 -0.124783 -0.010090 107 140 200
-0.100779 -0.164322 0.048759 106 150 233
-0.014254 -0.279061 0.019976 254 254 254
0.133263 -0.276462 -0.020615 254 254 253
0.242956 -0.269698 0.064229 255 255 254
0.259037 0.275874 0.001493 255 253 255
-0.003222 0.262386 0.046061 255 255 255
0.043872 -0.277224 0.003217 253 253 254
0.367003 -0.277426 0.038532 254 254 254
0.372786 -0.275420 0.040561 255 254 253
0.310849 0.268997 0.011370 255 255 255
0.359228 0.269332 -0.009138 252 253 253
-0.067867 -0.271190 0.065848 254 254 253
-0.101734 0.154024 -0.042985 103 150 234
-0.011766 -0.279186 -0.025493 253 253 253
-0.082672 0.020938 -0.021430 104 149 234
0.076385 -0.265765 0.055355 253 253 254
-0.098223 0.097126 0.018414 105 149 231
-0.040382 -0.276876 -0.034181 255 255 254
0.352685 0.269929 0.056840 255 254 255
0.162010 0.269877 -0.006083 254 255 255
0.217786 -0.275387 0.014813 254 255 254
0.063692 -0.274901 0.058311 255 255 254
0.297557 -0.265051 0.036297 255 253 254
0.209484 -0.275996 -0.005284 255 255 253
0.103313 -0.276666 0.005810 254 253 253
0.305709 0.272186 0.035538 252 253 254
-0.101239 -0.168765 -0.028080 104 147 224
-0.095684 0.021404 -0.009335 107 151 233
-0.104354 0.156873 0.005466 105 151 234
-0.068676 0.271080 -0.036006 255 255 255
0.199517 0.271464 -0.010922 252 252 252
-0.052095 -0.265678 -0.008226 254 254 254
0.134753 -0.276025 -0.015189 255 255 254
-0.092649 -0.234162 0.057755 104 148 226
0.016090 -0.265418 0.057036 253 255 253
0.152601 0.278852 0.066347 255 255 253
0.193217 -0.265317 0.028837 254 254 254
0.245927 -0.261604 0.054361 254 255 255
0.226497 -0.265326 0.048860 254 255 253
-0.090374 0.046355 0.033740 103 147 229
-0.099837 -0.162282 0.018321 106 152 234
-0.080573 0.144652 0.018225 132 135 141
-0.087661 -0.115004 0.040287 103 137 201
-0.100470 0.117900 -0.037107 108 132 176
0.159238 -0.276345 0.050677 255 255 254
-0.100454 0.024656 0.015461 104 150 233
-0.102810 -0.239947 0.019638 109 141 198
-0.097324 0.190628 -0.085203 105 146 221
-0.104295 0.102279 0.022734 107 140 201
-0.084231 0.273864 -0.015764 128 130 135
-0.076817 0.264312 0.006876 253 254 254
-0.080542 0.178648 -0.007254 131 135 141
-0.096111 0.276819 -0.028255 107 147 221
0.144672 0.270440 0.063432 255 254 254
-0.080612 -0.272932 -0.037507 105 137 196
0.252610 -0.267548 0.005349 253 253 254
-0.080937 -0.131543 -0.064523 105 136 192
0.322086 -0.263795 0.002833 254 253 254
-0.074189 -0.219972 0.050852 168 173 182
0.350830 -0.274750 0.034242 252 252 252
-0.082892 0.064703 -0.013861 104 147 230
-0.080257 0.271605 0.009965 107 152 234
0.082247 0.278027 0.046830 252 253 253
-0.104338 0.209110 0.016368 135 138 144
-0.002249 -0.267774 -0.016261 255 254 254
-0.061705 0.264190 -0.031897 253 254 254
0.307427 -0.263316 0.007569 254 252 253
0.173310 0.269712 0.025661 254 253 253
0.099611 -0.265685 0.053671 252 253 254
-0.091563 0.087364 0.039795 106 131 177
0.309094 -0.265109 0.026021 255 255 253
-0.082420 -0.127339 -0.044680 112 137 185
0.243768 0.281284 0.027303 254 255 254
-0.074164 -0.157353 0.050338 104 149 228
-0.030040 0.278309 0.053408 255 254 255
0.274516 -0.264763 0.014692 254 255 253
-0.064601 -0.265337 0.058443 253 252 254
0.238451 0.280206 0.012317 252 254 253
0.243735 0.282262 0.023474 253 253 253
0.278484 -0.265077 0.043145 254 253 255
-0.032842 0.274145 -0.030907 253 254 254
0.283569 0.271306 0.049518 253 255 254
0.211588 0.280861 0.027042 253 253 254
-0.103015 -0.241797 -0.062548 105 146 218
0.021128 0.278921 0.038151 255 254 255
-0.101121 0.070257 0.033340 103 138 199
0.217176 -0.264492 0.024647 253 252 253
-0.098101 0.055222 -0.019369 108 136 189
0.283577 -0.273559 0.060501 254 254 254
0.222824 0.280021 0.013346 253 252 253
0.005763 -0.278629 -0.000268 253 253 254
-0.080650 0.128831 -0.083291 104 135 192
-0.105686 -0.165407 0.036577 106 151 230
-0.103850 -0.077022 -0.017652 106 146 219
-0.079770 -0.079029 -0.055737 134 136 142
-0.080808 0.195620 -0.061760 130 132 138
-0.086472 -0.036223 -0.009723 108 150 228
-0.077971 -0.181685 0.000157 129 129 134
-0.097277 -0.068163 -0.004451 128 131 139
-0.093797 -0.273257 0.030598 104 150 231
0.213230 0.276483 -0.011917 252 253 255
0.055921 0.265385 -0.021804 255 254 255
0.225577 -0.276031 -0.001304 252 254 254
-0.003250 0.279102 -0.023890 253 255 255
-0.061384 -0.269599 -0.031448 253 253 252
-0.093325 0.271722 -0.046603 106 150 230
-0.101849 -0.118583 0.010812 106 149 229
0.120246 -0.278067 0.042581 254 255 255
0.170491 0.280125 0.009796 254 254 253
-0.021879 0.280757 -0.037447 253 255 255
0.347222 0.278833 0.048892 255 255 255
0.038983 0.267678 0.033056 255 253 253
-0.095275 0.195285 -0.080565 104 147 230
0.267017 0.284349 -0.004365 253 254 253
-0.096205 -0.060793 -0.078814 106 148 225
-0.096672 0.035455 -0.070258 105 150 235
0.231700 -0.273071 0.048890 253 254 254
0.314255 0.280858 0.024412 255 254 254
-0.080420 -0.160749 -0.002488 106 136 194
0.212958 -0.265822 0.019465 253 253 253
0.339548 0.280875 0.065338 254 254 254
-0.106786 0.187825 -0.015878 105 149 231
0.258943 -0.272358 -0.003518 255 253 253
0.243465 0.277631 0.066510 255 254 254
-0.101466 0.245657 -0.017635 137 137 141
-0.094652 -0.036883 0.014405 106 151 232
-0.083276 -0.042075 0.022950 107 148 225
-0.097710 -0.148682 -0.086205 128 130 136
-0.075213 -0.092146 0.035142 133 137 141
0.037134 -0.265916 -0.007469 252 252 255
-0.084358 0.046316 -0.000329 103 149 233
0.000648 0.267199 0.006966 254 255 254
-0.099716 -0.285705 -0.006882 106 136 188
0.290954 0.277989 0.001795 255 255 255
0.196689 0.270320 0.055997 255 255 255
0.355920 0.272577 0.024446 255 254 253
0.268814 0.271025 0.033180 254 254 254
-0.102031 -0.283393 -0.004563 106 136 192
-0.103322 0.086699 -0.055074 131 132 138
-0.076577 -0.246780 -0.008592 104 149 231
0.001354 -0.267563 -0.022018 252 252 253
-0.089189 -0.211916 -0.043925 128 132 136
0.035655 0.269643 -0.009739 253 253 254
0.142076 -0.274557 0.020955 254 254 254
-0.076459 0.125652 0.036829 104 149 233
0.197485 -0.272824 0.024863 254 255 255
0.227821 -0.265504 0.014069 255 255 255
-0.097576 0.098992 0.002696 106 137 193
-0.098910 0.187731 0.013848 104 141 205
-0.100586 -0.049063 -0.028195 105 149 230
0.333388 0.271106 0.034030 254 254 255
0.031187 0.268063 0.020677 255 254 255
0.016575 -0.266974 -0.001657 254 253 254
-0.044765 0.278316 0.024485 252 253 253
0.335352 0.280242 0.015310 253 254 253
0.086878 -0.265575 0.058706 254 254 253
0.101930 -0.276200 0.026153 253 254 252
-0.080751 0.036935 -0.055292 127 130 134
-0.034580 0.268935 -0.047224 255 255 254
0.068723 0.268697 0.042176 254 254 254
-0.078273 -0.087055 0.028206 106 149 232
-0.082735 0.057295 -0.024720 135 138 143
0.082727 -0.266439 0.010152 254 255 255
-0.095416 -0.140767 -0.088885 106 139 199
0.285180 -0.265219 0.026093 253 254 254
-0.036315 -0.279721 0.044042 253 253 253
0.088293 0.275186 -0.021635 253 254 254
-0.079639 0.071243 -0.014456 108 134 181
0.146410 0.279577 0.055698 254 253 255
0.343711 -0.265966 0.042464 254 254 253
-0.052561 0.278037 -0.000313 252 255 252
0.268935 -0.272877 -0.003823 255 255 254
-0.107246 0.159174 -0.033351 128 132 138
-0.098043 -0.178022 -0.003171 105 149 226
0.093075 0.265933 0.017765 255 253 254
0.062041 0.281414 0.053211 253 255 255
-0.104105 -0.162975 -0.087109 108 138 195
-0.105236 -0.174395 -0.055045 110 134 180
0.182058 0.280514 0.001302 255 254 254
-0.105132 0.167116 -0.024028 104 148 232
-0.106154 0.096963 -0.052176 108 144 210
0.177198 0.268388 0.018139 255 253 254
-0.053510 -0.280088 -0.016022 255 254 254
0.021913 0.271299 -0.038779 252 252 253
0.080794 0.278448 0.002174 253 254 254
0.127341 -0.273135 -0.021498 254 255 253
0.298032 -0.264075 0.054683 253 254 253
