ply
format ascii 1.0
element vertex 1180
property float x
property float y
property float z
property uchar red
property uchar green
property uchar blue
end_header
0.348040 0.269698 0.064201 255 253 255
-0.106065 0.018971 -0.023245 105 151 236
-0.088251 0.072766 -0.069956 102 149 236
0.183599 0.278873 0.004647 255 254 254
0.255570 0.268334 0.003900 254 255 255
-0.055829 -0.272051 -0.016813 255 255 254
0.194732 -0.264811 -0.014053 254 254 255
-0.077237 0.279012 -0.022078 254 254 255
-0.070981 -0.283801 0.055655 253 254 253
-0.101661 0.125590 0.002224 103 148 235
-0.109387 0.158295 0.044736 104 149 235
0.045528 0.268886 0.014084 254 255 255
0.058218 -0.278456 0.019728 255 254 255
0.069764 0.276957 -0.035822 255 253 255
0.257062 -0.272641 0.010695 254 253 254
-0.023310 0.269035 -0.038746 255 253 255
-0.103800 0.165520 0.050805 130 132 138
-0.106469 -0.116720 0.013334 102 143 219
0.191876 0.278496 0.053030 255 254 255
0.143586 0.278842 -0.000757 255 254 255
-0.090486 0.166286 -0.084031 104 150 235
0.327696 0.269504 0.050323 255 254 254
0.055076 0.271603 -0.033465 255 255 254
-0.105149 0.238755 -0.051481 104 149 235
-0.087351 -0.161882 -0.041321 104 150 235
-0.000219 0.267701 -0.037093 254 255 253
-0.105995 0.189533 -0.059201 104 141 210
-0.063807 0.277561 -0.020876 255 255 255
-0.098923 -0.069958 -0.085217 103 147 231
-0.070230 0.267727 -0.035695 255 255 254
-0.107067 0.252829 0.047381 102 147 228
0.147669 -0.265128 0.030159 254 254 254
-0.101046 0.067625 -0.044757 104 149 235
-0.096447 -0.051463 0.020735 131 133 137
-0.065798 -0.272159 0.062054 253 255 255
-0.089546 0.057272 -0.047637 103 149 235
0.366880 -0.258512 0.017508 254 253 254
0.080225 0.263329 0.000495 255 255 254
0.238849 -0.258678 0.032916 255 253 255
-0.115048 -0.185071 -0.078499 119 135 170
0.249559 0.267807 0.058661 255 254 254
0.381053 -0.271410 0.042821 255 255 255
0.247885 -0.261394 0.033549 254 255 255
0.005745 0.262775 -0.035331 254 255 253
0.333474 -0.270832 0.019536 255 255 254
0.157888 -0.263875 0.028851 255 255 255
-0.104557 -0.206062 -0.054152 103 147 227
0.247510 -0.261386 0.036999 254 255 254
0.131596 -0.276482 0.006870 255 255 254
-0.088121 0.218146 0.054338 102 149 235
-0.092198 0.215145 0.056133 105 151 237
-0.101770 0.180493 -0.035342 103 148 229
-0.112032 0.105712 0.030508 102 150 236
0.152151 -0.264723 0.038071 253 255 255
0.324561 -0.259283 0.010899 255 254 255
-0.062305 -0.280401 -0.034547 253 253 253
-0.109181 -0.071924 -0.026240 105 150 234
-0.089528 0.201286 0.022074 104 150 234
-0.091849 0.119213 -0.005894 104 150 236
0.129380 -0.265708 0.016610 253 254 254
-0.113976 0.095893 -0.023662 103 138 202
-0.077247 0.267231 0.006873 255 255 255
-0.060931 0.263141 0.055521 253 254 253
-0.106335 -0.218395 -0.083355 107 144 213
0.006447 -0.268781 0.025375 255 255 255
-0.104646 -0.162309 0.000964 105 147 228
-0.085185 0.224162 -0.024243 102 149 235
0.187822 0.278893 0.002405 254 254 255
-0.090203 0.071045 0.013115 103 143 216
-0.086634 -0.237879 -0.061930 102 149 236
0.103154 -0.274167 0.053174 255 254 255
-0.085553 0.090238 -0.052616 104 150 235
-0.109444 -0.128880 -0.054412 102 150 236
0.329536 -0.259061 0.024793 253 254 254
-0.004824 0.278044 -0.029110 255 254 253
-0.082677 0.085843 -0.036927 105 149 231
-0.083996 0.222967 -0.036952 102 148 234
-0.107222 0.106606 -0.063915 103 147 228
-0.043700 0.268100 -0.006250 255 255 255
-0.059504 -0.268643 0.008965 255 255 255
-0.009170 -0.279396 0.012680 255 254 254
-0.105126 -0.270638 -0.060159 106 141 205
-0.092814 -0.257498 -0.066543 103 146 224
0.007738 -0.281290 0.014292 254 255 255
0.278659 -0.274937 0.041733 255 253 253
-0.108325 0.184885 -0.080704 133 134 143
-0.108794 0.020092 -0.020376 103 149 235
-0.106342 0.218726 -0.027836 103 150 235
0.333733 -0.271660 0.035358 253 254 254
0.160324 0.269487 -0.001990 253 253 254
-0.107841 0.219985 -0.068054 102 147 229
0.384580 0.266792 0.015322 255 254 255
0.234152 0.279098 0.045440 254 253 255
0.247096 0.273926 0.067673 254 253 254
0.264234 0.279198 0.013629 253 252 255
-0.078247 0.048455 0.005949 103 146 225
-0.096953 -0.053619 0.034342 102 150 236
-0.091981 -0.181367 0.055807 103 149 236
-0.097541 -0.092511 -0.092667 103 149 236
-0.106128 -0.083276 -0.012486 103 147 231
-0.083563 -0.131244 -0.085565 104 148 235
-0.110542 0.124601 -0.009903 102 149 235
0.116017 0.279671 0.008256 254 254 254
0.189009 -0.272759 0.031897 254 254 255
-0.085625 -0.111074 0.026148 103 144 220
-0.108188 -0.171381 -0.087510 105 150 235
0.103291 -0.265864 0.005185 255 255 253
-0.109544 -0.133417 -0.037212 103 150 235
0.201946 -0.262847 0.036386 254 255 255
-0.103447 0.018773 -0.020318 103 143 217
-0.001932 0.278843 -0.014306 255 255 255
-0.081602 -0.129059 -0.026863 103 145 220
0.099101 -0.277855 0.030696 254 254 254
-0.108466 0.073849 -0.025301 103 138 201
0.205015 0.276434 -0.001707 210 209 211
0.143252 -0.263297 -0.013273 254 255 254
0.227484 0.264649 -0.005357 254 253 253
0.159650 -0.266415 0.050460 253 255 255
0.380754 -0.264641 -0.002083 254 254 255
-0.089878 0.212088 0.055885 104 148 235
0.013237 0.276907 0.022504 254 254 253
-0.100546 0.094260 -0.092130 104 150 234
-0.098191 0.259563 -0.069494 103 134 194
0.170220 0.277599 0.047328 255 253 254
-0.075654 0.269104 0.011864 174 176 177
0.017243 0.272613 -0.034063 254 255 255
-0.080211 -0.182593 0.025199 102 151 236
-0.108204 -0.225336 -0.074751 104 150 237
-0.085841 0.126813 -0.039624 102 149 234
0.116808 -0.263292 0.039887 193 195 197
0.096294 0.279434 0.004704 255 255 254
-0.089600 0.108588 -0.018135 105 149 230
-0.108197 -0.040955 0.017104 103 148 231
0.275544 0.279061 0.022940 254 254 253
0.084674 0.267617 0.027650 255 254 255
-0.087822 -0.069998 -0.048430 105 147 222
-0.029827 -0.268625 0.029304 253 254 254
-0.105644 0.067481 -0.014822 103 149 235
-0.062936 0.276858 0.062797 254 255 254
-0.077790 -0.108555 -0.061583 102 149 235
0.305477 -0.260589 0.002637 254 254 254
-0.108981 0.164022 0.008615 103 149 235
0.349841 -0.258469 0.048681 254 253 253
-0.112654 -0.148471 0.044617 103 145 219
-0.089328 -0.155629 0.032276 104 150 235
-0.087567 0.200827 -0.000357 103 147 225
0.355384 0.269164 0.029700 255 255 254
-0.083527 -0.085467 0.005893 102 149 235
0.166421 -0.277214 0.002261 254 253 254
0.206873 0.264384 -0.001323 254 253 255
-0.055550 0.260396 0.018016 255 255 253
-0.087365 0.084442 -0.007380 103 150 236
-0.104052 -0.250939 0.050733 104 138 204
-0.088425 -0.268832 -0.034028 134 135 140
0.079959 0.269209 0.033753 254 255 255
-0.081595 0.120918 -0.080062 135 140 146
0.350450 -0.260345 0.016883 254 254 253
0.067806 0.268135 0.025896 255 255 255
-0.088423 0.092203 -0.089166 104 142 215
-0.107538 -0.164264 -0.032615 104 149 235
-0.088852 -0.221748 -0.078992 102 148 231
0.253531 -0.263678 0.002430 255 253 253
-0.089156 -0.093643 0.006015 136 141 147
0.333125 -0.269877 0.025171 255 255 255
-0.108163 -0.224753 0.017350 103 147 228
0.201257 -0.263068 0.032150 254 255 255
-0.010756 -0.280031 0.046225 253 255 254
-0.107609 0.035954 -0.016423 134 138 142
-0.085762 0.270956 -0.000743 103 146 224
0.126319 -0.265455 0.034590 253 255 255
-0.086195 -0.206277 -0.067332 133 136 140
-0.103424 0.132199 -0.010699 102 148 236
-0.083661 -0.169279 -0.063177 103 147 225
-0.053047 -0.270941 0.002502 255 254 255
-0.099091 -0.061225 -0.016656 104 150 236
-0.080119 -0.254593 0.042386 105 149 233
0.366053 0.273140 -0.000671 254 254 255
0.006013 0.277198 0.016508 254 255 255
-0.010723 -0.270365 0.050319 254 254 253
-0.112369 -0.074454 -0.058534 105 150 235
0.169668 -0.261524 0.057201 254 254 255
-0.103854 0.232523 -0.046091 104 149 234
0.134880 0.277092 0.027683 255 255 255
-0.034752 0.280036 0.014252 254 255 255
-0.056271 -0.282021 -0.037510 253 254 254
0.352962 0.271762 0.003932 255 255 253
-0.107055 0.268517 -0.042035 102 139 206
0.210501 0.267143 0.043779 255 255 254
-0.099664 0.089639 -0.091691 102 139 206
-0.097639 0.250584 -0.075089 103 148 233
-0.087237 0.271533 0.051430 255 255 255
-0.088322 0.046919 -0.059484 140 143 147
-0.022316 0.265190 0.063027 255 255 254
-0.086060 -0.279646 -0.044161 104 150 233
-0.084530 -0.245457 -0.078041 129 131 138
0.356485 0.269080 0.020757 255 254 254
-0.102589 0.084890 -0.091306 104 150 236
-0.008707 -0.281107 0.034291 255 255 255
0.348694 -0.261882 -0.000957 255 255 255
-0.099227 -0.221027 -0.056812 102 145 223
-0.040775 0.279351 0.023289 254 253 254
0.159235 0.278425 0.053679 255 254 254
-0.108098 0.164692 -0.018308 102 146 223
-0.110520 -0.146916 0.043025 104 151 235
0.269394 0.277979 0.037445 253 254 253
-0.106918 -0.270288 -0.058658 104 150 236
-0.104388 -0.221807 -0.057148 140 132 137
0.049760 -0.277037 0.008397 255 255 255
-0.061933 0.277530 0.057724 253 253 253
0.124145 -0.264044 -0.012321 253 254 254
0.355329 0.280370 0.020268 254 253 253
0.319731 -0.260331 0.040712 252 253 254
0.192442 0.276709 0.061771 255 255 254
0.173500 -0.262980 0.050854 253 255 255
0.318674 -0.267086 0.060011 254 255 254
-0.105806 -0.174907 -0.011262 104 143 215
-0.108911 -0.221536 -0.078467 103 149 235
-0.085001 -0.184679 -0.020696 138 143 149
-0.113427 -0.181147 -0.058473 106 142 207
0.162343 0.282897 -0.006452 255 255 255
-0.083809 -0.244674 -0.076391 105 146 222
-0.088880 0.121611 -0.086991 104 148 235
-0.087876 -0.065564 0.023352 105 151 235
-0.111935 -0.198356 0.010269 103 145 218
-0.085349 0.190413 -0.039312 103 150 235
0.038264 -0.267321 0.008974 254 253 253
-0.105413 0.179831 0.046632 105 150 233
0.165287 -0.276021 0.062368 254 255 255
-0.087873 0.149178 -0.020845 104 150 235
0.126627 0.267813 -0.018395 255 255 255
-0.106429 0.230010 -0.058364 104 150 236
0.048865 -0.264660 0.065857 255 254 254
-0.085937 0.098654 -0.047178 102 149 236
0.317667 0.268550 0.043661 253 254 254
0.287935 0.268427 0.035362 255 255 254
-0.082962 -0.074954 -0.004703 128 131 136
0.023242 0.269506 0.025432 255 255 254
0.076538 0.279438 -0.031456 255 255 254
0.072052 -0.276802 -0.017994 253 253 254
0.201881 -0.261730 0.058335 253 255 255
-0.102869 0.106570 0.006686 104 136 196
0.100413 0.274974 0.062263 253 254 254
-0.109506 -0.174422 -0.051568 102 144 217
-0.108186 0.140010 0.015103 104 148 231
-0.088718 -0.125810 -0.067765 102 146 223
0.243795 0.277596 -0.005584 255 254 253
0.039896 0.280418 0.047091 253 254 254
-0.086230 0.182870 0.029232 104 150 235
0.139860 -0.262900 0.056988 253 255 255
0.180730 -0.270801 0.058573 255 255 255
0.247260 -0.261319 -0.004461 254 255 254
-0.104576 0.208635 -0.081522 103 149 234
-0.106625 -0.101930 -0.093048 102 147 229
-0.110111 0.208942 0.004417 103 150 235
-0.113618 -0.223448 -0.043085 104 148 234
-0.078097 0.088915 -0.002057 122 160 229
0.239620 0.268558 0.017797 255 255 254
-0.028271 0.277058 0.023711 255 253 254
-0.085118 -0.188790 0.047919 102 149 234
-0.103227 0.172780 -0.005006 103 149 232
0.382817 0.270295 0.045323 254 254 255
0.071624 0.268856 -0.021035 253 254 255
-0.086445 -0.241427 -0.010369 102 150 235
-0.081930 0.205438 -0.078248 133 138 143
-0.101147 0.088397 0.022418 102 150 236
-0.024796 -0.273464 0.064854 254 255 254
-0.102323 0.025023 -0.017043 102 143 220
-0.086187 -0.081036 0.027006 128 132 137
-0.103804 0.061896 -0.018579 104 149 235
-0.022149 -0.280587 0.017772 253 254 255
-0.082788 0.273322 -0.009731 254 255 254
0.192332 0.267573 -0.002391 253 255 255
-0.081753 0.201432 0.055292 136 138 143
0.171849 -0.264005 0.034808 254 254 254
-0.106593 -0.108605 0.025168 102 148 235
-0.057064 0.273407 -0.042455 255 255 255
-0.108559 -0.214112 0.048048 104 149 233
-0.107154 -0.202209 0.051200 103 140 210
-0.027062 -0.283204 0.001089 255 255 255
0.114893 0.277534 0.021719 255 255 255
0.156729 0.266413 0.060788 254 254 254
-0.103396 -0.093239 0.025215 105 150 235
-0.102672 0.242416 0.052991 102 142 215
-0.082448 -0.061045 0.033794 131 132 137
-0.088525 -0.171518 -0.070500 102 148 234
-0.104138 0.253495 -0.027458 104 148 231
-0.088395 -0.226067 -0.057600 103 148 229
-0.021050 0.278038 0.026758 254 255 254
0.112278 -0.270289 -0.006946 253 253 254
0.020653 0.276994 0.053914 254 254 255
-0.081389 -0.187008 0.011443 104 150 236
-0.105690 -0.137000 -0.033871 135 135 141
0.029660 -0.274428 0.063400 253 253 254
0.222113 -0.260678 0.023148 255 253 254
0.014419 -0.278489 -0.017648 254 255 253
-0.080819 -0.103443 -0.020391 103 148 235
0.156657 0.272565 -0.020934 255 255 255
0.233048 0.281022 0.050481 255 253 254
-0.000589 -0.279238 -0.007399 255 255 253
0.322530 0.277681 0.018549 255 255 255
-0.082115 -0.138828 -0.084635 104 150 235
-0.081811 0.262393 -0.042409 103 150 236
-0.099248 -0.091858 -0.045842 102 146 227
-0.079900 0.274933 -0.032184 254 255 253
-0.085054 -0.229292 0.032709 105 136 196
0.030985 0.266984 -0.035021 255 255 255
-0.092975 0.043974 0.014966 105 151 234
0.310510 -0.258785 -0.000799 255 254 254
-0.109707 -0.259742 0.012033 103 148 234
-0.051728 -0.285403 0.007094 254 254 255
0.072867 0.264238 0.047019 255 255 253
-0.068890 -0.280866 0.012488 255 254 255
0.178142 -0.277105 0.022428 255 254 253
-0.107218 -0.051258 0.026694 104 150 235
0.115908 0.283124 -0.023926 254 255 255
-0.101813 -0.109484 -0.040734 104 138 202
0.173354 -0.275134 0.014748 255 255 255
0.324247 0.278201 0.016517 255 255 255
-0.019531 -0.268417 -0.027584 253 254 255
0.238490 -0.263965 -0.007136 255 253 254
-0.088124 -0.164544 -0.038324 104 151 235
-0.085423 -0.035478 -0.033800 103 141 214
-0.109929 -0.183023 -0.030204 102 149 236
-0.016399 0.279421 0.001961 253 254 255
-0.095183 0.218831 -0.078061 106 140 200
-0.087960 0.200128 0.038516 129 132 139
0.347783 0.278114 0.021407 255 255 253
0.358658 0.278296 0.035743 254 254 253
0.309955 0.273261 0.008786 255 253 253
-0.101365 -0.031957 0.007081 104 150 235
-0.096451 -0.142331 0.050290 133 133 139
-0.105337 0.256071 0.042181 106 147 221
-0.096438 0.256220 -0.067711 103 148 233
-0.085681 -0.198490 -0.062607 137 133 139
-0.104266 -0.270035 0.027189 129 136 144
-0.105632 -0.171283 -0.023192 104 150 233
0.098843 -0.275169 0.056929 253 255 255
0.167208 0.275653 0.068785 255 254 254
-0.106731 0.112687 -0.041990 102 149 235
-0.090541 0.248134 -0.024475 104 151 236
-0.084911 0.188701 0.007671 104 148 226
0.016814 -0.272538 0.063048 255 255 254
0.025663 -0.271903 -0.030283 255 255 255
0.126980 -0.264386 0.014183 254 255 253
-0.079878 0.205342 0.030850 105 150 236
0.377600 -0.259810 0.017465 254 255 255
-0.025912 0.278371 -0.041711 255 254 253
-0.084145 0.167290 -0.061682 103 149 235
0.077216 -0.263654 -0.022473 255 255 255
-0.091697 -0.123637 -0.095030 103 148 235
-0.084742 -0.099784 -0.046436 104 144 217
-0.101619 -0.250222 0.028972 104 140 209
-0.101239 -0.230486 0.045848 104 149 234
-0.104009 -0.026944 0.009370 103 148 230
0.171096 0.276970 0.039319 255 255 255
-0.108713 0.064046 -0.031494 103 150 236
-0.035546 -0.281260 0.012682 255 255 255
-0.090621 -0.110276 0.011116 104 150 236
0.129228 -0.262461 -0.016765 253 254 255
0.225697 0.266509 0.043703 255 254 254
-0.092508 -0.261975 0.048759 106 139 204
0.287140 0.279639 0.015317 254 254 255
-0.100839 0.038122 0.017263 102 148 234
0.139472 0.275044 -0.022035 255 255 255
-0.088761 -0.239643 -0.053231 103 150 236
-0.104596 0.205959 0.049999 103 149 233
0.200401 -0.262836 0.029600 255 255 254
-0.083780 -0.267657 -0.051303 103 149 234
-0.100065 -0.216230 -0.035990 104 151 236
-0.084782 0.274502 -0.043163 104 146 220
-0.021977 0.267851 -0.016688 255 255 253
-0.098366 0.093369 0.041990 138 141 149
-0.106496 -0.046378 -0.056071 131 136 142
-0.091636 -0.252416 -0.004103 129 132 137
-0.084910 0.244731 -0.073169 105 147 229
0.191719 0.279251 0.031359 253 254 254
-0.001919 -0.269019 0.012027 254 255 254
-0.055062 0.275579 0.021444 255 255 254
0.272726 -0.271615 0.026699 255 255 255
0.001731 -0.278267 0.028150 254 254 255
-0.102931 -0.216032 0.034334 139 133 139
-0.106596 -0.143750 0.047748 134 140 146
0.252160 -0.260836 0.009059 252 253 253
-0.082642 -0.116808 -0.048831 103 150 236
-0.087995 0.112296 -0.057410 104 149 235
0.098241 -0.278699 -0.022285 255 254 255
-0.092814 -0.259783 0.046726 104 150 235
0.096966 -0.266935 0.020229 254 253 253
-0.085788 -0.263381 -0.046495 104 147 226
0.120654 0.278549 0.065493 254 255 255
-0.104829 -0.158947 -0.090345 103 150 236
-0.065389 -0.273265 -0.034816 255 255 253
0.139996 0.267818 0.042937 255 255 254
-0.096092 -0.040773 -0.028284 135 135 139
-0.091432 0.213468 -0.048225 104 150 235
-0.101353 -0.100074 0.039461 103 149 234
0.402946 -0.259117 0.029970 255 254 253
-0.078891 -0.142503 -0.006879 102 150 236
0.345924 0.265701 0.065402 255 255 254
0.243369 -0.274128 0.025143 255 255 255
0.013776 -0.278673 -0.027895 255 255 255
0.282908 -0.260919 0.037099 253 254 253
-0.045560 -0.281614 -0.006715 253 254 253
0.211911 -0.272687 0.037856 255 255 254
-0.087534 -0.160961 0.023242 104 149 233
-0.087889 0.072045 -0.078836 105 150 235
-0.000434 0.275283 -0.021697 255 254 255
-0.086144 0.100522 0.043730 102 149 229
-0.091871 0.102223 -0.066141 102 150 234
-0.066284 -0.270709 0.015039 253 254 254
0.233469 0.268475 0.048386 255 255 253
0.168184 -0.264776 -0.017421 255 254 254
-0.090859 -0.123320 -0.052787 103 144 222
-0.084807 -0.115667 0.033944 103 149 236
0.373295 -0.269309 0.020755 255 255 254
0.345038 0.278962 0.046501 253 254 255
0.002940 0.280305 -0.027098 255 253 255
0.312810 -0.272236 0.029878 254 253 255
-0.089158 -0.207695 -0.018550 103 150 234
-0.085922 -0.079321 -0.002775 103 149 233
-0.093145 0.035560 -0.017752 103 150 235
-0.084700 -0.087942 0.027501 131 136 142
0.058074 0.268857 0.001587 255 255 254
-0.086347 -0.251462 -0.009712 104 151 236
0.071624 0.268739 0.050946 255 255 255
-0.068486 -0.280173 -0.034210 253 253 254
0.007582 0.278797 -0.040649 254 253 255
-0.100089 0.154898 -0.008657 104 138 205
0.245358 -0.261277 0.015124 254 253 255
0.085414 -0.277317 0.013313 193 192 194
0.141640 0.267843 0.021582 255 254 255
0.014240 0.279650 -0.019183 255 255 255
-0.106397 0.151429 0.045919 105 151 236
-0.021515 0.264679 -0.016955 255 255 254
-0.106628 0.237286 0.014170 104 150 235
-0.106146 -0.144790 0.016848 102 148 235
-0.102958 0.105107 0.039579 103 149 234
0.328853 0.268181 0.041380 254 255 255
-0.083529 0.191228 0.015983 105 150 233
0.005373 0.268860 0.014857 255 253 255
-0.026807 -0.268998 -0.024348 255 255 255
-0.085422 -0.072384 -0.080450 103 150 236
0.213749 0.278521 0.007283 253 254 253
-0.074572 -0.278776 -0.018554 254 254 253
0.321941 -0.258780 0.027311 253 255 253
-0.086560 0.198560 -0.020181 106 139 200
-0.025187 0.263020 0.040016 254 255 254
-0.105826 0.185903 -0.071457 102 150 235
-0.094142 0.060335 -0.086387 106 138 202
-0.025914 0.279524 0.003715 254 255 254
0.078205 0.265804 0.001449 254 254 253
-0.086132 -0.094873 -0.075101 104 150 236
0.037792 0.266132 0.040130 254 255 255
0.254384 0.280319 0.003575 252 252 253
-0.085882 -0.192442 0.009360 104 150 234
-0.062856 -0.272815 0.009619 255 254 254
-0.078879 -0.194669 -0.042346 139 138 144
0.179629 -0.263372 0.050224 254 255 254
0.113892 -0.272290 0.064896 255 255 253
-0.110003 0.141677 -0.032921 105 150 230
-0.112478 0.189360 -0.035634 107 139 196
0.147776 -0.274301 -0.019588 254 254 253
-0.081530 0.044560 -0.083202 105 150 234
0.369225 -0.255550 0.058988 255 255 255
0.386071 -0.267679 0.057272 255 254 254
-0.086617 0.139703 -0.011707 103 148 235
-0.107214 -0.091506 -0.068935 102 149 235
-0.099913 -0.243430 -0.001617 103 139 206
0.259232 -0.272077 -0.007061 253 253 254
-0.099049 -0.249713 -0.033667 103 149 235
0.024277 0.279200 -0.002653 255 255 254
0.087639 0.268002 -0.027047 254 255 255
-0.078558 0.278541 0.036022 255 253 254
-0.092099 0.091602 -0.089793 102 149 235
-0.059219 -0.282072 0.046044 254 255 255
-0.103357 -0.161586 0.013986 102 150 234
-0.031708 -0.279566 0.042162 254 255 254
0.035813 -0.266420 0.018936 255 254 255
-0.086349 -0.280130 -0.042444 254 255 253
-0.086820 -0.140488 -0.029900 105 151 234
-0.009909 0.277501 -0.013324 254 255 254
-0.081467 -0.231884 0.007344 101 148 232
0.082267 0.269086 0.064806 255 255 255
0.120199 0.268396 0.014207 255 255 255
-0.083648 -0.119668 0.042515 102 135 196
-0.085447 -0.272279 -0.062486 104 147 232
-0.104972 0.217060 0.005183 104 149 233
-0.113177 0.081986 -0.087452 104 149 234
0.169666 -0.264564 -0.009793 255 254 254
-0.095084 0.279494 0.000306 103 149 236
0.241957 -0.272682 0.015664 255 254 255
-0.103744 -0.125382 -0.095323 102 149 236
-0.100681 0.273181 0.022992 102 139 207
0.042417 0.265097 0.031673 254 255 255
-0.083638 0.192709 -0.007431 103 145 224
-0.008250 -0.279537 -0.018480 254 254 255
-0.111029 0.160911 -0.001149 102 138 204
0.032153 -0.278495 -0.021920 254 255 255
0.017284 -0.268596 0.050956 255 254 255
0.380621 0.270218 0.018601 255 255 255
-0.082649 0.106153 0.009363 102 148 233
0.380093 0.277658 0.010483 255 253 253
-0.091859 -0.194727 -0.028030 105 146 222
-0.041961 0.279337 0.061888 255 255 255
-0.061124 -0.283025 -0.030790 253 253 255
-0.110145 0.097100 -0.061154 104 149 235
0.385579 -0.272095 0.057332 255 254 255
0.081477 -0.267512 0.045153 253 255 255
-0.108616 -0.118120 -0.094551 103 150 235
0.325996 -0.268147 0.060796 255 255 255
0.329243 0.270345 0.035958 255 254 255
0.142906 -0.268264 -0.021877 254 254 254
0.241945 0.269117 0.056245 254 255 253
0.029735 -0.267634 -0.013968 255 254 255
0.113108 0.279431 0.001826 254 255 253
-0.078876 0.177937 0.025513 102 144 219
-0.052367 -0.274816 -0.003943 254 255 255
0.028167 0.278750 0.058027 255 255 254
0.144858 0.264585 0.033394 254 253 253
0.384117 -0.271833 0.043555 253 255 253
-0.029013 -0.280951 -0.028088 254 255 255
-0.067839 0.276544 0.052700 255 255 254
-0.104639 0.236704 0.048558 103 148 232
-0.110228 -0.081413 -0.019308 105 150 233
0.052518 -0.264620 -0.024784 254 255 254
0.321207 -0.266525 0.042161 252 253 253
0.041123 0.267161 -0.023220 255 255 253
-0.086568 0.207025 0.055846 103 148 231
0.253300 0.270911 0.025601 255 255 254
0.144336 -0.263780 -0.001675 253 255 255
-0.106615 0.131862 -0.048053 104 147 231
-0.085659 -0.217367 -0.026427 132 134 140
-0.109622 -0.272680 0.013756 103 149 233
0.055190 -0.279602 0.035360 255 255 255
-0.103949 -0.136321 -0.080659 105 151 236
-0.021352 -0.281449 0.037490 255 253 254
-0.098735 -0.086533 -0.006474 102 149 236
0.072047 -0.267352 0.050546 253 254 253
-0.097451 -0.054571 0.032267 115 136 178
0.266743 0.279825 0.045539 252 252 255
-0.087812 0.180866 0.050874 103 150 235
0.348820 0.271967 0.021580 253 253 254
-0.108322 -0.224882 0.003230 106 149 230
0.182667 -0.262252 -0.001886 254 254 253
0.005562 0.267859 0.010947 255 255 254
0.075391 0.269806 -0.007756 253 255 254
-0.088800 -0.232140 0.002160 105 145 218
-0.101482 0.123633 0.005724 138 139 143
-0.043388 0.276381 -0.026102 253 254 254
0.235717 0.278696 0.039908 254 254 253
-0.100522 -0.210722 0.011311 129 134 145
-0.099559 -0.252103 0.054499 105 146 220
0.183547 0.273852 -0.018438 254 255 253
0.246577 -0.272143 0.048106 254 255 253
-0.081021 -0.282463 0.043251 255 255 255
-0.084308 0.273784 0.023358 136 139 144
0.046424 -0.266760 -0.017639 254 253 253
-0.085719 0.202677 0.050208 102 149 237
-0.101717 -0.229953 0.042843 102 146 225
-0.103874 0.210187 -0.004186 104 150 235
0.074565 -0.282180 0.001895 254 253 253
0.097319 0.279904 0.068699 255 253 254
-0.095974 -0.053070 0.034925 103 148 234
0.042371 0.269454 0.017618 254 254 255
-0.081920 -0.238996 0.012723 142 133 139
-0.103869 -0.119277 -0.026457 103 151 236
0.082633 0.276373 0.038812 254 253 253
-0.083415 -0.267473 0.035460 134 135 141
-0.100828 -0.098791 -0.054036 103 149 234
-0.088617 0.084781 -0.090362 103 149 236
0.266871 -0.260181 0.056790 254 254 255
0.085642 -0.276809 0.050790 255 255 255
-0.108251 0.113723 -0.083445 132 134 139
0.306502 -0.258739 0.000809 255 255 255
-0.092307 -0.129129 -0.062593 102 149 236
-0.101146 0.255543 0.019017 103 149 235
-0.031459 0.275535 0.061623 255 254 255
-0.041836 -0.268683 -0.031519 253 254 253
0.256198 -0.261445 -0.009795 255 255 255
0.248896 -0.264466 -0.003030 255 255 255
0.240032 0.278981 0.023126 253 254 253
0.226706 0.278563 0.052675 254 254 255
-0.104030 0.245936 -0.075405 103 148 235
0.080425 -0.268072 0.064139 255 255 254
-0.105413 -0.109850 -0.013534 102 145 222
-0.088462 -0.234086 -0.057434 105 151 236
0.155311 0.279442 0.062644 253 253 253
-0.056343 -0.267813 0.056612 254 253 254
-0.107358 -0.046342 -0.008244 103 149 235
-0.081855 0.277754 -0.040580 102 146 225
-0.106394 0.071879 -0.091294 102 143 221
0.347348 -0.258351 0.007616 252 254 254
-0.111420 -0.165086 -0.073280 104 150 234
0.157579 0.266277 0.015921 255 255 255
0.199718 0.266813 0.022357 255 255 255
-0.087013 0.168822 -0.059004 103 142 216
-0.104229 -0.166070 0.034569 103 150 235
-0.106714 0.052742 -0.087205 102 149 236
-0.090142 -0.273134 -0.040577 255 254 254
0.074126 -0.272341 -0.025615 253 254 255
-0.108989 -0.158432 0.052551 105 150 232
-0.082822 -0.035808 0.023761 174 187 199
-0.084734 -0.188259 -0.074076 106 151 236
-0.085190 -0.128192 -0.043111 104 149 232
-0.088283 0.126070 -0.073116 102 148 236
0.019815 0.267414 0.063695 255 255 253
0.235857 0.280357 0.013085 255 255 253
-0.084647 -0.272239 0.006765 255 255 255
-0.086479 0.110738 0.001245 104 146 221
-0.082134 -0.137253 0.047189 103 149 234
-0.109144 0.240185 0.045688 106 151 236
-0.025270 -0.269922 0.054928 255 253 254
-0.103721 -0.121748 -0.095900 102 149 236
0.328737 0.278501 0.015175 254 253 254
0.088071 0.269602 0.002019 253 254 254
-0.017835 0.265964 -0.020000 255 254 255
-0.096866 -0.252921 -0.070660 104 143 217
-0.013554 0.261262 0.003888 253 254 255
0.025080 0.279865 -0.016253 255 254 254
-0.060888 0.277514 0.002139 254 255 255
0.275961 -0.265121 0.048417 253 255 253
-0.086144 0.168739 0.044775 105 150 235
0.154778 -0.274531 0.018066 253 254 255
0.136507 -0.262965 0.057342 255 253 254
-0.106565 0.110710 -0.056159 104 142 212
-0.106233 0.132936 -0.084052 105 151 236
-0.102579 -0.065538 0.004972 103 141 213
-0.068790 0.273199 0.007407 255 253 255
0.139794 -0.272896 -0.014530 255 255 255
-0.085874 -0.267589 0.016833 184 187 188
-0.081003 -0.041675 -0.003059 103 150 237
0.286506 0.281296 0.001489 252 255 253
-0.108321 -0.124439 -0.069530 105 150 234
0.211759 0.269199 0.009483 254 254 255
-0.087823 -0.040353 -0.031256 104 147 228
-0.021563 -0.269713 -0.022302 255 253 255
0.051826 -0.276642 0.019991 254 254 255
0.139528 0.268357 0.039520 254 254 253
0.066330 0.268644 -0.012142 254 255 255
-0.106017 -0.281814 -0.015645 102 143 220
-0.106584 0.127060 0.044382 103 150 234
-0.104602 0.273925 -0.000504 105 142 210
-0.103108 0.062241 -0.020320 145 148 153
0.001995 0.274698 -0.042940 254 254 255
-0.088805 0.057692 0.044772 134 136 141
0.309848 0.269718 0.051525 255 255 255
0.001992 0.279080 -0.022828 255 253 254
0.233245 0.277541 0.042929 254 255 255
0.009755 -0.269173 -0.028893 252 252 253
0.314722 -0.271187 0.042895 255 255 255
-0.086377 0.213526 0.043210 103 150 234
0.024297 -0.278259 0.050225 255 255 255
0.036778 0.269024 0.048933 255 254 254
0.310257 0.279425 0.008310 255 255 255
-0.111790 -0.165329 0.006402 104 138 195
-0.086093 0.190485 0.025111 104 150 236
-0.093475 -0.061299 -0.081449 105 151 236
-0.041094 0.265633 0.044404 255 254 253
0.115033 -0.275352 0.048188 255 255 255
0.258592 0.276328 0.009156 254 254 254
-0.087198 -0.249109 -0.006576 104 150 236
0.102940 0.269201 -0.011820 254 255 255
-0.087201 -0.284605 -0.013244 103 142 213
0.160686 0.279919 -0.005893 252 252 253
-0.071206 0.276678 -0.043908 255 254 254
-0.087177 0.026638 -0.057835 104 149 236
-0.027337 -0.282026 -0.010978 255 255 255
-0.087641 0.132761 -0.003604 103 149 233
0.019022 -0.281894 -0.029324 255 254 253
-0.090414 -0.142961 0.052878 137 142 148
0.152589 -0.273716 -0.008234 254 254 254
-0.085424 0.067980 -0.044962 104 150 236
-0.037090 -0.283869 0.049796 255 254 255
0.235134 0.270400 0.051821 254 255 255
-0.072211 -0.284092 -0.033182 255 255 253
0.119084 -0.274559 0.039449 255 255 254
0.339738 0.278681 0.014975 254 255 254
0.217832 0.279877 0.008203 253 255 254
0.225160 -0.272097 0.039251 255 255 255
-0.065434 0.266512 0.045500 254 253 253
-0.085842 -0.131225 -0.052661 103 151 236
-0.105300 -0.194212 -0.078160 106 142 207
0.083256 -0.266601 0.053903 255 255 255
0.072533 -0.276295 0.007660 254 255 255
0.081923 -0.264940 0.059822 255 255 254
0.078470 -0.276309 -0.003562 254 254 255
0.219579 -0.261433 0.018175 255 254 255
-0.011627 -0.287120 0.021799 255 254 254
-0.083137 0.022353 0.031737 102 149 236
-0.103531 0.188181 0.013697 102 148 230
0.313835 -0.260344 0.060051 255 254 255
-0.084533 -0.276615 0.012937 105 150 234
-0.085042 0.190052 -0.046931 101 149 232
-0.049663 -0.282478 0.027946 253 255 255
0.189296 -0.263166 0.006361 253 254 253
0.097448 0.277744 0.047553 253 255 255
0.096503 -0.267208 0.036147 255 255 255
0.378227 -0.270281 0.031938 255 255 254
-0.102014 0.087706 -0.080654 102 141 212
-0.104467 -0.090304 -0.078181 102 150 236
0.157246 -0.263470 0.004769 255 254 255
-0.045962 0.267098 0.037545 255 254 253
0.296822 -0.260127 0.032087 254 254 255
-0.106069 0.268875 -0.055407 105 147 223
0.272034 0.280592 0.005175 254 255 255
-0.107273 -0.219615 -0.076720 104 150 237
0.317207 0.270171 0.042692 254 255 255
0.384393 0.270407 0.004103 255 254 255
0.098050 0.266293 0.062037 255 255 255
-0.066713 -0.281566 0.010686 254 255 254
0.085023 0.278558 0.061360 255 255 255
-0.095267 0.142902 -0.087981 103 143 216
0.258392 0.274005 0.066364 254 253 255
0.079245 -0.273058 -0.026944 254 255 253
-0.083809 -0.280281 0.003694 105 138 201
-0.100617 -0.118821 0.044453 105 146 224
-0.084025 0.118664 0.042217 105 150 236
-0.084516 -0.139296 0.005576 105 150 236
-0.107884 -0.150231 0.017719 104 150 236
0.308135 0.267992 0.060724 255 254 254
-0.106114 -0.226215 0.032210 103 148 233
0.284305 0.266435 0.063274 253 254 254
0.304340 -0.259229 0.015946 255 254 253
-0.085434 0.082910 -0.025976 102 150 236
-0.080684 -0.134003 0.020928 102 150 237
0.163052 -0.263360 0.009001 253 254 254
0.318574 -0.270514 0.031307 254 254 254
0.267675 -0.262023 -0.005794 255 254 253
0.204525 -0.262389 0.006990 254 255 255
-0.020677 0.279585 0.050161 255 255 255
0.084472 -0.266201 0.008750 254 253 255
-0.081340 0.254647 -0.033667 106 136 191
-0.099579 -0.078506 0.009383 103 148 235
-0.112000 -0.142937 -0.067274 105 151 236
0.324568 -0.270875 0.039916 254 255 253
-0.083946 -0.213335 -0.039286 102 146 229
0.129716 -0.263233 -0.016615 255 254 254
-0.077092 0.033992 -0.009211 105 150 234
0.006532 0.276525 0.036702 254 254 254
-0.101666 0.113546 0.011572 105 149 233
-0.083993 0.117888 -0.068386 103 149 236
-0.103398 0.189707 -0.041399 104 151 235
-0.101994 -0.232957 -0.036025 105 150 236
-0.085180 -0.047987 0.007609 104 150 236
-0.101606 -0.107993 -0.011935 104 150 234
0.340604 0.269925 0.039418 254 254 255
-0.086207 -0.054941 -0.062327 103 147 232
-0.113271 -0.192634 -0.023210 104 150 235
0.264024 0.267563 0.022950 253 253 253
-0.106424 -0.042320 -0.008382 104 150 233
0.102587 0.278710 0.003606 253 254 255
-0.111797 0.049878 -0.003403 106 143 215
0.259094 0.277601 0.036999 255 253 255
-0.022856 0.268449 0.030469 205 208 203
0.348532 -0.272746 0.051696 255 255 255
-0.087629 0.278892 -0.035250 101 143 219
-0.038149 -0.268744 -0.036379 254 255 253
-0.056974 0.281041 0.014546 253 253 254
-0.009846 -0.280169 0.008816 254 254 254
0.356638 -0.263173 -0.012690 254 255 254
-0.012075 -0.280774 0.023196 253 253 253
-0.090523 -0.277558 0.025254 254 254 255
-0.107172 0.060541 -0.001667 102 147 228
-0.019610 -0.269661 -0.006943 254 255 255
0.048304 -0.280127 0.040778 253 254 254
0.004218 0.278956 0.012864 254 255 255
-0.087460 -0.181408 -0.020613 103 151 236
0.048984 0.266698 -0.003011 255 255 255
0.121640 -0.263837 -0.007665 255 254 254
0.014953 -0.278269 0.009073 254 254 254
0.131177 -0.276417 0.030408 253 255 254
-0.096552 -0.179885 0.056966 104 148 230
-0.103154 0.124476 0.047045 106 150 231
0.073816 -0.275420 0.036073 255 255 255
0.008040 -0.280079 -0.002422 254 253 253
-0.109777 0.131298 -0.041322 117 132 156
-0.090377 0.223199 -0.033045 104 149 232
0.010184 -0.268802 0.011815 254 254 253
0.362615 -0.269598 0.024389 254 254 253
0.244079 -0.261456 0.030324 255 254 254
-0.083835 -0.045443 -0.038377 101 138 206
-0.089647 0.145720 -0.014071 103 142 212
-0.057427 -0.279573 -0.032236 254 255 254
-0.110235 -0.065735 0.020999 105 147 227
0.002555 -0.279272 -0.015610 253 254 254
0.411939 -0.267937 0.020495 255 253 255
0.198064 0.264737 0.007415 255 254 255
-0.086618 -0.177771 -0.039618 102 150 235
0.001981 0.278927 -0.007780 254 254 254
-0.110651 -0.085430 -0.069954 104 149 236
0.004801 -0.269019 0.042763 254 255 254
-0.111366 0.118484 0.017109 104 148 234
-0.099445 -0.245134 0.028736 104 151 236
0.243337 -0.269140 0.005278 253 254 255
-0.109288 -0.147888 -0.045333 105 152 236
0.178871 -0.263285 0.003052 254 254 253
-0.031005 0.265447 0.050291 254 255 254
-0.084443 0.246643 0.007960 102 149 232
-0.098262 -0.138745 0.045063 137 140 147
-0.108157 -0.194020 0.014155 134 136 143
0.393926 0.273826 0.060810 254 254 255
-0.082512 0.122424 0.029463 134 136 142
0.020084 0.278388 0.062570 253 253 255
-0.089296 0.103853 0.041571 133 138 141
-0.017302 0.263889 0.019134 254 254 253
-0.103033 -0.201110 0.056675 104 148 234
-0.110177 0.047671 -0.007233 103 148 235
-0.057368 0.275348 0.032950 255 254 254
-0.085589 -0.121904 -0.004994 102 150 234
0.062687 0.276870 -0.013330 255 255 255
0.168467 0.279030 0.053728 255 255 254
-0.086005 -0.116405 -0.022274 103 148 234
0.039725 -0.277982 0.004291 255 254 254
-0.106354 -0.142629 -0.067590 131 135 140
-0.016599 -0.282534 0.056783 255 255 255
0.323528 -0.257773 -0.004307 255 255 255
-0.081578 0.060251 0.003851 104 143 214
0.215920 -0.264474 0.064706 255 255 254
-0.019163 -0.281101 0.029467 252 254 254
0.088316 -0.265969 0.023532 255 254 254
0.206936 -0.273211 0.026419 254 255 255
0.287027 -0.259435 0.053889 254 255 255
0.006753 0.277927 0.055199 255 255 255
0.213554 -0.262488 0.014419 255 255 255
0.102790 0.277154 0.017748 255 254 254
-0.051930 -0.283134 0.023688 255 255 255
-0.085677 0.136073 0.026632 103 150 234
0.369917 0.276768 0.002670 255 255 254
0.182392 -0.263763 0.049641 254 253 254
-0.084343 -0.276588 0.003785 105 137 196
0.198172 0.273698 -0.014660 253 253 254
-0.098734 -0.044937 -0.042843 105 150 235
0.055977 0.279665 0.059601 255 254 255
0.199626 -0.275662 0.004241 254 254 253
0.148591 -0.264336 0.042514 254 254 255
-0.102421 0.049878 0.024119 130 133 138
-0.091574 0.063605 -0.034802 103 142 212
-0.035670 0.278326 -0.035408 254 255 254
0.255262 -0.271241 0.046107 253 254 253
-0.034199 -0.280548 0.070968 255 253 255
0.215999 0.266348 0.053849 255 254 254
0.085504 0.264118 0.052838 254 254 255
-0.108194 -0.137847 0.045016 103 147 227
-0.084156 0.225032 -0.072743 134 134 140
0.295032 0.267808 0.004452 253 253 253
-0.035702 -0.265253 -0.028923 254 254 254
0.056043 0.277729 0.061764 254 255 255
0.077435 -0.267819 0.041571 254 253 255
-0.111071 -0.176722 -0.014949 105 149 230
-0.092976 -0.283004 0.005820 103 148 233
0.024163 -0.278165 0.004130 253 254 254
-0.086810 0.051355 0.036965 104 149 231
-0.078077 -0.204258 0.001197 105 147 222
-0.077388 -0.269677 0.036277 254 254 255
-0.101925 -0.112296 0.019156 104 149 233
0.073189 -0.266798 0.015470 255 255 255
-0.079926 0.266458 -0.003010 255 254 254
-0.104823 0.156077 -0.087942 105 140 207
-0.055861 0.278036 0.001327 254 253 254
0.113572 -0.275150 -0.011255 255 254 254
0.087308 -0.275837 0.003592 255 255 255
0.364946 0.266771 0.008568 255 255 255
0.081607 0.265760 0.041686 253 254 255
-0.090528 0.173962 0.005482 104 143 214
-0.095527 0.169392 0.050102 103 142 218
-0.066017 -0.268555 -0.031562 254 255 254
0.243354 0.278056 -0.004189 255 255 255
-0.111581 -0.187806 -0.034280 103 140 209
-0.104352 -0.217008 -0.060180 104 151 236
-0.079853 0.102745 0.013186 134 134 141
0.024765 0.268903 -0.023695 254 255 253
0.350009 0.267244 0.037964 254 255 255
0.031718 0.280327 -0.033531 255 255 255
-0.105106 0.017300 0.002466 103 139 207
-0.099916 0.062105 0.018402 104 149 234
-0.030241 -0.269859 0.017916 254 254 254
-0.111013 -0.242915 -0.072730 103 141 207
0.229474 -0.261956 0.038156 254 255 254
-0.109517 0.166008 -0.064948 102 148 229
-0.080261 0.277551 -0.049581 253 252 253
0.365389 0.278696 0.014231 253 253 253
-0.089088 -0.117638 0.044676 105 145 222
-0.016586 -0.283703 -0.005088 253 253 255
-0.085026 0.106454 -0.082296 104 150 235
0.370598 -0.259040 -0.001343 253 254 254
-0.091077 0.227824 0.031801 103 146 223
0.328329 -0.271433 0.011869 254 255 255
-0.103425 -0.056613 0.033720 105 151 236
-0.099589 -0.077298 -0.053472 104 150 236
0.248939 0.270407 0.019826 253 255 253
-0.112873 -0.168109 0.010154 104 149 235
0.053897 -0.276543 0.016701 255 255 253
0.306137 0.267729 0.057831 255 253 254
-0.094962 0.199636 0.052452 103 150 236
-0.101013 0.244187 0.040641 103 148 234
0.256688 0.278881 0.007035 255 255 255
-0.070256 -0.270242 -0.000640 255 255 255
-0.082962 0.273637 0.037988 255 253 255
-0.085864 0.203312 0.015891 105 150 236
0.077548 -0.277537 -0.029115 255 255 255
-0.004774 0.278478 -0.026313 255 255 255
-0.101343 -0.229665 0.058124 104 151 236
-0.090338 0.127314 -0.066685 104 150 236
-0.085531 -0.118656 0.002580 103 148 235
-0.100957 0.032660 0.007965 135 137 143
0.266653 -0.268704 0.018370 255 255 255
-0.089436 -0.198153 -0.049409 102 145 221
0.387425 -0.267561 0.021239 255 254 255
0.159317 -0.275792 -0.009580 253 253 253
-0.106977 0.055650 -0.081243 104 149 232
0.267615 -0.271581 0.024078 255 255 255
0.169508 0.277714 0.021073 255 255 255
-0.105001 0.103287 -0.091856 103 149 236
0.084501 -0.267462 -0.026032 253 254 253
-0.039050 0.265462 -0.036071 255 255 254
-0.106974 -0.177801 -0.008911 103 150 236
0.046183 -0.263307 0.013850 254 253 254
-0.105346 0.094577 -0.030759 134 134 140
0.280754 0.278197 0.024416 252 253 253
0.347806 -0.256175 -0.001961 252 253 253
-0.107245 -0.102219 0.017741 103 149 234
0.264199 0.266829 0.027927 255 254 254
-0.106320 0.178493 -0.083869 103 149 235
0.299979 0.273410 0.000478 253 254 255
0.032446 -0.267505 -0.015834 253 255 253
-0.083486 -0.056331 -0.069717 102 149 235
0.253965 0.268897 0.022213 253 253 255
0.292528 -0.259934 0.014377 253 253 254
-0.088793 -0.066665 -0.019914 109 133 178
0.054386 -0.278100 -0.021824 253 255 254
-0.108986 0.248977 -0.054386 104 150 235
0.391011 -0.273130 0.055845 255 255 254
0.087082 -0.276049 0.005873 255 255 253
-0.089506 0.218016 0.056495 104 145 220
-0.091132 -0.076548 -0.072967 105 151 236
0.251170 -0.260055 0.014052 255 255 255
-0.110082 -0.043377 -0.028672 104 146 223
0.039385 -0.266822 0.054844 255 254 255
-0.084465 -0.173213 -0.088427 103 150 235
-0.101344 0.284930 -0.021179 135 137 143
0.047946 0.281656 -0.033125 254 253 254
-0.105409 -0.050999 -0.070158 104 150 235
-0.098136 -0.270902 -0.062975 105 148 230
-0.019204 -0.270649 -0.015364 253 254 254
-0.002234 -0.278572 0.025706 253 253 253
0.326016 -0.272052 0.052255 254 255 253
-0.047534 0.265676 0.030935 255 255 255
-0.107839 -0.161595 -0.008282 102 148 234
0.150904 -0.263407 0.009448 254 255 255
-0.103443 -0.104092 -0.049940 102 148 234
0.292870 -0.259379 0.025637 254 255 255
-0.080120 0.045110 -0.063094 102 149 235
-0.108629 -0.051928 -0.044731 104 151 236
0.054984 0.279267 -0.018826 253 254 255
-0.005298 0.278503 0.002973 253 254 254
-0.100060 -0.272323 0.034262 104 135 191
0.333177 0.270260 -0.003287 254 255 255
0.060864 -0.279675 0.043993 255 254 254
-0.086032 0.134098 0.037732 102 150 237
-0.031730 -0.285297 -0.023651 254 255 254
-0.106065 0.183369 0.030670 103 149 235
-0.080904 -0.241725 0.049528 130 132 138
-0.023617 -0.282002 -0.031294 252 253 253
-0.090941 0.082071 0.038889 104 149 232
-0.091601 -0.151263 0.050820 104 149 235
0.204208 0.278011 0.026942 254 255 254
0.060023 -0.265923 0.040220 254 254 254
-0.088626 0.169099 0.016876 105 145 224
0.403177 0.274891 0.056186 255 254 255
-0.101320 0.160296 -0.026795 104 150 235
0.012199 0.277094 0.028650 253 254 254
0.110834 0.276488 0.047836 253 253 255
0.245175 -0.270487 -0.004811 255 254 254
-0.088273 -0.086080 -0.031628 104 150 236
-0.106243 0.278837 -0.030129 103 135 194
0.016769 -0.285288 -0.013721 253 255 254
0.320698 0.279038 0.012574 253 254 253
-0.105282 -0.165308 0.015636 105 146 222
-0.084521 0.156442 -0.045705 104 151 235
-0.084531 -0.164653 -0.028424 103 149 233
0.224023 -0.260222 0.057107 255 255 255
0.009041 -0.268202 0.053798 252 253 253
-0.087265 0.264067 -0.005212 132 137 142
-0.110089 -0.197714 0.048358 103 136 197
0.276847 0.277608 0.037372 255 255 254
0.414174 0.278226 0.024214 253 255 255
0.030779 0.280156 0.029394 254 255 255
0.291453 -0.259598 0.046445 253 255 255
-0.105591 -0.276205 0.016984 104 149 231
-0.111895 -0.220643 0.014959 104 149 235
0.146881 0.281377 -0.015237 255 254 254
0.340052 -0.271932 0.058032 254 254 254
0.055862 0.279562 -0.018077 254 255 253
0.337748 0.279864 0.045365 253 252 254
-0.088552 -0.274551 -0.014030 255 254 255
-0.100617 -0.102873 -0.046668 104 136 196
-0.109504 -0.203290 -0.016632 135 139 149
0.063561 -0.265675 0.035823 254 255 255
0.140859 0.278547 -0.002751 253 255 254
-0.086233 0.138816 -0.007373 103 150 235
0.203125 0.275803 -0.012474 252 252 253
0.377038 0.270866 0.035415 254 255 255
0.187881 0.279850 -0.009871 254 255 255
-0.053657 -0.280702 0.062146 255 255 253
-0.084404 0.113235 0.019123 101 147 233
0.199150 0.269314 0.040458 255 255 255
0.255532 -0.269041 -0.005730 253 254 255
-0.090340 -0.104710 0.003570 103 148 230
-0.079987 -0.278247 0.016470 129 134 141
0.103459 0.266649 -0.021278 253 255 255
-0.090573 0.074957 -0.007808 102 146 228
0.173110 0.277480 0.000384 254 253 254
0.084292 0.269117 0.034831 255 255 255
0.102358 0.275322 0.066743 253 254 253
-0.087296 -0.189312 0.022759 104 143 214
-0.084501 0.143844 0.049512 105 142 211
0.177961 0.264627 0.069720 255 255 255
-0.084650 0.255131 0.000813 102 146 226
-0.001870 0.265457 -0.007284 254 253 255
0.270537 0.267492 0.004400 254 255 254
-0.094350 -0.226854 0.024387 104 141 209
0.064752 0.276949 0.030017 255 253 255
0.049628 -0.276594 0.022333 255 255 254
-0.084544 -0.070901 -0.016134 102 147 230
0.123756 -0.266522 0.030147 254 253 254
0.166318 0.278816 0.003979 255 255 255
0.348308 0.270373 0.043474 255 255 254
-0.086255 -0.123974 -0.012928 104 146 225
-0.107012 -0.163817 0.047443 104 150 236
-0.014525 -0.279519 0.020645 255 255 255
0.136403 -0.275971 -0.019571 255 255 253
0.251971 -0.266422 0.063213 255 255 254
0.265297 0.275870 0.002507 255 253 255
0.005828 0.260060 0.046307 255 255 255
0.040338 -0.277386 0.004028 253 253 255
0.373615 -0.272988 0.040685 255 254 254
0.379486 -0.271480 0.042729 255 255 253
0.318195 0.263079 0.013201 255 255 255
0.365644 0.267898 -0.003055 253 253 254
-0.071658 -0.272916 0.065217 255 255 254
-0.106671 0.152570 -0.044632 102 150 236
-0.012439 -0.279551 -0.023030 254 254 254
-0.086837 0.019106 -0.024243 102 149 236
0.079025 -0.265415 0.055158 254 253 255
-0.102622 0.096052 0.016729 103 149 235
-0.041345 -0.278849 -0.032354 255 255 255
0.361085 0.267152 0.057971 255 254 255
0.169329 0.269604 -0.004527 254 255 255
0.221711 -0.272782 0.015818 254 255 255
0.067371 -0.273877 0.058878 255 255 255
0.305868 -0.260642 0.037640 255 253 255
0.212757 -0.273838 -0.005088 255 255 254
0.106649 -0.276966 0.007104 255 254 253
0.313034 0.269374 0.036573 253 254 255
-0.106326 -0.168499 -0.030129 103 150 234
-0.100884 0.018046 -0.011526 106 151 236
-0.110704 0.155278 0.004048 103 150 236
-0.070824 0.270695 -0.034486 255 255 255
0.205515 0.268831 -0.009965 253 253 253
-0.052971 -0.264234 -0.007465 254 255 255
0.138376 -0.275111 -0.014406 255 255 254
-0.097952 -0.234748 0.057727 102 150 235
0.019134 -0.267345 0.056813 254 255 254
0.157813 0.277111 0.067287 255 255 254
0.199311 -0.261327 0.029759 254 254 254
0.259658 -0.257156 0.055031 254 255 255
0.236732 -0.261551 0.049794 254 255 253
-0.095577 0.045760 0.032624 102 148 236
-0.105705 -0.161036 0.015882 104 151 236
-0.105174 0.141541 0.007297 104 143 213
-0.093446 -0.114084 0.039111 101 146 229
-0.102481 0.115666 -0.039233 102 140 210
0.160950 -0.275437 0.051344 255 255 254
-0.105372 0.023012 0.013844 103 150 236
-0.108554 -0.238787 0.017425 105 146 221
-0.101752 0.188092 -0.087100 103 149 233
-0.110745 0.101695 0.021733 104 146 225
-0.087063 0.267831 -0.016998 128 131 138
-0.080127 0.264883 0.008218 254 255 255
-0.086676 0.174244 -0.013855 104 143 213
-0.101011 0.277457 -0.029068 105 150 234
0.152345 0.267368 0.064191 255 254 255
-0.085687 -0.272312 -0.039968 102 144 219
0.258731 -0.263725 0.006070 254 254 254
-0.085224 -0.129803 -0.066592 102 143 219
0.328058 -0.258719 0.004421 254 254 254
0.192013 -0.263318 0.051183 254 253 254
0.356764 -0.270225 0.035997 253 253 253
-0.086706 0.063757 -0.015896 103 148 235
-0.084373 0.271701 0.009043 105 151 236
0.085168 0.279222 0.046919 253 254 253
-0.110561 0.203596 0.009775 110 139 189
-0.000588 -0.268787 -0.014173 255 254 254
-0.062326 0.264591 -0.029551 254 255 255
0.316691 -0.258827 0.008320 255 253 253
0.180808 0.266946 0.026879 255 253 253
0.100478 -0.266166 0.053785 253 253 255
-0.097042 0.086989 0.039425 101 140 211
0.315871 -0.259626 0.027887 255 255 254
-0.086561 -0.125306 -0.047901 105 146 225
0.247668 0.280411 0.028209 254 255 254
-0.081007 -0.155248 0.049759 103 151 235
-0.031002 0.278960 0.053053 255 254 255
0.283145 -0.259936 0.016117 254 255 253
-0.068981 -0.266236 0.057643 253 253 254
0.243932 0.279942 0.013314 253 255 254
0.246974 0.281325 0.024160 254 254 254
0.285769 -0.261030 0.044383 254 254 255
-0.033426 0.271523 -0.031330 254 254 255
0.292794 0.267424 0.050570 253 255 254
0.214205 0.280215 0.027641 253 254 255
-0.108895 -0.241397 -0.063962 103 150 233
0.022847 0.277585 0.038742 255 254 255
-0.104953 0.070758 0.032703 102 145 222
0.224379 -0.261245 0.025429 254 253 254
-0.101376 0.054282 -0.021777 103 144 219
0.290664 -0.270106 0.060440 255 255 254
0.227520 0.279536 0.014250 254 253 254
0.002404 -0.279725 0.000535 253 253 255
-0.084318 0.127062 -0.085804 101 143 218
-0.113407 -0.161391 0.034277 104 151 235
-0.108984 -0.077231 -0.019612 104 149 233
-0.087580 -0.078389 -0.058364 106 140 204
-0.084275 0.191419 -0.062531 106 135 189
-0.091812 -0.035705 -0.011470 105 151 235
-0.082454 -0.178869 -0.002071 130 131 136
-0.098955 -0.069967 -0.011129 104 137 198
-0.098690 -0.276085 0.029333 103 150 235
0.218465 0.274444 -0.011621 253 254 255
0.065632 0.263721 -0.019186 255 254 255
0.230264 -0.273724 -0.001125 253 255 255
-0.002059 0.278006 -0.022065 254 255 255
-0.065124 -0.270796 -0.030410 253 254 253
-0.098376 0.272975 -0.048114 104 150 235
-0.106351 -0.118562 0.009004 104 150 235
0.121417 -0.277820 0.043353 255 255 255
0.175512 0.278766 0.010964 255 255 253
-0.021296 0.280272 -0.036263 253 255 255
0.355401 0.273097 0.050595 255 255 255
0.042931 0.267567 0.034100 255 254 253
-0.099284 0.193434 -0.081423 102 148 235
0.271921 0.281342 -0.004223 254 255 253
-0.100969 -0.060282 -0.081760 104 150 235
-0.100838 0.032632 -0.072670 103 150 237
0.236107 -0.271039 0.050008 254 255 255
0.320898 0.279232 0.025834 255 254 255
-0.084690 -0.159113 -0.006308 103 145 225
0.221805 -0.261704 0.020262 254 254 254
0.350447 0.279026 0.066236 255 254 254
-0.112442 0.186438 -0.017257 103 149 235
0.264169 -0.268807 -0.002551 255 254 254
0.250406 0.274925 0.068067 255 255 254
-0.039128 0.278426 0.005047 255 254 253
-0.100056 -0.034205 0.013381 104 151 236
-0.088453 -0.040717 0.022053 105 150 235
-0.106783 -0.145834 -0.086687 104 136 195
0.260851 -0.260712 0.052823 253 254 253
0.044686 -0.265628 -0.006342 253 253 255
-0.091683 0.045931 -0.002392 102 149 236
0.003170 0.265803 0.008607 255 255 254
-0.104069 -0.286972 -0.008913 103 142 212
0.297978 0.277128 0.002844 255 255 255
0.205548 0.268152 0.056818 255 255 255
0.365084 0.271367 0.026386 255 254 254
0.276710 0.267721 0.034247 255 254 255
-0.106046 -0.284419 -0.006299 103 143 218
-0.109071 0.086003 -0.057279 107 135 188
-0.082279 -0.246138 -0.011234 103 149 236
0.002883 -0.268484 -0.020036 253 253 253
-0.089969 -0.209627 -0.044709 129 134 139
0.039218 0.276219 -0.007720 253 254 254
0.146939 -0.271429 0.021960 255 255 255
-0.081570 0.124662 0.035579 103 149 236
0.202400 -0.269457 0.025678 254 255 255
0.237838 -0.261126 0.015465 255 255 255
-0.101113 0.097958 0.000287 103 144 219
-0.099963 0.186391 0.012253 102 147 227
-0.105466 -0.048949 -0.030444 103 150 235
0.340495 0.267596 0.035384 255 254 255
0.035606 0.267892 0.022072 255 254 255
