ply
format ascii 1.0
element vertex 1180
property float x
property float y
property float z
property uchar red
property uchar green
property uchar blue
end_header
-0.097286 0.283423 -0.009375 102 149 235
0.312804 0.274323 -0.000316 254 255 254
0.313290 0.271992 -0.000885 255 255 255
-0.010256 0.278785 0.000083 253 255 255
0.109043 -0.269573 0.061175 255 255 255
0.324022 0.276592 0.040478 254 254 255
-0.090816 0.209618 0.047791 103 151 237
-0.087365 -0.140038 -0.037028 137 138 149
-0.111616 -0.079662 -0.062219 102 149 234
0.019858 0.276471 0.049131 255 255 255
-0.097229 -0.134856 0.006015 101 149 236
0.349905 0.275603 0.035792 255 255 254
0.003377 0.274965 -0.039011 254 255 254
0.016266 0.265466 0.065572 255 255 255
0.034254 0.272759 -0.035389 254 254 254
-0.075083 0.268152 0.051660 254 254 255
-0.027204 0.278678 -0.017513 255 254 255
0.096010 -0.275550 0.023200 254 254 255
-0.095349 -0.284760 -0.033166 104 148 236
-0.090124 0.114639 0.020370 103 147 229
-0.090230 -0.113550 -0.004273 103 151 237
-0.005172 0.281026 0.057827 255 254 255
0.010246 0.267022 0.047646 255 254 255
0.349283 0.270517 -0.000922 255 255 254
0.285573 -0.268400 0.046815 255 255 254
-0.092412 -0.230833 0.049725 103 144 220
0.307406 -0.255806 0.013218 254 255 254
-0.104800 0.259468 -0.013154 141 143 148
-0.080853 -0.281373 0.038857 255 255 254
-0.101553 -0.130037 0.041618 102 149 237
-0.090913 0.217977 0.047055 103 149 237
0.400221 -0.257985 0.014596 254 255 255
-0.091514 -0.048022 -0.000030 103 148 236
-0.117958 -0.149158 -0.034074 102 148 229
0.095488 -0.274899 0.034735 255 255 255
0.193610 0.276273 0.035130 254 255 254
0.162727 -0.262885 0.025776 255 255 255
0.280591 0.276897 0.030074 253 253 255
-0.111958 0.194636 -0.043024 103 149 236
-0.076240 -0.284459 -0.017614 254 254 255
-0.092976 -0.188990 -0.028231 104 149 236
0.356952 0.267940 0.051832 255 255 255
0.271459 -0.257452 0.024059 255 255 255
-0.021910 -0.280968 0.006945 255 255 255
0.212365 -0.270039 0.033431 255 255 254
0.330211 0.265926 0.040251 255 254 255
0.142260 0.266801 0.024375 254 254 254
0.374572 -0.263508 0.005819 255 255 255
-0.088850 -0.177116 -0.056485 102 144 221
0.209409 -0.271954 0.013425 255 255 253
-0.051763 -0.280588 -0.036499 255 255 255
-0.078280 0.277942 0.056390 253 254 254
0.084211 -0.263620 0.047673 255 255 255
-0.115933 0.104261 0.005812 103 150 237
-0.106287 0.190272 0.056304 102 143 218
0.338530 -0.261292 -0.001180 255 255 255
0.223216 0.270229 -0.008934 254 255 254
0.232733 -0.258936 0.015427 253 255 254
0.002350 -0.277976 0.051029 253 253 253
0.217173 -0.267254 -0.005759 254 254 255
0.223250 0.276967 0.052742 255 255 254
0.114587 -0.274927 -0.007192 253 255 253
-0.091533 0.191845 0.006644 101 149 237
0.077846 0.275959 0.036647 255 255 255
-0.091134 0.254298 0.011445 101 149 236
0.094480 -0.262619 0.047622 254 255 255
-0.111029 -0.040187 -0.040709 129 132 141
-0.093852 0.124757 -0.075450 102 148 235
0.301089 0.261880 0.047126 255 255 255
-0.078340 0.280197 0.002639 255 255 254
-0.090445 0.225201 -0.073729 102 138 202
0.039363 -0.277640 0.021583 253 255 255
0.172074 0.275950 0.018356 255 255 255
-0.098664 -0.203826 0.054873 104 149 235
-0.112918 0.108929 -0.023558 103 149 231
0.196155 0.275702 -0.001238 253 254 254
0.251511 -0.269248 0.017845 255 254 254
-0.049907 0.277346 0.043029 255 255 255
-0.109100 -0.192873 0.010796 102 150 236
-0.091753 0.239472 -0.059771 130 137 143
0.067372 0.265841 0.051779 254 255 255
-0.108843 0.111176 -0.000565 104 150 235
-0.114080 0.094892 -0.034059 104 150 237
-0.011783 -0.269228 0.025761 254 255 254
-0.111056 -0.126564 0.016025 103 150 236
0.305495 -0.269257 0.054167 254 255 254
0.032941 0.263449 -0.024242 254 255 255
-0.092403 -0.273085 -0.025343 254 255 255
-0.085854 -0.283641 -0.032225 255 255 255
-0.091991 -0.263757 0.025041 103 148 230
0.325036 -0.267122 0.040919 254 255 253
-0.071584 -0.272206 0.005813 255 255 255
-0.043272 -0.281737 0.016914 254 254 255
-0.109876 -0.265701 0.036564 101 145 225
0.081273 0.276199 0.029151 255 254 255
-0.093695 0.086755 0.039133 101 148 236
-0.094784 -0.243908 -0.081325 102 150 238
0.217108 -0.259701 -0.013754 254 254 255
0.002028 0.263095 0.042411 255 255 254
-0.105967 0.153007 -0.011410 104 141 213
-0.112747 -0.158956 -0.003669 103 150 234
-0.100944 0.190766 -0.081503 102 148 237
0.371082 -0.259910 0.004266 255 255 255
0.108478 0.267476 -0.008196 255 255 255
0.208803 0.276809 0.030846 255 254 254
0.102100 0.266997 -0.011433 255 254 254
0.097899 0.265486 0.054803 255 254 255
-0.108747 0.052393 0.038036 102 149 236
-0.100268 -0.045866 -0.016229 103 151 237
0.150570 -0.260065 0.023238 255 255 255
-0.034699 -0.282922 -0.000232 255 255 255
-0.108060 0.070213 -0.076771 138 141 149
0.058018 -0.277093 -0.007113 255 255 255
0.153458 -0.260865 0.024623 253 254 255
-0.109640 -0.155963 0.013443 104 150 235
0.204247 -0.267435 0.052269 254 254 254
-0.112459 -0.201464 0.001950 104 149 231
-0.085656 -0.166006 -0.031804 103 150 237
-0.090761 -0.112846 -0.026134 138 142 148
-0.112167 -0.217504 -0.083701 102 150 236
-0.092619 -0.285084 -0.023951 101 148 237
-0.107880 -0.067642 -0.037922 103 150 235
-0.084954 -0.284292 -0.014217 255 254 254
0.159083 0.265942 -0.014783 255 255 255
0.333676 -0.254762 0.034647 254 255 255
0.127708 0.266728 0.045941 255 255 255
0.230278 -0.257150 0.060868 254 254 255
-0.100991 0.255977 -0.069298 104 151 238
-0.087390 -0.108475 -0.090080 102 150 234
-0.093818 0.015813 -0.015053 102 148 236
0.014283 0.275380 0.054123 254 255 254
-0.006149 0.264011 0.042822 255 255 255
0.179621 0.274974 0.042939 255 255 255
0.201724 0.264272 0.063162 255 255 255
0.038797 -0.279275 0.013626 255 255 255
0.258022 0.262962 0.052735 255 254 255
0.387943 0.267403 0.060833 254 253 255
0.185604 -0.258175 0.060523 255 254 255
-0.105392 0.159830 0.011669 104 150 235
0.079249 -0.263175 0.042909 255 255 254
-0.064629 0.278917 0.038973 254 254 255
-0.009002 0.274405 -0.026200 255 255 254
0.105383 -0.264718 0.049716 255 254 255
-0.096197 0.036074 -0.023683 101 150 238
-0.089508 -0.132662 -0.089282 103 151 237
-0.089830 0.179073 -0.087412 102 150 237
0.025447 0.264661 0.041464 255 255 255
0.233893 0.275835 0.038789 254 255 255
-0.106058 0.025140 0.005035 102 149 236
0.113626 -0.264246 -0.004249 255 255 255
0.320396 -0.266398 0.038093 255 255 255
0.416392 -0.251085 0.043372 255 253 255
-0.042158 0.268996 0.015240 255 255 255
-0.089763 -0.142125 -0.058870 104 151 238
-0.075164 0.269389 0.026614 255 255 255
-0.096077 -0.069614 0.033683 105 151 236
0.326181 -0.252589 0.010082 253 254 254
-0.106589 -0.163665 -0.030542 103 150 237
0.290216 -0.255035 0.054996 254 255 255
0.384925 -0.254579 0.063066 254 255 255
-0.112005 0.099900 -0.036386 103 150 236
0.170069 -0.272231 0.032654 255 254 255
0.134489 0.278605 -0.014170 255 255 255
-0.027373 -0.280150 0.022955 254 255 254
0.335080 -0.268023 0.002466 254 255 253
0.146496 -0.272095 0.058785 255 255 255
-0.107712 0.281900 -0.006666 106 152 237
-0.113011 0.138368 -0.003158 102 150 235
-0.110638 0.076828 -0.042019 103 150 237
0.030952 0.267317 -0.007338 254 255 255
-0.088146 -0.264822 -0.027340 186 187 187
-0.048212 0.272922 -0.034763 255 255 255
-0.106204 -0.284917 -0.017977 102 150 237
-0.092184 0.163057 0.031800 102 149 236
-0.093992 -0.221625 0.012800 104 150 236
0.165221 0.277067 0.012481 255 254 254
-0.074707 0.279191 -0.005877 255 255 254
-0.089194 -0.271903 0.003426 254 255 255
0.053031 -0.267285 -0.014617 255 255 254
0.157239 -0.262857 0.003743 255 255 254
0.199465 -0.270449 0.050982 255 254 255
-0.108737 0.026067 0.021789 102 148 226
0.009386 -0.278854 0.027332 255 255 254
0.397925 0.275422 0.042931 255 255 255
-0.090207 0.106315 0.019246 103 150 235
0.152192 0.273176 -0.013528 255 255 255
0.011869 -0.279130 -0.027315 255 255 255
-0.090905 -0.120317 -0.054482 103 149 235
0.230105 -0.270042 0.028946 254 255 255
-0.109218 0.215302 -0.068681 103 150 237
-0.090298 -0.142375 -0.049777 103 146 227
0.117648 -0.268180 -0.016326 255 255 255
-0.092546 -0.149687 0.048663 102 143 220
0.366191 -0.264933 0.013604 255 253 255
0.275247 -0.254817 -0.001392 255 253 255
-0.104441 -0.142614 -0.093054 104 149 235
0.125535 -0.262788 0.037419 254 254 255
-0.107129 -0.084408 -0.071822 104 150 238
-0.088864 0.250041 0.034211 126 136 145
-0.084778 0.276096 -0.003313 254 255 255
-0.088281 0.269471 0.041713 254 255 255
-0.114231 -0.189079 -0.085449 103 148 236
-0.113015 -0.120872 -0.003896 104 149 234
-0.110110 -0.121061 -0.046376 103 149 234
-0.088020 -0.128944 -0.048903 103 150 238
-0.051756 -0.281505 -0.002774 255 255 255
0.146879 -0.260985 -0.013075 255 255 255
-0.089446 -0.241072 -0.007510 132 137 143
-0.111070 -0.050344 -0.032300 102 150 236
0.299528 -0.256886 0.020810 254 255 255
-0.089403 0.269351 -0.052257 101 148 236
0.128588 -0.275102 0.048833 253 255 254
0.102032 0.278398 -0.021789 255 255 255
-0.114235 -0.036808 -0.018330 102 149 234
-0.092615 0.200369 -0.002139 104 150 237
-0.109790 0.019851 0.001039 103 147 232
0.114396 -0.273543 0.046141 255 255 255
-0.094134 0.079530 -0.097170 103 149 234
-0.060016 0.278305 0.028710 254 254 255
-0.090782 0.254205 -0.030964 101 149 235
0.274616 0.266926 0.018493 255 255 255
-0.093458 0.190661 -0.039937 103 149 235
-0.112709 -0.082920 -0.083800 102 149 237
0.173668 -0.260442 0.051376 255 255 253
-0.086882 -0.199161 -0.019680 102 149 237
-0.096610 -0.140347 -0.065053 102 148 236
-0.090612 0.220293 -0.081482 102 149 237
0.224286 0.275204 -0.010152 254 255 254
-0.088839 -0.126262 0.041074 104 151 237
0.140716 0.266565 0.006202 255 255 255
-0.090870 0.178938 -0.085950 103 149 235
-0.045902 -0.282228 0.034333 254 255 255
-0.011833 0.262548 0.064220 255 255 255
-0.091216 -0.037516 -0.009723 103 149 237
-0.104772 0.053208 -0.079833 102 149 237
-0.087157 0.243659 0.036325 137 140 153
-0.110009 -0.228583 -0.039681 102 150 236
-0.034884 -0.282706 -0.007800 255 254 253
0.045739 -0.277830 0.029312 254 254 255
-0.109581 -0.182121 -0.012377 101 149 236
-0.105850 0.258190 0.021681 104 147 229
-0.089672 -0.105151 -0.074933 104 151 238
-0.058462 0.278629 0.011887 255 255 255
0.067660 -0.266219 -0.017950 255 255 254
-0.111637 0.111903 0.005171 101 149 237
-0.095204 -0.284996 -0.039877 102 149 236
0.115343 -0.262253 0.056687 255 255 255
0.168485 -0.269953 0.010986 255 254 254
-0.108279 -0.144499 -0.056121 102 149 233
-0.114357 -0.132986 -0.075086 102 149 237
-0.093547 -0.052770 -0.002598 102 148 236
-0.021535 -0.269880 0.027339 255 255 255
-0.089105 0.211798 0.030441 102 150 237
0.045254 0.265823 0.001458 255 255 254
0.411827 -0.253432 0.052548 255 254 255
-0.086727 -0.197085 -0.055637 103 145 224
0.171135 0.276728 0.056642 253 254 255
-0.093189 -0.249042 -0.014658 103 138 204
-0.033223 0.278153 0.014279 254 255 255
0.225486 0.276893 -0.001111 253 254 254
0.111632 0.276881 -0.008273 255 255 255
-0.109123 -0.124177 -0.016522 104 149 235
-0.090817 -0.279312 -0.004968 254 254 254
0.021777 -0.269478 -0.029607 254 255 253
0.021434 0.277614 0.003818 254 255 255
0.108489 0.271834 0.048003 255 255 255
0.264818 -0.268390 0.049185 254 254 254
-0.103454 -0.273295 0.036643 104 150 237
0.118685 -0.275248 -0.001892 253 255 254
0.403602 -0.265956 0.014597 253 253 253
-0.109820 0.072611 -0.034499 103 150 236
0.296646 -0.256679 0.054763 255 255 255
0.363963 0.272222 0.062436 255 255 255
0.176016 0.277340 0.003478 255 255 255
-0.027148 -0.266225 0.057172 253 255 254
-0.033179 0.264338 -0.035032 255 255 255
-0.092305 0.199327 -0.011596 101 149 235
-0.054294 0.273577 -0.035474 255 255 255
-0.066161 -0.267308 0.055515 255 254 255
0.188186 0.277572 0.053015 253 254 255
-0.110124 0.046735 -0.020938 102 150 235
-0.016701 -0.278729 0.032894 255 255 255
-0.112702 0.040778 -0.015059 103 150 236
-0.087327 -0.116078 -0.048065 101 149 237
-0.109612 -0.210195 -0.082459 102 149 237
-0.095329 -0.062781 0.029341 104 149 235
0.254201 -0.257718 0.017394 255 255 253
-0.115026 0.086529 0.012991 102 148 234
-0.095705 -0.237858 -0.054394 104 151 237
-0.112196 0.249130 -0.020840 103 150 237
-0.107900 -0.231478 -0.002766 104 150 236
0.011555 0.263576 0.045430 254 254 254
-0.085691 -0.093020 -0.038000 102 150 238
0.130278 0.277455 0.001327 254 255 255
-0.076611 -0.283562 0.010445 255 254 255
0.178704 -0.271115 -0.015590 255 255 254
-0.004583 -0.277068 0.042394 255 255 254
0.016884 -0.280048 -0.010391 255 255 255
-0.015299 0.266839 0.038820 254 254 255
-0.061195 -0.271008 0.053640 254 254 254
-0.112489 -0.201696 -0.020429 104 150 237
-0.087186 0.043756 0.018603 103 147 229
-0.107162 0.037150 -0.066585 102 148 236
-0.106423 0.093699 0.038353 102 150 238
0.124358 0.277847 -0.012533 255 255 255
-0.097276 0.064158 -0.059139 102 148 233
-0.088482 0.077795 -0.090488 101 148 231
-0.105297 0.089868 -0.033507 103 150 236
0.307536 -0.259409 0.062348 253 254 255
0.022520 -0.278361 0.031507 254 254 254
0.165426 0.276581 0.030017 255 254 255
0.063727 -0.266487 0.016924 255 255 255
-0.090340 -0.255602 0.014461 103 151 237
0.030816 -0.278729 -0.003675 253 254 255
0.366657 0.266995 0.051249 255 255 255
0.040534 -0.265392 0.039981 255 255 255
-0.103888 0.185433 -0.037443 108 137 194
-0.109616 0.053785 -0.016690 131 136 150
-0.085969 0.100890 0.017020 101 149 237
0.014596 0.270031 0.063919 254 255 255
0.101275 0.276180 -0.020230 255 255 255
-0.107774 0.138048 -0.068035 102 147 228
0.280149 0.267687 0.054254 253 253 254
-0.092914 0.181779 -0.006883 102 149 236
0.037589 -0.279762 -0.025039 254 255 255
0.237069 -0.258477 0.030759 255 255 255
-0.108785 -0.168066 0.049463 102 150 236
0.221947 -0.269449 0.035612 254 255 254
0.214596 -0.258953 0.044798 254 254 255
-0.110736 0.138779 0.013929 101 149 236
-0.067967 0.267409 0.026499 254 255 254
0.082691 -0.270779 -0.011267 253 254 255
-0.092241 0.262555 0.004914 102 148 231
0.032244 -0.268612 -0.024171 255 255 255
0.223597 0.264766 0.063960 255 255 255
-0.098751 0.163371 -0.091576 103 150 237
-0.084241 -0.284938 -0.034250 255 255 255
0.301765 -0.266812 0.057518 253 254 255
-0.071273 -0.283141 0.020877 254 254 255
-0.079967 -0.273931 0.023574 254 255 254
-0.089104 -0.136829 -0.052512 102 149 234
0.346203 0.267576 0.001389 255 255 254
0.127275 0.275518 0.047790 255 255 255
0.229280 -0.259582 0.063971 255 255 255
-0.084101 -0.073896 -0.088041 103 150 238
-0.107940 -0.102699 -0.016275 103 150 234
0.196367 -0.271126 -0.000683 253 254 253
0.068256 0.262717 0.012778 255 255 255
-0.093964 0.106784 -0.001597 102 149 230
-0.111905 -0.237833 -0.065204 104 146 227
-0.090486 0.248740 -0.010340 104 143 216
0.258517 -0.256798 0.003366 255 254 254
0.398950 0.271556 0.019699 255 255 255
-0.088632 0.081802 -0.056955 103 151 236
0.063832 -0.266931 -0.008264 255 255 255
0.132597 -0.274048 0.027926 255 255 255
-0.092921 -0.062208 0.018707 102 149 237
-0.107579 0.190088 -0.035607 102 149 236
-0.092444 0.119203 0.005067 104 151 235
0.350510 0.266618 0.021639 255 255 254
-0.072184 0.264324 -0.026425 255 255 255
-0.101420 0.227892 -0.060289 101 147 234
-0.088614 -0.077499 0.030890 133 136 141
0.163594 -0.261746 -0.011059 253 254 255
0.095369 -0.264543 0.016471 255 255 254
0.288813 0.277089 0.031449 254 255 255
0.040637 -0.269461 0.066252 255 255 254
0.073753 -0.278887 -0.000519 254 253 255
-0.045896 -0.272105 0.003548 254 255 255
0.335470 0.275910 0.035004 254 255 254
-0.003180 -0.275809 -0.032723 255 255 255
0.294170 -0.268318 0.045210 255 255 254
-0.110270 -0.177373 -0.028223 103 149 232
-0.091325 0.114310 -0.053393 103 150 237
0.019064 -0.265030 0.056332 254 254 254
-0.106559 0.148953 -0.057687 101 146 228
-0.071717 -0.269031 0.017564 254 255 255
0.323865 -0.254939 0.029039 254 254 255
0.028209 0.279719 0.064730 255 255 254
0.102427 -0.274087 0.054997 253 255 254
0.295253 -0.261584 0.006235 254 255 255
-0.007767 -0.269700 0.000634 255 255 255
-0.091754 -0.274256 -0.042692 103 150 237
-0.089054 0.060877 0.033374 104 150 237
0.155430 -0.273231 0.056860 255 255 255
-0.111071 0.144607 -0.086151 102 146 227
-0.114065 0.141650 0.012500 103 151 236
0.053764 0.265973 -0.002108 255 255 254
0.061561 0.265567 0.042432 254 254 254
-0.088542 -0.192688 -0.034723 102 150 236
-0.029308 0.277426 0.030112 255 254 255
-0.108450 0.182906 0.047800 103 149 237
0.118521 -0.274210 0.024937 255 254 254
-0.108971 0.277212 -0.050760 103 147 229
0.168197 0.276613 0.001786 255 255 254
0.033551 -0.268372 -0.012667 254 255 255
0.087456 -0.268777 0.061067 255 255 255
-0.108387 0.034057 -0.057943 134 136 146
-0.107237 0.229452 0.047325 102 149 238
-0.065895 0.260084 0.045298 254 255 253
-0.111733 -0.211538 0.007422 103 145 224
-0.110163 0.087879 -0.021979 103 150 236
-0.089233 -0.175083 -0.084711 102 149 237
0.115203 -0.274064 0.032045 255 255 254
-0.111943 0.164973 0.030956 103 149 237
-0.034210 0.269887 -0.036922 255 254 255
0.245493 -0.268941 0.012083 255 255 254
-0.059936 -0.269843 -0.032579 254 255 253
0.328145 0.276999 0.057985 255 255 255
0.301295 -0.256904 0.036898 254 255 255
-0.095972 0.114791 -0.020043 104 151 237
-0.100040 0.074333 -0.092357 133 135 147
-0.090361 -0.230726 -0.045651 102 150 236
-0.113811 0.170574 0.007089 102 150 237
-0.090626 -0.093798 -0.037332 103 150 238
0.278995 0.273142 0.001874 254 254 254
-0.028337 -0.270102 -0.021567 255 255 255
0.012046 -0.268404 -0.007777 254 255 255
-0.085971 -0.093479 -0.055872 102 150 235
0.136355 -0.263725 0.048152 255 255 254
0.081637 -0.274555 0.033297 254 255 255
0.185332 -0.261222 0.016850 255 254 255
0.128556 0.256631 0.004430 255 254 253
0.172516 -0.262129 0.037503 254 255 255
-0.000854 -0.275327 -0.031955 255 255 253
0.340304 0.270203 0.015712 255 255 255
0.276448 -0.255662 0.052356 254 255 255
-0.112060 -0.176628 0.002386 103 147 229
0.067296 -0.278073 -0.003503 253 254 254
0.295137 0.267337 0.066075 255 255 255
-0.065584 -0.270564 0.015183 253 254 254
0.017184 -0.277617 0.016430 255 255 255
-0.097678 0.200594 -0.038599 101 148 237
-0.057577 0.278203 0.051885 255 255 255
0.162773 -0.263903 -0.016503 255 255 254
0.025822 -0.269022 -0.013528 254 255 255
-0.094455 0.099228 0.043482 104 151 237
0.162470 0.265154 0.048149 255 255 255
-0.091030 -0.141522 0.038536 104 150 236
0.010441 -0.267371 0.031224 255 253 253
-0.089439 0.154383 -0.025070 101 148 236
-0.042980 0.277917 -0.019878 255 255 255
-0.088436 -0.214215 -0.036674 102 149 235
-0.089930 -0.079516 0.038241 102 145 224
0.097092 0.273550 0.022722 255 254 255
-0.065976 -0.283292 0.042748 255 253 254
-0.112759 0.240926 -0.030552 102 149 237
0.074995 -0.275623 0.029400 254 254 254
-0.112626 -0.142891 -0.005570 103 150 237
-0.049997 0.276717 0.013617 254 254 255
0.112318 -0.265342 0.020200 255 255 255
-0.089515 -0.263435 -0.067817 103 148 232
0.423025 0.272842 0.037744 253 255 254
-0.089416 0.254687 0.028234 133 134 140
0.114622 0.266343 0.018893 255 255 253
0.323363 -0.258824 0.052592 253 254 253
-0.098256 0.044955 -0.085951 103 148 237
0.230152 0.276369 0.024078 253 253 254
0.125247 -0.263963 0.049538 255 255 254
-0.051902 -0.266926 0.046429 253 254 254
-0.090451 -0.263180 0.034638 103 149 233
0.376363 0.276833 0.021272 254 255 255
-0.063037 0.278184 -0.009764 255 255 255
-0.094440 -0.248703 0.029167 104 148 236
0.234572 -0.269519 0.024104 254 255 254
-0.017868 0.276995 0.001208 255 255 255
-0.089363 0.038827 -0.073741 101 148 236
0.363390 0.275022 0.037631 254 255 255
-0.108133 -0.223483 0.037409 102 149 233
0.416572 0.274729 0.039059 253 253 254
0.073426 0.262190 0.063418 254 255 254
0.252400 -0.257416 0.010427 254 255 254
-0.089444 0.151841 0.038980 101 150 236
0.348545 0.275766 0.035221 255 254 254
-0.110760 0.078503 0.035024 102 150 237
-0.106155 0.078083 -0.022539 104 151 237
-0.104924 -0.209709 -0.054682 101 150 236
-0.089789 0.192248 0.053486 104 151 237
-0.107180 -0.129212 -0.079200 104 150 234
-0.110834 -0.199696 -0.001577 104 150 236
0.199953 -0.270436 0.043596 254 255 254
0.140858 -0.263172 -0.005118 255 254 255
0.199345 0.274962 0.042186 255 254 255
-0.104545 -0.084518 0.012106 102 150 236
-0.096630 0.061851 -0.053422 102 150 236
-0.022718 0.279017 0.002589 253 255 255
0.168122 -0.270299 0.005016 253 255 254
0.233285 -0.268460 0.046422 253 255 255
0.022425 0.265854 -0.022182 254 255 255
0.308074 0.275985 0.056513 254 254 255
0.194529 -0.271809 0.011240 255 255 255
0.264226 0.265517 0.053672 255 255 255
0.197294 -0.272468 0.007591 255 255 255
0.075830 0.267769 0.047699 200 203 206
0.088471 0.265936 0.044913 254 254 255
-0.089858 0.044579 0.012166 102 149 237
-0.114649 0.150859 -0.022031 104 150 237
0.053939 0.278640 -0.028610 253 255 255
0.192007 -0.260855 0.030270 255 255 255
0.192781 -0.259083 0.045656 254 254 254
-0.090046 -0.228566 -0.038554 102 149 236
-0.107505 0.227898 0.037936 102 149 238
0.112157 0.267200 -0.017979 253 254 253
0.191824 0.275471 0.041973 255 254 254
0.096739 -0.265403 0.020228 254 254 255
0.086061 0.278136 -0.009275 255 255 254
-0.104008 0.089657 -0.032959 135 135 143
-0.091185 -0.235288 0.044095 103 151 239
-0.114495 -0.201276 0.023007 104 148 234
-0.066833 -0.270422 0.040976 255 253 255
-0.108119 -0.266758 0.018984 103 149 235
-0.093024 0.137173 -0.093965 103 149 237
-0.089973 0.096054 -0.045360 101 149 234
-0.090731 0.099290 -0.095423 102 149 235
-0.113229 -0.137683 -0.066276 101 149 237
0.417060 0.276175 0.017746 254 255 255
-0.086205 -0.119508 -0.030081 104 151 237
0.213411 0.276237 0.002043 255 255 255
-0.109084 -0.241559 0.028483 102 147 228
-0.109374 0.201721 0.022413 104 150 236
0.302108 -0.267926 0.019129 255 254 253
0.031362 0.276797 0.033095 255 255 255
0.308621 0.275987 0.034057 255 255 255
-0.103063 -0.055750 -0.081441 102 148 238
0.350566 0.268628 0.021120 255 254 254
-0.109507 -0.139793 0.046364 102 150 236
-0.109726 0.086464 -0.028877 104 151 237
-0.111761 0.237184 -0.070470 103 149 237
-0.090191 -0.228807 -0.007322 104 150 236
-0.089782 0.265867 -0.040227 102 150 237
-0.097493 0.216727 0.003340 102 149 236
-0.029234 0.266554 0.051896 255 255 255
-0.089787 0.159730 -0.082736 102 149 237
-0.067127 0.267283 0.027898 255 253 255
-0.115982 -0.152170 0.041525 102 148 230
0.222364 -0.261853 -0.009461 253 255 253
0.279470 -0.268215 0.061593 255 255 255
-0.089026 0.039871 -0.082506 104 137 200
-0.092359 -0.259531 0.015572 104 148 232
0.363000 -0.262892 0.020178 253 255 255
-0.061561 0.278289 -0.006688 255 255 255
-0.087303 -0.081507 0.037190 103 150 234
-0.111833 -0.077058 -0.045523 133 134 140
-0.091022 0.078401 0.031758 102 146 226
0.010620 -0.278993 0.057496 254 255 255
0.033964 0.278853 0.004337 255 255 255
-0.091493 -0.134450 0.040029 101 149 238
-0.106942 -0.149217 -0.033012 101 149 236
0.076384 0.268512 0.062052 255 255 255
-0.089305 0.048290 -0.049238 101 150 238
0.089759 0.275369 0.058401 255 254 254
-0.110734 -0.073139 -0.002383 103 150 237
0.347578 -0.254347 0.020815 255 255 255
-0.108837 0.206535 -0.066287 102 149 235
-0.098973 0.207614 0.055361 104 150 236
-0.112325 0.184654 -0.012965 104 150 235
0.292945 -0.256212 0.011180 255 255 253
-0.109523 -0.049732 -0.054274 134 139 144
0.139115 -0.274090 0.021892 254 253 255
-0.101785 0.206739 0.052448 102 150 237
-0.110014 0.068543 -0.018947 102 148 234
-0.093622 0.238113 -0.014776 103 149 233
-0.112992 -0.135385 -0.042970 104 151 237
-0.096085 -0.265351 0.036536 190 196 214
-0.097063 -0.284938 -0.027436 103 150 237
-0.103752 -0.166097 -0.058589 102 148 235
-0.108301 -0.230886 0.048865 102 150 235
-0.088089 0.106189 -0.050273 102 148 236
0.126260 0.264511 0.031978 254 255 255
0.272652 0.277405 0.030604 255 255 255
0.177542 0.264836 0.063231 254 255 255
-0.075939 -0.265626 0.051266 254 255 254
-0.090192 0.195422 -0.022525 101 147 229
-0.090047 0.122105 -0.080119 103 149 236
0.252560 0.267855 0.024066 254 254 254
-0.092378 -0.074707 -0.028568 103 149 236
-0.106969 -0.140617 -0.060706 102 148 236
0.092456 0.265374 0.005501 253 255 253
-0.049848 -0.276518 0.031516 255 254 255
-0.089473 0.237082 -0.038478 101 138 206
-0.053497 -0.273188 -0.025577 255 254 255
-0.029133 0.268661 0.002315 255 255 255
0.208272 0.275250 0.050536 253 254 254
0.036646 -0.277724 0.044463 254 255 254
-0.109956 0.264697 0.038769 103 149 236
0.095999 -0.264514 0.044204 255 255 254
0.293255 0.275299 0.021902 255 255 255
-0.090022 0.213943 -0.075153 103 148 236
0.026901 -0.267810 0.062025 255 255 254
-0.105195 -0.190946 -0.030759 103 150 236
0.270374 -0.257661 -0.005455 255 254 253
0.001315 -0.267314 0.046982 254 255 255
-0.105999 -0.050246 0.031568 103 149 236
0.241101 -0.257335 -0.001973 253 254 254
0.283021 -0.257867 0.018137 255 254 255
-0.113606 -0.098548 -0.093191 103 147 228
0.055139 -0.279533 -0.018489 254 255 254
0.102538 0.275010 -0.006643 255 255 255
-0.092148 -0.213368 -0.038076 104 151 235
0.129072 -0.262284 0.040962 255 255 254
-0.093948 0.081458 -0.062867 102 148 233
-0.105716 0.257927 -0.016378 102 150 236
-0.093580 -0.276817 0.027720 254 254 254
-0.087292 0.108059 -0.087171 103 150 236
-0.099897 -0.067206 -0.082524 101 148 232
0.161445 0.267609 0.000296 255 254 254
-0.093911 0.098188 -0.005718 101 149 236
-0.107853 0.165986 -0.018436 102 149 235
-0.111867 0.167271 0.033842 104 151 236
-0.108789 0.017588 0.026338 103 150 238
-0.002817 -0.278076 0.032555 254 255 255
-0.066698 -0.268710 -0.003185 255 254 254
0.235379 0.276331 0.019380 255 254 255
0.126347 -0.263557 -0.006923 254 254 255
-0.097526 -0.165316 -0.050249 105 147 223
0.208412 -0.270597 -0.005812 253 254 255
-0.009106 0.266516 -0.036951 255 255 255
0.001565 -0.269383 0.013670 255 255 255
-0.090119 0.268371 -0.024240 104 149 237
-0.107359 0.227585 -0.072437 103 148 232
-0.045368 -0.281434 0.002186 255 255 255
0.151027 -0.264191 0.000752 255 255 254
0.200582 0.265161 0.000740 255 255 255
-0.087681 0.182041 0.009875 103 150 236
-0.063014 -0.280106 -0.035283 254 255 254
-0.018529 0.279295 0.050876 255 255 255
-0.082509 -0.271717 0.061920 255 255 255
-0.093522 0.055938 -0.038520 128 136 142
-0.089841 -0.185479 -0.075418 103 150 235
0.346024 0.276525 0.015866 253 255 255
0.132631 0.267050 0.039739 255 255 255
-0.035746 -0.282263 0.000838 255 255 255
-0.092932 -0.229099 -0.083863 104 146 229
-0.092798 -0.259056 -0.025686 104 150 235
0.335693 -0.255053 0.043278 254 255 254
-0.034139 -0.269700 -0.016656 253 254 255
-0.094052 0.085306 -0.037213 102 149 232
-0.109978 -0.101066 -0.071598 104 150 235
-0.078301 0.279561 0.017697 255 255 254
0.147786 0.266898 0.031302 255 255 254
0.104867 -0.275243 0.008642 254 254 255
-0.089462 -0.219657 -0.008170 103 150 234
-0.108817 0.261265 -0.048453 138 146 157
-0.114623 0.051064 -0.052053 103 150 237
-0.107056 -0.108772 0.039651 134 133 139
0.079387 0.276583 0.014301 254 255 255
-0.100067 -0.082321 0.031394 101 149 237
-0.093731 0.100651 -0.094124 103 148 235
-0.106144 -0.064651 -0.085828 101 150 237
-0.094906 0.045897 -0.063780 102 150 237
-0.091503 -0.172288 -0.063965 136 138 142
0.228423 0.273683 0.066021 254 255 254
-0.109152 -0.078419 -0.082691 102 149 236
-0.092272 0.127493 -0.045132 101 149 236
-0.116116 0.236115 0.004405 103 150 234
0.060295 0.275570 0.047491 255 255 255
0.064730 -0.264199 0.053448 254 254 254
-0.090718 -0.281791 -0.013570 103 149 234
-0.086686 -0.111914 -0.033692 104 149 235
0.161171 -0.261902 0.028177 254 254 255
-0.092261 0.230576 -0.010933 102 150 237
-0.089262 -0.283827 -0.022383 255 255 254
-0.085814 0.051243 -0.053995 102 148 237
0.302032 0.276736 0.010246 253 255 253
-0.087861 -0.143079 -0.092561 103 149 236
-0.115171 0.064879 0.025528 102 148 234
-0.037816 -0.272845 0.011560 255 255 255
-0.098585 -0.035647 -0.049133 101 149 237
0.281972 -0.269481 0.057845 255 254 254
-0.090813 -0.270457 0.008538 103 148 231
-0.110562 0.207393 -0.071021 103 149 237
-0.115284 -0.213858 0.002230 102 147 225
0.123335 -0.264791 0.019540 254 254 255
0.413837 0.275722 0.048145 255 255 255
0.027584 -0.280633 0.056995 254 254 254
-0.040153 -0.280420 0.026275 254 254 255
0.214486 -0.258189 -0.003945 252 255 253
-0.105317 0.122074 -0.075962 103 149 237
-0.095435 -0.185436 0.058601 101 150 237
0.127987 0.273588 0.064172 255 254 254
0.002580 0.277637 -0.001360 255 255 255
-0.105644 0.099037 -0.062617 102 150 237
-0.049460 -0.272432 0.019938 254 255 255
-0.114289 0.216270 0.035687 134 134 145
0.368668 0.267252 0.029926 254 255 253
0.113720 -0.265197 0.017498 255 255 254
-0.090375 -0.179143 -0.048311 103 150 237
-0.014208 -0.280757 0.043597 255 255 255
-0.112246 -0.070139 -0.043014 102 149 237
-0.033838 0.277907 0.019366 255 255 255
-0.088641 -0.209271 -0.080681 100 139 212
-0.087416 -0.198940 -0.048195 102 149 237
0.209840 0.267117 0.034301 254 255 255
0.076858 0.264433 0.043365 255 255 255
-0.108748 0.023077 -0.012151 103 150 237
-0.090700 -0.109459 -0.028390 104 151 237
-0.087392 0.168066 0.022010 104 150 236
0.349589 0.276792 0.018318 255 253 254
0.070487 -0.266268 0.012647 255 255 254
0.363338 0.277172 0.015752 253 255 255
-0.049529 -0.287423 0.001016 255 255 255
0.134935 -0.264083 -0.017106 254 255 254
0.122527 -0.263183 0.029929 254 255 255
-0.091906 -0.173493 0.030974 103 150 237
0.363545 0.269247 0.007434 255 255 255
0.338195 0.267705 0.044396 255 255 254
-0.093587 -0.179508 -0.047378 102 150 236
0.307600 0.267115 0.054380 254 255 255
0.339126 -0.263122 0.043708 255 255 254
0.003797 -0.279323 0.003641 253 254 255
-0.092063 -0.261142 -0.034167 102 149 236
-0.090336 0.102682 -0.036279 101 149 234
-0.054302 0.277742 0.002426 254 255 255
-0.115098 -0.092065 0.000210 103 150 236
-0.087846 -0.194565 -0.028619 102 149 237
-0.105813 -0.105987 -0.096355 101 149 237
-0.108981 0.191089 0.034532 102 150 236
0.055923 0.275918 0.053545 255 255 255
-0.015126 0.277356 -0.015324 255 254 254
-0.100916 -0.039791 0.021436 103 150 236
0.143442 -0.263684 0.036037 255 255 255
0.092841 0.266101 -0.019637 255 255 253
-0.094589 0.177942 -0.049426 101 150 237
-0.105631 0.065003 -0.045870 102 148 237
-0.097874 0.280648 -0.026177 101 148 236
0.327146 -0.268013 0.050637 255 255 253
0.222777 0.264797 0.046367 255 254 254
0.325275 0.277073 0.036156 255 255 255
0.338422 0.276422 0.024851 255 255 254
-0.112026 0.128762 0.000636 103 151 238
0.091712 -0.276414 -0.007436 255 255 254
-0.111491 0.123581 -0.031228 101 149 237
-0.092332 -0.150895 -0.035172 104 151 237
-0.104940 0.071986 -0.044393 101 149 236
-0.090277 -0.243374 0.057080 104 148 231
-0.104706 0.090978 -0.041905 101 149 236
-0.085726 0.104767 0.024542 102 150 236
-0.042937 -0.280558 0.046885 254 253 255
0.170107 0.266552 -0.008509 255 255 255
-0.101287 0.045366 0.035312 104 150 236
-0.091235 -0.202545 0.053470 102 150 232
0.264598 0.277252 -0.002106 253 253 255
-0.015299 0.263814 0.015439 255 255 255
0.097296 0.278264 -0.024996 255 255 254
-0.005502 0.277213 0.035164 255 254 254
-0.091461 -0.056136 0.028897 103 151 236
0.265482 -0.257442 0.017571 255 255 253
0.225075 -0.269512 0.065825 255 255 255
-0.114056 -0.111662 -0.028816 101 143 220
-0.091422 0.251193 -0.018831 101 149 237
0.065744 0.266341 0.042811 254 255 254
-0.024262 -0.279754 0.028975 254 255 253
-0.037128 -0.270225 0.033239 255 255 255
-0.104281 -0.270379 -0.061174 104 150 237
-0.103640 -0.118419 0.039617 101 150 237
0.176928 0.278020 0.059851 255 254 255
0.278240 -0.259847 0.062587 255 255 255
-0.104164 0.018319 -0.013258 104 149 235
-0.107714 0.215807 -0.011761 101 148 238
-0.106686 -0.079733 -0.025337 104 150 237
-0.105401 -0.201502 0.053825 103 149 235
0.335997 -0.258992 0.006374 255 255 255
-0.065253 -0.269979 0.056079 255 254 254
0.355883 -0.254404 0.033938 255 255 254
0.230975 -0.261653 -0.004463 255 254 255
-0.113041 -0.163980 -0.009144 101 149 237
0.039938 -0.267656 0.003364 255 255 254
-0.107998 0.127288 -0.066993 103 150 237
0.100885 -0.264754 0.008966 254 254 254
-0.091944 0.085913 -0.023981 104 150 235
-0.092879 0.135942 -0.002623 134 140 144
0.134040 0.267107 0.033434 255 255 255
-0.093324 -0.057176 0.029410 101 148 236
-0.090804 -0.058981 -0.023574 104 148 236
-0.092224 -0.054804 -0.013350 102 149 237
-0.063956 0.269578 0.060609 254 255 254
0.310957 -0.267536 0.027815 255 255 255
0.029018 0.276555 -0.027170 255 254 255
-0.108756 0.165752 -0.044810 103 150 236
-0.093252 0.088558 -0.025126 103 148 230
0.063006 -0.277176 0.021837 253 254 255
-0.106566 -0.241300 0.048733 101 149 236
-0.089024 -0.220740 0.045328 101 148 235
0.118818 0.267778 0.010574 255 255 255
-0.091120 0.219617 0.010681 103 150 235
-0.106240 0.125889 -0.055898 103 151 236
-0.114467 -0.191168 -0.022466 103 146 226
-0.111352 0.121037 -0.088870 103 150 237
-0.094682 0.275635 0.000003 103 150 237
0.007377 -0.268801 0.019487 255 254 254
-0.114343 -0.088131 -0.067879 104 150 236
-0.092332 0.148327 0.001803 102 149 236
0.351636 -0.267543 0.050551 254 254 254
-0.046600 0.267048 0.057360 255 254 255
-0.062355 0.262197 0.054790 255 255 255
-0.107503 0.043234 -0.077872 101 149 236
-0.104427 0.037537 -0.005327 101 149 233
-0.105499 -0.235424 -0.074552 104 150 237
-0.086489 -0.203079 0.022976 103 151 238
0.020333 0.277607 -0.002393 255 255 254
-0.107875 -0.098611 -0.052311 101 148 231
-0.071660 0.267743 0.061244 255 255 255
-0.107756 -0.058075 -0.055874 101 149 236
0.266637 -0.266825 -0.002420 255 255 255
-0.054699 -0.272420 -0.007954 255 255 255
0.110702 -0.263919 -0.005191 255 255 255
-0.067086 -0.282023 -0.008529 255 255 255
0.000686 0.265244 0.061080 255 254 255
0.163639 -0.260125 0.055119 255 255 255
0.266241 -0.268833 0.015859 253 253 255
0.275975 0.266452 0.007964 254 255 254
-0.108340 0.065041 -0.066254 103 149 235
0.014323 -0.269390 -0.012027 253 254 255
0.150920 -0.277634 0.008724 255 254 253
0.064769 -0.266299 0.024472 255 255 254
-0.091478 0.180013 0.019333 104 150 235
-0.106407 -0.056105 -0.037475 104 150 237
-0.102963 0.160884 0.026424 134 137 145
-0.092716 0.230814 0.026534 103 146 224
-0.105356 0.156518 0.035908 101 149 238
0.007040 0.277631 -0.009871 254 254 255
-0.096966 0.163244 -0.087752 101 150 238
-0.113925 -0.239398 -0.064777 104 149 232
-0.115667 -0.221987 -0.047364 103 149 235
-0.001870 0.265323 0.018145 255 255 254
0.121598 0.275791 0.054064 254 255 255
0.116950 -0.273919 0.026967 254 255 255
-0.095320 -0.230285 -0.081084 101 149 236
0.277833 -0.257874 0.060000 255 255 254
0.203179 0.276579 0.029097 254 254 255
-0.104330 -0.119686 -0.036650 103 150 237
-0.047470 0.277716 0.008930 255 255 255
-0.089448 -0.079222 0.005838 133 132 138
-0.110145 -0.152840 -0.020559 103 150 234
0.285251 -0.267643 0.039163 253 255 255
-0.042429 0.263287 0.061967 255 254 254
-0.108726 -0.099628 -0.085361 135 137 143
0.111247 -0.257472 0.047900 254 255 255
-0.011386 -0.267563 0.045462 255 255 255
0.214105 -0.258727 0.025757 253 255 255
-0.078783 -0.269485 -0.011745 255 255 254
-0.104165 -0.095133 -0.082287 102 149 236
-0.106470 -0.273998 0.029797 103 149 237
-0.104391 0.099291 0.010217 101 145 224
-0.107692 -0.097638 0.007907 103 150 236
0.247485 -0.262930 0.061356 255 255 255
-0.091373 -0.246629 -0.037319 102 150 236
-0.095097 -0.070349 -0.011337 103 149 237
-0.093421 -0.242416 0.046082 102 148 231
-0.067110 0.277552 0.043336 255 255 254
-0.089942 0.090859 -0.088342 103 150 238
-0.091724 0.152405 0.047306 103 151 238
-0.114805 0.149200 -0.066395 102 150 237
-0.108528 -0.068459 -0.054289 104 148 228
-0.086350 -0.119412 -0.091703 104 150 236
-0.109673 -0.075829 -0.040270 102 150 236
0.294450 -0.256043 0.062062 255 254 254
-0.112713 -0.161256 -0.012271 101 149 237
-0.111053 0.239530 0.016714 104 149 235
0.176430 -0.271360 0.049270 254 255 255
0.133959 0.270849 0.040472 254 254 255
-0.103167 -0.244302 0.049215 103 147 228
0.028428 0.277475 0.017845 255 255 255
0.390066 -0.264750 0.013275 255 255 255
0.029294 -0.278052 0.016855 254 255 255
-0.111837 0.112519 0.036573 102 146 227
0.047612 -0.277903 -0.003169 254 255 255
-0.110458 0.186484 0.053871 104 141 211
0.019146 0.265518 -0.027943 254 253 254
0.054091 0.274155 0.060930 255 255 255
-0.110700 -0.216718 0.053900 102 147 227
0.174175 0.266228 -0.010928 253 255 253
-0.108066 -0.179157 0.000344 103 149 237
-0.062549 -0.270413 0.053207 255 255 255
0.341133 0.276772 0.032783 255 253 254
-0.107453 0.171259 0.040812 103 150 235
-0.087478 -0.238869 0.017077 101 149 237
-0.113039 0.061140 -0.083987 102 148 236
-0.109020 0.113717 -0.089697 102 149 236
0.370770 0.267320 0.013830 254 254 255
-0.008554 0.267332 0.037109 255 255 254
-0.102267 0.017356 -0.008485 104 149 236
-0.111492 0.118057 0.038356 103 150 237
-0.091520 0.170807 0.000914 101 150 237
-0.102778 0.143369 0.030751 133 136 142
-0.089485 0.236977 -0.054655 104 140 206
-0.088412 -0.126131 0.008813 132 138 142
-0.095298 0.103285 -0.093354 101 148 238
-0.099489 -0.286809 -0.037815 102 150 237
-0.089795 0.196316 0.030435 136 139 146
0.253912 0.275245 0.048012 254 254 255
-0.109310 -0.175584 -0.033316 136 139 144
0.272735 0.265805 0.060231 255 255 255
-0.105166 0.177294 -0.019424 104 150 235
-0.075164 -0.270037 0.032873 255 255 254
0.015402 0.268136 0.017530 255 254 255
0.116730 -0.275513 -0.013160 255 254 254
-0.094760 -0.225254 0.041965 103 148 236
0.220676 0.275713 0.053827 253 254 254
0.233459 -0.272270 0.011105 255 254 255
0.147909 -0.274716 0.026974 255 254 255
0.123664 0.276603 0.010601 255 255 254
-0.055165 0.267592 -0.015044 255 255 254
0.349303 -0.254870 0.013714 255 254 253
-0.029661 0.276002 -0.036495 254 254 255
0.287094 -0.261718 0.045315 255 255 255
-0.112164 0.121248 -0.061301 103 151 236
0.165088 -0.260577 0.061812 255 254 254
-0.109581 -0.277638 0.016624 103 149 236
-0.115403 0.151175 -0.063520 103 150 237
-0.113853 0.184096 0.007198 103 150 234
-0.108493 0.167211 0.009545 103 150 238
0.361678 0.267191 0.053921 254 255 255
-0.107662 -0.277962 -0.012227 102 149 237
-0.107317 0.057861 0.012771 103 149 236
0.137380 0.265929 -0.009325 254 254 254
0.165958 0.276827 0.028539 255 255 255
-0.091296 0.194778 -0.038026 102 149 236
0.156453 -0.273115 0.028246 255 254 255
-0.101337 0.256891 0.049221 101 148 238
-0.092527 -0.258781 0.027896 104 149 228
0.139525 0.267103 0.012393 255 255 255
0.108942 -0.275548 0.002228 255 254 255
-0.088939 -0.242641 0.050065 134 141 145
-0.110315 -0.103840 0.026415 103 150 237
0.003796 -0.276960 -0.028449 254 254 255
0.353153 -0.258660 0.034851 253 254 254
0.297526 0.268985 0.051644 255 254 254
0.142332 -0.259585 0.056913 253 255 255
-0.108085 -0.116156 -0.049791 103 148 230
-0.108950 -0.035381 -0.005943 101 148 232
0.194886 -0.257031 0.037560 255 254 255
-0.104439 -0.068957 -0.044444 101 150 237
-0.031713 -0.282798 -0.011801 253 255 255
0.251196 0.262078 0.056455 255 255 255
-0.099702 -0.032160 -0.006512 101 148 237
-0.091334 0.025254 -0.044353 104 151 238
-0.089495 -0.083400 -0.014911 103 150 236
-0.090967 0.165529 0.010703 103 143 218
-0.020737 -0.269128 0.027556 255 254 255
-0.094249 -0.204319 -0.053040 102 151 236
-0.110025 0.157570 -0.082888 102 149 234
-0.002467 -0.268681 0.019330 255 255 254
-0.102252 -0.256536 0.047978 103 150 238
0.255570 0.268815 0.029997 255 254 255
0.192647 0.273224 0.057936 254 254 255
0.269717 0.275497 0.049401 255 255 255
-0.109481 -0.155986 0.041981 102 150 236
0.060403 0.275342 0.039820 253 254 254
-0.093430 0.058856 -0.077966 101 150 237
-0.107596 -0.062715 -0.076168 103 150 237
-0.057495 0.282943 0.053387 253 254 254
0.287497 0.275762 0.036366 254 253 255
0.370214 -0.266190 0.043354 254 255 254
-0.094521 0.167314 0.051216 101 150 236
-0.086640 -0.074958 -0.010932 102 138 203
-0.107381 0.112846 0.006363 103 149 236
-0.090014 0.175156 -0.041538 103 150 236
-0.112077 0.120808 -0.030778 103 149 235
0.081527 0.266374 0.053354 255 255 254
0.015200 0.266771 0.038553 254 254 255
-0.116716 0.126357 -0.012894 102 148 233
-0.089579 -0.095494 -0.020091 104 151 237
-0.113064 0.086045 0.012868 103 150 237
-0.096699 0.061437 -0.066621 101 149 238
-0.092695 -0.033063 -0.004567 104 150 236
-0.092330 0.096852 -0.043912 134 138 144
-0.090134 0.271280 -0.004502 102 150 237
0.180783 0.275372 0.063021 255 255 255
0.383807 0.275091 0.040199 255 255 255
0.352766 0.275791 0.010645 255 255 254
-0.085978 -0.281546 0.002855 255 254 255
-0.107434 -0.153208 -0.002765 102 149 233
0.391575 -0.253693 0.048731 255 255 254
0.067553 0.276335 0.050428 253 255 255
-0.106798 -0.145929 -0.074325 103 149 236
0.310961 -0.258461 0.026982 254 254 255
-0.110847 0.076573 -0.016116 103 150 237
-0.093640 -0.098996 -0.019488 102 148 230
-0.091282 0.025278 -0.072179 104 148 234
0.061435 0.278311 -0.001697 255 255 255
0.257616 0.266961 -0.007607 254 254 253
0.101153 0.275828 0.045582 255 254 254
0.141118 -0.263664 0.016425 255 254 255
-0.111579 0.066637 -0.016098 102 150 237
-0.088186 -0.269799 0.058149 255 255 255
0.106660 0.278265 0.006577 254 254 255
-0.094740 -0.161977 0.049174 104 151 238
-0.089326 0.252393 -0.042241 104 150 237
0.039290 -0.266508 0.026890 255 255 254
-0.098618 0.120902 -0.094290 102 150 236
-0.109751 -0.163811 -0.009301 102 147 231
-0.086747 0.275689 0.048010 255 255 255
0.226237 0.266499 -0.000974 255 255 255
-0.058516 -0.270419 0.019467 255 254 255
0.059222 -0.277977 -0.005920 255 254 255
0.172825 -0.257599 0.054486 254 253 255
0.322301 -0.267692 0.047925 255 255 255
-0.098425 0.277082 -0.022455 104 148 237
-0.105755 -0.246789 -0.059041 104 150 237
0.243306 -0.258471 0.011581 253 254 254
-0.088690 0.260270 0.045879 102 150 236
-0.089119 0.077899 -0.083821 132 135 139
-0.096978 0.097379 -0.051112 102 150 238
-0.089563 0.204457 0.049190 102 149 237
0.237711 0.266028 0.048929 254 255 253
-0.102065 -0.092317 0.022480 102 140 211
0.177334 -0.261644 0.063022 253 254 255
0.192203 0.276576 0.000065 255 254 255
0.054367 0.276908 0.018142 255 255 255
0.038166 0.276331 0.034785 255 255 255
-0.089307 -0.181025 -0.090104 102 150 238
-0.085606 -0.094023 0.030563 102 148 235
0.158055 0.265186 0.052192 255 255 254
0.398922 0.269005 0.036142 254 255 255
-0.032029 -0.283336 -0.026346 254 255 254
0.231086 -0.257352 0.029447 254 254 255
0.359438 0.267529 0.064882 254 254 254
0.126031 -0.274264 0.020488 254 254 255
-0.106482 -0.192463 0.012580 102 149 237
-0.093193 0.206007 0.033673 102 150 235
0.364184 -0.256037 0.052999 255 255 255
-0.085754 -0.053935 -0.081606 101 148 238
0.189129 0.271490 -0.014811 254 254 255
-0.110466 0.104476 0.036589 105 143 213
-0.053938 -0.281738 -0.013394 255 255 255
-0.070878 -0.270106 -0.019208 255 253 255
0.092698 -0.278047 0.057238 255 254 254
0.116721 0.276092 0.029181 253 254 255
0.269653 -0.254867 0.060357 255 254 255
-0.108374 -0.035258 -0.041212 103 149 233
-0.063346 0.278741 0.055500 255 254 255
-0.092593 0.151590 0.030736 103 149 237
0.323470 0.268167 0.010049 255 255 255
-0.098921 -0.222407 -0.078824 105 151 236
0.259835 0.273279 0.066467 255 255 255
0.301848 -0.263618 -0.002068 254 255 254
-0.112460 -0.181871 -0.052624 102 149 236
-0.090769 -0.102587 0.001591 104 151 236
-0.108157 0.159334 0.028814 101 150 236
0.271126 -0.265238 0.002557 255 254 255
0.357703 -0.266249 0.011940 255 255 254
-0.096734 0.141975 -0.029185 102 149 236
0.387195 0.273938 0.063099 255 255 255
-0.092709 0.079547 -0.059443 130 133 139
-0.108671 -0.119829 -0.024178 101 147 232
0.062806 -0.266645 0.010713 254 254 254
0.019426 -0.261538 0.058421 255 255 255
-0.117554 -0.065429 -0.003830 103 149 236
-0.093864 0.081425 -0.094790 104 141 210
-0.049423 0.267253 -0.003944 254 255 254
0.062297 -0.276834 0.008373 255 255 254
-0.038124 -0.280827 0.012104 253 254 253
0.214249 0.265658 0.056639 255 255 255
-0.100212 -0.281589 0.017749 104 149 233
-0.106541 -0.190272 -0.057627 102 150 236
-0.107387 0.247200 0.009031 102 148 236
-0.117060 0.082949 0.028625 103 149 234
-0.104599 0.056522 -0.052187 104 149 233
-0.102927 -0.067027 -0.041523 102 149 237
0.200884 -0.269067 0.044555 255 254 254
-0.110884 0.221016 0.017220 102 147 228
0.053371 0.265940 -0.007433 255 255 255
-0.094459 -0.228136 -0.051906 103 151 236
-0.091309 -0.122307 0.029634 102 148 231
-0.045065 -0.281272 0.012619 255 255 255
0.262472 -0.256340 0.016055 254 255 254
-0.110763 -0.233932 -0.029223 103 149 236
0.383624 0.272634 0.006770 254 255 255
-0.104583 -0.099758 -0.094674 102 149 237
-0.088760 -0.196962 -0.046535 101 151 237
-0.092758 0.158714 0.049365 103 151 238
-0.016480 -0.279622 0.017385 254 255 255
0.146397 -0.263361 0.020761 254 255 255
-0.109716 -0.140721 -0.001435 103 150 236
-0.091532 -0.055895 -0.046921 102 150 235
-0.089155 0.086878 0.036812 101 148 233
-0.096808 -0.070295 -0.005326 102 148 235
0.298456 -0.253825 -0.004006 254 253 254
-0.107865 0.183895 -0.012915 102 150 236
-0.105740 -0.102221 0.004604 101 148 234
-0.093906 0.020160 -0.023207 102 149 237
0.058485 0.276434 0.055597 255 255 254
-0.103490 0.204586 -0.081335 102 148 237
0.111626 0.266469 0.006061 254 255 253
0.153029 -0.271975 0.051187 255 255 255
-0.023972 -0.281450 0.025023 255 255 255
-0.093032 0.114041 -0.000543 102 149 235
0.204378 0.265601 0.014632 253 253 254
0.240709 -0.257893 0.021038 254 254 254
0.142110 -0.277045 0.024684 255 254 254
0.078640 0.278175 -0.006165 255 255 255
-0.090654 -0.256165 0.046749 103 151 238
-0.085994 -0.153358 -0.058951 103 149 237
-0.025503 -0.280617 0.048996 255 255 255
0.162903 0.275639 0.028220 255 253 254
-0.090131 -0.061348 -0.018464 101 149 237
-0.087009 0.019294 0.013499 104 150 235
-0.093512 -0.273586 -0.038290 104 143 217
0.056191 -0.278368 0.031192 255 255 255
0.008698 0.276953 -0.024263 254 254 255
0.178739 0.276787 0.005054 255 253 254
-0.104249 -0.246856 0.022989 103 145 224
-0.091114 0.083458 -0.072362 101 149 238
-0.096429 0.022648 0.023797 104 151 238
-0.097447 0.214849 -0.007281 101 145 228
0.000831 -0.279145 0.040604 255 254 255
-0.104844 0.071423 -0.038274 101 150 236
0.241054 -0.261017 0.060441 255 255 255
0.198438 -0.261215 0.061178 255 255 254
0.381004 0.265923 0.062940 255 254 255
-0.096093 0.089450 -0.002281 101 143 220
-0.106010 -0.161866 -0.045765 103 149 237
0.005438 -0.281065 -0.014137 255 254 254
0.363289 0.268777 0.027353 255 255 255
0.250683 -0.272654 0.014447 255 255 255
0.042458 0.276220 0.033320 255 255 255
-0.092842 -0.089473 0.011060 102 149 235
-0.090310 0.054683 0.028090 101 150 238
-0.107547 -0.255327 0.045174 102 143 219
-0.103145 0.044952 -0.029158 103 151 238
0.055528 0.260655 0.054469 254 254 254
0.190918 0.276232 0.035551 253 255 254
0.314941 -0.255212 0.025023 253 253 254
-0.105507 -0.209683 -0.063618 103 151 237
0.203975 0.266468 0.021583 253 255 254
0.185253 -0.261443 0.030535 255 255 255
0.080076 0.268183 -0.027995 254 255 255
0.325900 0.267808 0.014512 254 255 254
-0.045769 -0.272190 0.038432 254 255 254
0.134527 -0.272565 0.047875 254 254 254
-0.086365 0.239833 -0.026704 102 150 237
-0.108607 -0.043850 -0.062722 101 150 238
-0.088708 0.266686 -0.004553 255 254 254
-0.048249 -0.271781 0.004469 254 255 255
-0.030506 0.263186 0.049647 255 255 255
-0.083897 0.280316 -0.020058 255 254 255
0.041337 0.278385 -0.026785 255 255 255
0.080759 -0.275101 0.056509 254 255 253
0.248135 -0.257774 0.043280 254 255 254
-0.090160 -0.116433 -0.081124 102 150 237
0.140385 0.267126 0.025156 255 255 253
-0.108635 -0.215253 -0.004088 103 149 236
-0.089628 -0.213562 -0.082899 103 149 236
-0.105052 0.039388 -0.045167 102 149 235
0.186721 0.269761 -0.013401 253 255 255
0.028856 0.278247 -0.004269 255 254 255
-0.097576 0.016321 0.017077 101 149 235
0.296627 -0.267555 0.044476 255 254 255
-0.115491 0.232161 0.006446 102 150 236
-0.092175 -0.122814 0.006025 128 132 138
-0.092980 -0.074886 0.010974 103 150 236
-0.108454 -0.224552 -0.016778 104 151 237
-0.090144 0.082126 -0.074557 104 151 237
-0.088698 0.065102 -0.065868 101 149 236
-0.013647 -0.268262 0.047055 255 255 255
0.237042 0.273848 0.064620 254 254 254
0.288092 0.276333 0.016032 255 255 255
0.267662 -0.268554 0.029837 253 255 255
-0.093677 -0.044929 0.025197 103 145 224
-0.091468 0.087249 -0.078018 104 150 235
0.133838 -0.262539 0.047373 255 255 255
-0.103575 0.168272 0.031409 102 149 236
-0.105003 -0.235423 -0.056878 104 149 234
-0.091544 0.086376 -0.022312 102 149 237
0.081839 0.276363 0.021241 254 254 255
0.051107 -0.267251 -0.014379 253 255 255
0.317382 -0.269259 0.060783 254 254 255
-0.086457 -0.137091 -0.096581 140 136 141
-0.088007 -0.201023 -0.001209 132 134 141
0.177539 0.266988 0.026673 255 255 254
0.031420 0.268519 -0.026353 255 255 254
-0.089457 -0.213263 -0.019415 103 139 202
-0.102316 -0.279644 0.005853 103 149 237
-0.109694 -0.181406 -0.087158 103 149 237
0.093348 -0.264493 -0.011120 253 254 255
0.131642 -0.275585 -0.019038 255 255 255
0.135159 -0.264253 0.018824 255 255 255
0.189236 0.275867 0.004567 253 253 255
0.080728 -0.264486 0.002881 253 255 255
