ply
format ascii 1.0
element vertex 1178
property float x
property float y
property float z
property uchar red
property uchar green
property uchar blue
end_header
-0.090750 -0.222839 0.048765 110 144 202
0.022235 -0.238134 0.012652 252 252 253
-0.066265 0.265997 0.002578 253 253 252
-0.054164 0.259454 0.052063 254 253 254
0.267415 0.140854 0.007294 253 255 254
-0.094195 0.172752 0.016863 128 129 134
-0.090388 0.217577 0.053427 109 143 201
-0.081964 0.065092 0.046955 127 129 134
-0.066772 0.138444 0.046752 112 139 186
-0.068766 0.073553 0.041996 108 136 190
-0.033734 0.268774 0.021325 253 252 253
-0.085208 0.279319 -0.035501 112 140 193
-0.055081 0.274744 0.008525 255 253 252
-0.094087 0.094956 0.031457 124 129 138
0.283422 -0.125849 0.035702 255 255 253
-0.084842 0.165818 -0.080357 128 132 139
-0.018076 0.260868 -0.005007 255 254 252
-0.070157 0.208177 0.004384 125 161 222
0.277049 -0.112076 0.052832 253 254 255
0.131972 0.185235 0.017236 250 251 252
0.026296 0.241269 0.019496 254 255 254
-0.064690 -0.171314 0.033979 130 132 140
-0.095253 0.045099 -0.065186 118 133 162
-0.074927 0.120896 -0.086756 107 148 222
-0.051640 0.276838 0.018218 177 184 191
-0.066164 -0.218363 -0.002286 130 132 135
0.333504 0.124108 0.056310 251 251 251
0.084589 0.215002 -0.023188 251 251 253
-0.091993 0.035079 -0.030339 112 148 214
-0.068357 -0.180098 0.022397 106 140 202
-0.092747 0.095351 0.009762 105 141 202
-0.036900 -0.250865 -0.038489 252 252 253
-0.067987 -0.129532 0.038508 127 128 131
-0.070175 -0.068179 0.015429 125 135 150
-0.047517 0.272783 0.006042 250 251 253
0.101926 -0.188402 -0.011636 253 253 253
-0.088955 -0.220577 0.044730 132 136 140
0.041312 0.235238 0.062569 254 255 252
-0.092357 0.090508 -0.009416 127 134 141
-0.066147 -0.263548 -0.037058 132 133 135
-0.069671 -0.172048 -0.072914 125 129 132
-0.093401 -0.116647 -0.080061 126 128 133
-0.094756 0.170750 -0.002561 111 139 189
-0.073040 0.153395 -0.083117 133 126 130
-0.090149 -0.077748 0.014418 128 130 135
-0.065635 0.246291 -0.019059 109 147 216
-0.070712 0.054007 -0.049446 111 133 172
0.058507 -0.218869 0.045300 253 253 253
0.196901 -0.150209 -0.007924 252 253 253
-0.092532 0.154993 -0.032219 130 131 136
-0.090442 -0.137150 0.027770 109 148 219
-0.073010 0.166704 -0.064191 109 150 225
-0.023972 -0.243783 0.039663 254 253 254
-0.067622 0.253887 -0.057640 130 133 143
-0.094117 0.136559 -0.039361 114 145 200
-0.071451 -0.038907 -0.022054 111 148 218
0.306574 0.127867 0.001434 253 255 255
-0.085242 0.256932 0.053992 147 150 158
0.018167 -0.238428 0.035041 254 253 254
-0.083888 0.014358 0.017809 113 137 183
-0.074510 -0.265624 -0.061063 116 140 184
0.206179 0.176302 0.017788 252 253 253
0.329139 -0.097867 0.009641 251 250 251
0.070685 0.223225 -0.021244 253 252 253
0.166653 -0.160517 0.018930 253 253 252
-0.076232 -0.279453 -0.030053 124 128 135
-0.066830 0.241082 -0.071573 109 152 228
0.169426 -0.159194 0.019563 250 251 253
-0.093838 0.163986 -0.076476 129 132 140
-0.066421 -0.252177 -0.003388 128 130 134
-0.090155 0.030403 0.019729 130 132 138
0.001738 -0.247711 -0.034450 252 253 254
-0.075683 0.056853 -0.079476 109 136 185
-0.060108 0.260235 -0.040927 250 250 252
-0.092953 0.074032 -0.031464 107 136 184
0.311285 -0.101699 0.029495 250 251 251
-0.067925 0.142234 0.042963 106 139 200
0.171010 -0.163616 -0.011982 253 251 253
0.162707 0.186999 0.036514 253 254 254
0.152044 -0.165344 0.046408 251 253 252
-0.069761 -0.115375 -0.008926 128 129 132
-0.082941 0.067162 0.046550 131 134 139
0.139021 0.198403 0.047924 252 254 252
0.192017 0.166499 0.035829 254 254 253
-0.002588 0.245586 -0.046010 253 254 253
0.101546 -0.201507 -0.019881 254 255 254
0.190879 -0.156205 -0.006757 253 254 252
-0.070510 0.047196 -0.055708 109 135 181
-0.084794 -0.092807 -0.085162 130 130 133
-0.067734 -0.113370 0.041315 112 131 166
-0.062909 -0.263616 -0.014372 251 252 252
-0.067686 -0.169287 0.013879 133 137 141
0.139518 -0.184698 0.020939 252 252 253
-0.093262 -0.169286 0.054378 108 147 216
-0.067774 -0.043278 -0.007992 111 141 195
-0.057792 0.270237 -0.050725 251 252 252
-0.007002 -0.237606 0.021569 251 252 252
-0.058746 -0.275600 -0.010527 251 251 252
-0.063788 -0.086566 0.040457 129 131 138
0.237544 -0.142020 -0.000005 250 250 253
-0.092972 0.056914 -0.052907 113 133 164
-0.069492 -0.102518 -0.034581 108 148 218
0.185265 -0.164118 0.008422 253 252 254
-0.068384 -0.126970 -0.071569 108 150 228
0.294946 0.143616 0.052696 252 252 254
-0.081341 -0.276094 0.023657 127 128 132
-0.064487 -0.277661 -0.009253 108 138 192
-0.076649 0.084266 0.045950 115 133 167
-0.005015 0.241379 -0.016842 254 254 254
-0.093347 0.108185 0.028087 116 134 169
0.241136 -0.135957 0.057684 252 251 252
-0.092145 -0.217661 -0.036005 129 135 146
-0.011909 0.242597 0.035311 251 252 252
0.005167 0.250254 -0.024080 252 253 252
0.019644 0.243878 0.004704 254 253 255
0.158473 -0.165669 -0.011018 251 252 252
-0.008691 0.256646 0.006632 255 255 255
-0.080021 0.029250 -0.050192 131 131 135
-0.070427 0.098490 -0.022975 169 176 176
-0.093319 0.189190 -0.034166 128 130 134
0.185306 -0.163142 0.038608 251 251 252
0.031965 -0.232577 -0.020124 251 251 251
-0.089788 -0.200135 0.046105 108 136 185
0.080241 0.207779 0.036439 254 254 253
-0.093296 0.063472 -0.040050 127 129 133
-0.043833 -0.252809 0.022836 253 255 253
-0.092395 -0.204637 0.007074 121 133 153
0.276122 -0.116019 0.055933 253 254 254
-0.094083 0.185580 -0.004491 108 145 210
0.340374 0.124178 0.057620 254 254 253
0.337607 0.127834 0.032473 252 254 254
0.223385 0.167051 0.019395 254 254 254
0.093181 0.202563 -0.006014 252 253 254
0.242608 0.161061 0.027200 254 253 254
-0.067627 -0.253916 -0.056411 125 130 131
-0.007431 -0.252269 -0.012891 253 254 254
0.190145 -0.150046 0.033963 251 252 254
0.183217 -0.154755 -0.008560 255 254 255
-0.091131 0.181054 0.030765 109 140 199
-0.025660 0.249224 -0.050380 255 253 255
-0.078523 0.064786 0.047631 135 138 144
-0.092956 -0.224527 -0.020025 111 141 195
0.036882 0.237002 0.017126 253 253 254
-0.067637 -0.173350 -0.022729 110 138 184
0.059524 0.214931 -0.017408 252 255 253
0.276577 0.138663 0.060366 253 255 255
-0.064201 -0.125477 -0.008228 118 138 170
-0.013575 0.259389 0.045584 251 252 252
-0.097274 -0.173303 -0.082652 110 140 194
-0.090100 0.217693 0.050401 126 128 133
0.152755 -0.180694 -0.005778 252 253 254
0.019358 0.244557 0.061048 254 253 254
-0.094919 -0.068147 -0.070699 115 151 216
-0.093339 0.181678 -0.010461 109 135 182
0.281886 -0.115013 -0.009566 255 254 252
0.199135 0.174829 0.043438 253 251 252
0.304735 0.127811 0.014048 254 255 252
-0.069270 -0.136463 0.029600 130 132 136
-0.088609 -0.068009 0.028153 114 137 174
-0.090933 0.179369 0.022509 125 128 135
-0.049749 -0.272564 0.015047 251 252 253
-0.065644 -0.267886 -0.043540 251 252 252
0.161652 -0.173898 0.046992 253 254 254
0.024753 -0.237083 -0.009133 255 255 253
-0.066800 0.196827 0.048178 109 135 180
-0.091660 -0.194796 -0.012606 128 128 132
-0.065071 0.264974 0.012517 252 252 252
-0.079154 -0.119336 -0.091275 123 133 155
-0.071918 0.098149 -0.037669 126 129 136
0.022027 -0.222783 0.057003 253 255 255
-0.068614 0.184679 0.028855 110 141 197
-0.088572 0.257819 0.003951 113 140 188
0.315092 -0.112935 -0.007472 252 253 253
-0.020207 -0.242225 -0.035791 250 251 252
0.142675 0.184630 0.059802 254 254 255
-0.042744 -0.268560 0.008503 252 253 252
0.195037 0.166058 0.019179 251 252 253
-0.070622 -0.267394 -0.022535 252 254 252
-0.073992 0.218246 0.057213 108 149 223
0.034062 -0.232248 -0.011436 252 252 253
-0.069164 0.054085 -0.011229 128 129 132
0.055317 -0.211437 -0.030288 253 253 254
0.020478 0.236635 0.055830 252 252 254
-0.077696 0.147286 -0.081135 125 126 130
-0.096580 -0.144313 0.016758 114 147 206
-0.065123 -0.145264 0.009262 106 139 196
0.353288 0.118711 0.044669 253 253 254
-0.028994 -0.247757 0.010894 251 253 254
-0.092348 0.081063 0.005343 113 132 168
-0.072715 -0.115229 -0.085701 136 138 141
0.198158 -0.158937 0.057950 254 254 254
-0.091267 -0.276050 -0.023232 131 132 137
-0.059105 0.278745 -0.028792 254 253 252
-0.001344 -0.231662 0.059443 181 182 191
0.295616 -0.123495 0.052857 253 255 252
-0.056440 0.258883 0.049643 252 253 252
0.272817 -0.127205 0.005597 254 252 253
0.099970 0.206230 -0.021681 252 252 254
-0.069143 -0.248181 -0.048388 112 148 217
0.237041 -0.133024 0.023885 251 252 252
0.203668 -0.157574 0.016293 253 254 253
-0.001070 0.251716 0.030837 251 252 252
0.167271 -0.173756 -0.010907 253 253 253
-0.064626 0.261043 -0.045521 252 253 252
-0.072088 0.127953 -0.034387 130 130 134
-0.068070 0.023249 0.003265 132 132 136
-0.013401 -0.255219 -0.033600 252 254 252
0.152195 0.180961 -0.014979 250 251 251
-0.091346 0.075716 0.031598 111 134 178
-0.095603 -0.201373 -0.065844 109 151 226
0.026263 0.227486 0.035234 253 253 254
0.019540 -0.227287 0.061465 253 254 253
-0.091237 0.141802 0.018883 108 144 207
-0.025613 -0.260082 -0.007944 251 253 253
-0.057585 0.264258 0.066662 252 253 253
0.212669 -0.152812 -0.005405 254 254 253
0.160799 -0.160642 0.028374 252 254 255
0.024138 -0.223946 -0.016652 252 252 253
0.285070 0.142276 0.060085 253 253 255
-0.082522 -0.208080 0.026763 127 133 139
-0.049614 0.258879 -0.004851 252 251 253
-0.086318 -0.279717 -0.014865 145 151 156
-0.069307 -0.267579 -0.038171 254 253 254
-0.089766 0.245718 -0.040131 126 128 131
-0.091564 -0.095531 -0.044771 106 145 216
-0.019685 -0.241908 0.057778 251 251 254
-0.023083 -0.248570 0.065511 252 252 253
0.254212 0.144643 0.055783 254 253 254
-0.067215 0.195106 0.029059 127 130 138
-0.092493 0.100740 0.005662 128 132 135
0.263856 -0.134864 0.029646 253 253 253
-0.069311 -0.096369 -0.023921 115 135 172
0.082106 0.219409 -0.011813 254 254 253
0.020366 0.234284 0.063253 252 253 254
0.008471 -0.230805 0.037114 253 253 254
-0.065348 -0.167505 0.026939 121 131 148
-0.066069 -0.043465 -0.034413 114 141 189
0.169523 -0.163586 -0.011982 253 254 254
0.052337 0.216910 0.020063 253 254 255
0.031421 -0.220305 -0.020175 252 253 252
-0.062335 -0.087210 -0.072170 160 167 171
-0.080712 0.052426 -0.075515 109 138 189
0.039906 -0.214638 0.049988 253 254 255
-0.093292 -0.184368 -0.032920 130 132 138
-0.069393 -0.130867 0.013785 109 144 209
0.097858 -0.197785 0.066046 251 252 252
0.115817 0.195126 0.025168 251 253 252
0.062195 0.213997 -0.009530 255 254 255
-0.065891 -0.044786 -0.020910 134 137 144
-0.002122 0.252649 -0.019971 251 252 252
-0.068946 -0.208253 0.016616 106 141 206
-0.091939 -0.158452 0.009362 108 141 200
0.199990 -0.159777 -0.001559 251 252 252
-0.066034 -0.271381 0.001436 251 251 252
0.098042 -0.202469 -0.024989 249 250 251
0.106034 -0.198085 0.023282 252 254 255
0.153181 -0.166993 -0.002947 250 252 252
0.240458 0.161458 0.026191 255 253 255
-0.067614 -0.272507 0.060553 253 254 252
-0.090935 -0.098653 0.012612 129 132 136
0.221154 -0.136915 0.022220 252 251 253
-0.091064 0.067839 0.029986 109 135 185
-0.067744 0.271199 0.017795 251 252 251
0.014002 -0.226697 -0.014528 251 251 251
-0.055184 0.263904 0.063419 252 254 253
-0.080931 0.091950 -0.084098 107 145 213
0.006326 -0.228952 0.033148 253 253 254
-0.068423 0.216954 0.059020 129 131 135
0.259866 -0.129904 0.033617 193 196 199
0.024103 0.234013 -0.016170 254 255 254
0.112228 -0.196788 -0.002497 252 253 252
-0.069384 -0.230238 0.062265 114 136 173
-0.065172 -0.110401 -0.018080 106 141 202
-0.090410 -0.160841 0.024867 131 136 140
-0.060490 -0.274372 0.011681 251 253 252
0.310927 0.126022 0.038738 252 253 254
0.033159 0.239203 0.032851 253 252 253
0.177256 0.171100 0.009137 255 255 255
0.089912 0.201312 0.006780 253 253 254
0.042894 0.235429 -0.002708 252 253 253
0.122570 -0.178395 0.014549 252 252 251
-0.063433 -0.249482 -0.021755 172 179 185
-0.089506 0.210101 0.032113 107 136 190
-0.069399 0.150125 -0.020750 124 129 139
-0.069258 -0.043236 0.006515 114 130 158
0.032546 -0.231180 0.042588 254 253 253
-0.075248 -0.258178 -0.061912 107 145 214
-0.093232 0.175931 -0.031964 109 145 209
0.010894 0.233511 -0.015629 253 252 254
-0.087539 0.247603 0.035181 125 136 156
0.145903 0.182320 0.000522 252 252 253
0.006488 0.236006 -0.037550 255 255 253
0.035417 -0.226605 0.064802 253 252 253
0.024609 -0.223354 -0.016757 251 252 253
-0.093248 0.145651 -0.031312 133 136 144
-0.010880 0.242982 -0.017711 253 255 253
-0.093679 -0.059427 0.009402 110 142 201
-0.092665 0.158720 -0.028758 128 130 134
0.045519 0.219721 0.035360 252 253 254
0.283144 -0.123046 0.056082 251 253 252
-0.085032 0.067112 -0.077762 129 132 135
-0.091441 -0.108001 -0.001002 111 142 193
-0.092142 0.231318 -0.009227 122 138 164
-0.067904 0.282880 0.005447 122 130 146
-0.041532 0.255472 -0.021780 253 253 254
-0.058900 0.267511 -0.029431 250 250 251
-0.068742 -0.187464 -0.024417 109 149 221
0.178863 -0.155294 0.021811 252 252 253
-0.062482 -0.267817 -0.005589 117 131 154
0.250545 -0.136352 0.002429 252 253 255
-0.083988 -0.076904 -0.078910 113 149 217
0.204195 -0.144085 0.044939 253 252 253
0.034853 0.237779 -0.021273 254 255 255
0.136566 0.190166 -0.017384 253 253 254
-0.091560 0.037505 0.004007 114 135 167
-0.093723 -0.248164 -0.007970 116 138 174
-0.079008 0.277436 -0.034350 123 141 172
-0.067824 0.166068 -0.081865 125 128 132
-0.092091 -0.116351 0.033597 107 148 222
-0.069266 -0.035315 0.023003 129 131 133
-0.068591 -0.274911 0.014036 254 253 252
0.001530 -0.245091 0.048794 250 252 252
0.183100 0.178606 0.043398 252 252 252
-0.027039 0.264205 -0.038154 254 255 253
0.110674 0.194047 -0.017491 251 251 252
0.061998 0.222520 -0.034665 252 253 254
-0.035291 -0.264125 0.031048 251 251 252
0.063176 -0.205315 0.023664 254 252 252
0.084335 -0.196765 0.064900 255 255 254
-0.086696 -0.239821 0.045664 127 131 133
0.306389 -0.116031 0.016152 252 253 253
-0.093701 0.039526 -0.029450 129 128 133
-0.031958 -0.245910 0.035405 252 252 253
0.264712 0.149131 0.061607 251 253 253
0.081014 -0.197519 0.035341 252 252 254
0.207917 -0.154639 0.020438 254 254 255
0.318244 0.122594 0.046528 253 254 254
0.224574 -0.147850 0.048891 254 252 255
0.125498 -0.183403 -0.014197 253 252 254
0.080614 0.210187 -0.029896 251 252 252
-0.080148 0.217380 -0.081216 108 141 204
-0.081730 -0.060825 0.042578 121 129 143
-0.092495 -0.135954 -0.077811 133 136 139
-0.063507 0.264734 0.051018 253 253 254
-0.044815 0.275978 0.059585 253 255 255
-0.081610 0.026903 -0.047295 116 139 182
0.307532 -0.115956 -0.007266 253 252 252
0.087790 -0.201974 0.017839 254 253 254
0.315620 0.126772 0.028709 255 255 255
0.133057 0.200093 0.006703 253 254 253
-0.066131 -0.221520 -0.019176 128 129 133
-0.049763 0.255407 0.052958 253 252 254
-0.067903 -0.105376 0.037806 123 128 134
-0.094814 0.166310 -0.081261 110 140 193
-0.065119 -0.220362 -0.004191 108 135 182
0.144230 -0.167237 0.059493 254 253 252
-0.069330 -0.126675 -0.063740 108 144 209
-0.077439 0.271486 0.031140 108 139 195
-0.062705 0.280479 -0.006969 128 129 133
0.085441 0.218426 -0.005012 253 253 253
0.114373 -0.191723 0.035133 253 253 254
0.238787 -0.130148 0.012443 252 252 253
-0.071005 0.198958 -0.019133 107 142 204
-0.066726 -0.213214 -0.032359 126 128 132
-0.071036 0.198336 -0.058130 130 127 131
-0.044017 -0.267476 0.040195 251 252 251
-0.038885 0.253658 0.034449 254 254 254
-0.089247 0.201457 0.056245 128 129 133
-0.088654 -0.202002 0.050898 125 131 135
-0.021131 0.247762 -0.010226 252 252 253
0.204449 -0.156377 0.006212 255 254 253
-0.091499 0.213371 -0.005438 126 129 132
0.313857 0.124709 0.046340 251 252 253
0.200021 0.176282 0.037979 250 251 252
0.023674 0.234250 -0.039629 253 254 254
-0.089788 0.232205 0.043046 108 146 214
0.132607 0.201026 0.041810 251 252 253
-0.085482 0.028592 0.033499 114 131 166
-0.091720 -0.275382 0.018460 110 146 210
-0.092099 -0.128909 -0.014974 113 134 175
-0.094387 0.116841 0.047360 111 140 189
0.033614 0.225634 -0.020708 250 250 253
-0.069350 -0.090055 -0.067588 130 137 143
-0.028527 -0.261585 -0.026948 252 254 252
-0.069793 0.055693 -0.030008 128 128 132
-0.063773 -0.224715 0.038717 129 132 136
0.029284 -0.220048 0.004553 253 253 252
-0.052119 0.270333 0.007410 254 253 253
-0.092421 -0.241410 -0.011549 134 137 141
-0.062814 0.271869 0.057850 252 254 253
0.128907 0.192431 0.026606 254 253 255
0.106112 0.211171 0.023436 252 253 253
0.262381 -0.131335 0.004520 254 253 254
0.138964 0.187860 0.056127 252 253 253
-0.072259 0.087945 -0.059200 121 138 164
0.029631 0.239015 -0.024335 252 253 253
0.145215 -0.177903 0.064346 253 254 254
-0.083013 0.280410 0.015469 129 129 133
0.205715 -0.155973 0.000019 252 253 254
-0.083398 0.020708 -0.013186 125 128 133
-0.074278 -0.139159 0.050927 120 129 150
0.023215 -0.237034 -0.015397 251 251 252
-0.091811 0.041629 0.041818 126 128 133
0.001869 -0.247170 -0.011007 252 253 253
-0.096245 0.144778 -0.059435 113 146 205
-0.092970 0.069354 -0.070402 114 137 179
-0.008086 0.256522 -0.043489 252 252 253
-0.071840 0.128757 -0.021213 110 143 203
0.289879 -0.122171 0.046495 254 252 254
0.181113 -0.157827 -0.006317 254 254 253
-0.092317 0.144301 -0.053880 106 141 205
-0.092084 -0.073541 0.013759 112 146 207
0.071972 0.217188 0.060030 255 254 253
-0.080295 -0.040787 0.030824 107 147 215
0.042641 0.235269 0.021116 254 255 255
-0.094350 0.263318 -0.052724 116 143 191
0.303454 -0.105765 0.025604 255 255 252
0.279981 0.148638 0.060311 252 254 254
0.318683 -0.107680 0.024971 254 255 253
0.301508 0.138177 0.006206 251 252 254
0.151600 -0.180125 -0.011206 250 251 251
-0.092315 -0.213017 0.053675 114 146 204
0.173258 -0.158193 -0.005305 253 253 252
-0.094845 -0.135188 -0.015229 119 140 174
-0.065233 0.213954 -0.008329 139 146 155
-0.072131 0.103078 -0.090088 112 131 164
0.022323 0.231199 -0.004693 252 255 253
-0.066500 -0.246729 -0.030791 129 132 136
0.058864 0.228525 -0.026563 253 253 253
-0.064933 -0.031634 0.010878 128 132 136
-0.015007 -0.241667 -0.005673 252 252 254
0.109461 -0.186325 -0.020671 249 250 251
0.111470 0.196069 -0.010601 250 251 252
-0.075370 -0.180674 -0.081420 115 148 210
0.062017 -0.214935 0.060964 252 253 253
-0.032639 0.265709 -0.015475 253 252 252
-0.072634 -0.117923 0.050651 135 138 146
-0.070991 0.107207 -0.077560 123 128 138
-0.092096 0.149730 0.037597 110 142 199
0.287587 0.145108 0.032374 251 251 253
0.336863 -0.099054 0.041173 251 250 251
0.103172 0.212159 0.015842 253 254 254
-0.068155 -0.108566 0.037380 108 133 177
-0.069920 0.188506 0.002159 130 133 136
0.288028 0.134183 0.030943 250 250 252
-0.075546 -0.270310 -0.012421 255 254 255
-0.092566 0.086870 -0.047256 110 134 179
-0.027426 0.256661 0.062928 255 255 254
0.142969 0.181088 0.006269 255 255 255
-0.096862 0.156556 -0.013966 127 129 134
-0.070208 -0.181422 -0.075024 111 136 184
-0.048529 0.251787 0.050494 177 180 186
0.015085 0.245169 -0.045081 253 253 253
-0.017577 -0.242122 0.023340 253 253 253
-0.067589 0.249391 -0.054319 163 168 173
-0.091225 -0.244552 0.008504 117 142 184
-0.069963 -0.193360 0.061577 130 133 137
0.097697 -0.188005 0.007001 252 252 252
-0.058697 0.276588 -0.034050 254 253 254
-0.051945 0.276422 -0.033686 254 253 253
0.220920 -0.149871 0.000300 251 251 252
-0.066888 -0.246660 -0.004566 130 130 135
-0.069643 -0.159887 -0.071178 109 151 225
0.058303 0.225159 0.063191 253 253 253
-0.067532 -0.068075 -0.069983 132 134 140
0.018932 -0.226249 -0.020310 252 251 252
-0.091597 0.080438 0.028537 108 141 202
-0.073745 0.112397 0.047381 128 129 133
0.061497 0.226069 0.009860 255 255 255
-0.091929 0.017698 0.005444 129 128 134
-0.013373 0.243537 -0.029459 250 250 252
-0.088887 -0.280233 0.001586 127 132 137
-0.071028 0.110194 -0.086196 130 133 137
-0.089788 0.235951 0.009893 131 129 133
-0.009408 -0.251419 -0.039999 251 251 251
0.249895 -0.125691 0.019115 253 252 253
-0.070108 0.069049 -0.037274 116 138 180
-0.090946 0.047910 -0.067852 113 144 202
0.173844 -0.159386 0.042224 251 254 252
-0.074123 -0.229563 0.058303 108 135 182
-0.094917 0.168765 -0.045985 109 146 215
0.215399 -0.152370 0.018095 251 253 252
0.006671 0.250610 0.034951 253 253 253
0.203266 0.174020 0.041119 253 251 253
-0.051388 0.256530 0.064814 253 252 253
-0.076727 0.274337 0.029106 129 132 135
-0.087361 -0.262536 0.006008 130 129 133
-0.064934 -0.125098 0.018176 129 131 134
-0.092966 0.204490 0.020350 124 131 144
-0.090019 -0.270661 0.020754 135 140 149
-0.093092 -0.234714 0.024878 136 138 143
0.104813 -0.200365 -0.024068 251 251 252
-0.071408 0.092607 -0.034480 107 147 220
0.304959 -0.106650 0.011275 250 250 251
-0.089934 0.220057 0.014066 113 144 199
-0.092643 0.175320 -0.030445 112 131 164
-0.091751 0.048677 0.000624 109 147 217
0.142206 0.183903 -0.012092 252 252 253
-0.039164 -0.253311 0.002336 252 251 253
-0.066072 0.266461 0.017362 110 136 182
-0.067926 0.183685 0.017826 109 144 209
0.112704 0.200274 0.061434 251 253 253
-0.079616 0.231872 0.060192 132 130 136
-0.093219 -0.084771 0.006754 132 130 135
0.215918 -0.150766 0.037575 251 252 252
0.122891 -0.177377 0.053781 251 252 251
-0.023504 -0.254596 0.062862 254 254 254
-0.090854 0.203029 -0.043696 111 135 176
-0.070396 -0.106953 -0.002988 131 134 136
-0.065774 0.262018 0.021264 113 135 173
-0.062240 0.204221 0.057320 157 160 167
-0.052529 0.276343 0.056486 254 253 253
-0.082222 0.151876 0.053336 110 141 197
-0.074293 0.158166 -0.084390 108 135 183
-0.076353 0.276118 -0.011466 114 151 219
-0.064281 -0.228854 0.046146 108 145 211
0.251982 -0.123306 0.036284 248 249 250
0.243669 -0.127011 0.057393 253 252 254
-0.067956 -0.179942 -0.058001 128 130 135
0.312682 -0.104663 0.017146 251 251 252
-0.091641 -0.162138 -0.029466 144 151 158
-0.040573 0.263152 -0.030012 253 252 253
-0.093184 0.093999 0.036132 109 152 228
0.194480 -0.147326 0.051048 253 254 252
-0.089095 -0.254969 -0.067519 127 128 133
-0.089052 0.210061 0.023546 134 138 150
0.062775 0.226510 -0.016010 253 254 255
-0.063992 -0.262949 0.015298 106 141 204
-0.035401 -0.256364 0.005585 255 253 255
-0.069606 -0.263115 0.038786 111 146 209
0.010603 0.235698 0.007899 252 253 253
-0.078360 0.022588 0.038993 129 130 134
0.248217 0.157883 0.044080 254 253 254
-0.093441 -0.053456 -0.047424 115 135 172
-0.093291 0.088360 -0.031234 114 129 158
-0.035939 -0.251452 -0.019915 253 253 254
-0.026094 0.264020 0.004377 253 254 254
0.048841 0.217490 0.049461 251 254 252
-0.092914 0.249567 -0.034464 132 133 138
-0.091350 -0.110196 -0.060050 130 132 136
0.231176 -0.144984 0.035631 253 253 253
0.270366 0.151768 0.054852 251 251 251
0.226545 0.168000 0.034245 252 252 252
0.268713 0.146113 0.018719 254 254 254
-0.075762 0.138090 0.051182 127 129 133
-0.091731 -0.204909 -0.008891 110 139 192
0.181785 0.183695 -0.009100 252 254 252
-0.039261 0.254904 -0.013472 251 252 251
0.076550 0.208774 0.004461 251 252 252
0.247050 -0.130145 0.016456 254 255 255
0.014864 0.246190 -0.005255 252 253 254
-0.093101 -0.078125 -0.058820 108 147 217
-0.086545 0.265564 0.043357 126 128 131
-0.092154 0.065331 -0.024654 105 138 200
-0.091083 -0.171351 0.048164 108 148 220
0.292349 -0.118898 -0.001624 255 255 255
-0.072681 -0.037352 0.027367 111 140 194
-0.067672 -0.172502 -0.077167 128 129 132
-0.069480 0.127370 0.034378 125 126 129
-0.048952 0.275514 0.041021 252 252 253
-0.094469 0.136007 -0.053633 107 150 226
-0.096721 0.096664 -0.064049 112 136 179
-0.090524 0.272404 0.007882 121 130 143
-0.068775 -0.190207 0.004374 130 129 133
-0.046636 -0.266211 0.046671 252 252 254
-0.073180 0.058651 -0.020368 105 141 203
-0.095976 -0.207533 -0.062803 111 149 213
-0.091768 -0.122088 -0.054453 110 140 193
-0.068344 -0.130336 -0.065463 109 150 223
-0.039838 0.249970 0.002718 249 250 250
0.023626 0.243860 -0.017645 255 255 255
0.050248 0.231051 0.053060 253 253 253
0.268630 0.143372 0.058401 251 251 254
-0.070748 -0.040372 -0.042211 128 131 135
-0.079455 0.270361 0.027008 112 138 185
-0.090179 0.027190 -0.032137 113 141 192
-0.072215 0.136672 -0.067782 106 147 219
-0.063623 -0.031551 0.022166 128 133 139
-0.062590 -0.240116 0.057787 128 133 143
-0.011259 0.242097 0.008388 253 254 253
-0.069496 0.029792 -0.007748 129 129 136
-0.061252 -0.276774 0.008086 251 252 253
-0.069744 0.278898 0.016151 119 132 159
0.072205 0.217381 -0.013146 255 254 254
0.291314 0.143446 0.044243 254 254 255
-0.095470 0.066532 0.001740 113 147 206
-0.069266 0.240206 -0.013662 107 140 199
-0.073581 0.275159 -0.033428 118 137 170
-0.091700 0.200630 -0.004047 107 135 187
-0.070664 0.134288 -0.068683 132 133 138
-0.092352 0.041007 0.033871 109 149 222
-0.084827 0.142214 0.051630 175 179 183
0.300913 -0.106518 0.002266 253 253 252
0.218719 -0.149616 0.026723 253 253 252
-0.087994 -0.036566 0.016837 113 142 193
-0.064231 0.255082 0.031856 170 176 179
0.016865 0.239978 -0.030926 192 197 200
0.276127 -0.126244 -0.000570 251 252 253
-0.024402 -0.245690 -0.027896 252 252 252
-0.085694 -0.280645 0.010664 114 136 179
0.174882 -0.168007 0.028018 252 252 252
-0.087186 0.176999 0.031063 128 127 131
0.058653 0.219179 0.060991 251 252 252
0.063191 0.213455 -0.004689 252 253 253
0.257512 -0.135921 0.019084 252 253 254
0.119791 0.206999 0.034726 253 253 253
-0.076985 0.260999 0.045632 113 135 177
0.148786 -0.178738 0.040060 252 253 254
-0.065823 -0.059153 -0.065404 118 138 171
-0.089797 -0.131655 0.037514 114 136 176
0.054144 -0.210245 -0.013195 251 252 252
0.051403 -0.217355 0.063771 251 253 252
-0.066621 0.267641 0.047989 251 252 252
0.065195 -0.202487 0.045785 254 252 253
0.055299 0.229605 0.053400 255 254 253
-0.080632 0.240777 0.016477 131 131 137
-0.073079 -0.095707 0.048173 130 132 134
0.242109 -0.141087 -0.006466 252 253 252
-0.093177 0.153673 -0.032381 134 137 142
-0.024978 0.263479 0.041447 251 252 252
-0.040128 0.269141 -0.028620 254 253 253
-0.020603 -0.243172 0.057494 251 251 253
-0.093511 0.153643 0.024094 116 143 191
0.236389 -0.130226 0.009652 252 254 252
-0.095429 -0.182674 0.013740 108 150 224
-0.092348 0.037348 0.022113 109 136 181
0.046709 0.219040 -0.026883 253 254 254
0.309353 -0.116074 0.000809 251 251 253
0.172637 0.173482 0.000484 254 252 252
-0.001681 -0.239825 -0.041254 252 252 253
0.083354 0.206722 0.034163 255 253 255
-0.091396 0.070796 0.030064 108 149 221
0.332344 -0.095107 0.012798 253 252 253
-0.039988 -0.251043 0.068905 253 254 253
0.065711 0.211432 -0.015301 252 253 254
0.292770 0.131274 0.050330 253 253 253
-0.067787 0.271443 -0.024358 253 252 252
-0.064239 -0.270667 -0.004448 128 128 133
-0.069958 -0.067964 -0.034592 112 137 176
-0.090327 0.030298 0.018349 128 132 134
-0.060562 -0.259314 -0.003236 253 251 252
-0.064796 -0.127481 -0.086793 109 142 205
0.074044 -0.214160 0.018589 252 253 253
-0.076250 0.222239 -0.078114 133 133 138
-0.089268 -0.172698 0.010363 108 144 208
0.322847 0.131906 0.028792 254 253 254
-0.069119 -0.207036 -0.002519 129 132 135
-0.080684 0.190375 0.053608 107 147 221
0.074370 0.222056 -0.011435 251 251 254
-0.065991 0.028445 0.009051 118 132 158
-0.089539 0.185309 0.052270 131 134 138
0.114959 -0.194262 0.018250 252 252 252
-0.088726 -0.250762 0.043568 107 149 222
-0.094087 -0.048193 -0.041438 111 151 223
-0.090998 0.209312 0.057463 125 129 133
-0.070360 0.120055 0.026734 110 140 196
-0.063557 -0.241740 0.039402 128 130 133
-0.075862 0.272047 -0.039017 108 145 209
0.187372 -0.162775 0.031845 253 253 255
-0.076244 0.035521 0.040238 105 149 227
-0.073434 0.135428 -0.023052 105 141 204
-0.064606 0.041191 -0.043656 166 172 176
-0.074209 -0.150894 0.055988 133 134 138
-0.074532 -0.196597 -0.080868 110 133 176
0.312415 0.135290 0.038752 255 255 255
-0.066844 -0.148524 0.004497 110 144 207
-0.082680 0.022138 -0.014380 131 133 136
0.253003 -0.135722 0.055839 254 253 252
-0.073349 0.132425 -0.040543 107 149 226
0.087745 -0.207502 -0.005554 253 251 253
0.239020 -0.129364 0.017092 253 254 255
-0.064838 0.264828 -0.023141 253 253 253
-0.002037 -0.246937 0.037760 253 253 252
0.085383 -0.199499 0.064502 250 250 251
-0.068949 -0.187529 -0.009675 116 131 158
-0.093112 0.181822 -0.066914 127 131 134
-0.092876 -0.172827 -0.037214 108 145 210
-0.070083 -0.221733 -0.045464 129 132 134
-0.067562 -0.086171 0.028447 125 128 134
0.138517 -0.173445 0.006711 252 253 254
-0.091436 -0.147441 -0.014291 128 131 134
-0.066925 -0.209712 -0.005163 106 147 221
-0.093800 0.146424 -0.011354 126 128 131
-0.068107 0.136075 0.013600 130 133 136
0.225432 0.150768 0.006870 252 252 254
-0.089947 0.020408 -0.016550 128 130 135
-0.093893 0.040475 0.034475 111 139 189
-0.010160 -0.253437 -0.009256 253 253 254
-0.091740 -0.042801 0.005505 108 145 209
-0.081092 0.121474 -0.083193 134 135 139
0.031603 0.239719 0.002051 251 251 252
-0.092194 -0.217561 0.007987 129 129 134
-0.011129 -0.250225 0.047539 253 254 254
-0.091124 0.140135 0.039479 117 133 159
-0.093566 0.134739 -0.012161 109 143 206
-0.074737 -0.263032 0.060171 252 251 251
-0.063211 -0.281458 -0.021944 130 133 143
-0.095395 -0.171448 -0.053289 131 133 136
-0.091588 -0.091576 0.021981 113 133 165
0.017332 0.228988 0.057734 251 252 253
0.041791 -0.226206 0.051682 250 251 251
-0.095104 -0.169274 -0.051091 128 136 145
-0.008970 -0.252321 0.000830 255 255 254
-0.066631 -0.105881 -0.071222 110 134 177
-0.091571 0.123493 0.019174 132 132 136
-0.068042 -0.105414 0.040602 128 131 137
-0.020570 -0.243554 -0.010780 251 252 252
-0.081503 -0.269915 0.022714 128 132 136
0.271117 0.139859 0.043503 252 252 253
0.197186 0.172414 0.002974 253 253 252
0.059281 -0.218871 0.036735 251 252 252
-0.069977 -0.055567 -0.013061 108 147 218
-0.069892 -0.098197 -0.032278 131 132 135
-0.092110 0.195386 0.016928 109 151 225
-0.067000 -0.065506 0.044156 110 135 178
0.185692 -0.152595 0.018419 253 252 253
0.037829 -0.214291 0.064056 254 252 253
0.010956 0.248590 0.042316 251 252 254
0.295712 0.130986 0.053565 254 255 254
0.113494 -0.178953 0.056567 250 250 251
-0.064975 -0.045870 -0.048724 132 136 139
-0.035696 -0.246940 0.019369 251 254 251
-0.087444 0.125893 -0.008579 130 129 135
0.267122 -0.130667 0.046411 253 254 252
0.129594 -0.187628 0.010777 253 254 253
-0.069493 -0.210357 -0.020876 132 134 138
-0.068452 0.144517 0.031701 127 132 133
-0.068391 0.181063 -0.022415 126 129 135
-0.093168 0.071359 0.030230 113 150 216
-0.089918 -0.171349 0.030106 127 130 139
0.152728 0.179859 0.008852 254 254 252
-0.035418 0.261955 -0.009865 254 255 254
0.175346 0.172685 0.034449 253 252 253
0.147920 0.194943 0.046346 252 254 253
-0.076242 0.137824 -0.080799 132 132 134
-0.062190 0.264868 -0.026846 252 253 253
0.056467 0.228355 0.032962 255 254 254
-0.064547 -0.207689 0.044444 113 143 196
0.107681 0.209154 0.019027 252 253 255
0.322168 0.133056 0.020558 253 251 252
-0.016806 0.260233 -0.006098 255 254 255
-0.092309 -0.086547 0.000263 127 129 133
-0.069287 -0.158773 -0.077240 129 131 135
0.283246 0.141799 0.052922 252 252 254
0.093995 -0.200825 -0.025883 254 252 252
-0.067414 -0.255471 -0.013241 125 127 131
-0.086983 0.226242 -0.040215 110 133 175
0.219631 -0.134402 0.040569 254 253 255
-0.091463 0.032012 0.038338 125 131 145
-0.067839 -0.121734 0.051718 129 131 134
0.313882 0.135432 0.019135 255 253 253
-0.088824 -0.191717 0.047323 132 134 138
-0.093129 -0.122706 0.018927 134 136 143
-0.028267 -0.260465 0.019093 251 251 252
-0.072601 0.130856 -0.059556 131 134 138
-0.066345 0.033782 -0.050566 130 130 134
0.147809 0.196930 0.059911 251 251 254
0.291949 0.143053 0.035410 255 255 255
0.212742 -0.151934 0.028798 250 251 251
-0.068661 -0.108210 -0.003421 130 133 135
-0.069990 0.208723 0.007862 113 147 208
-0.068267 -0.213245 0.037277 130 130 135
-0.087014 -0.233889 0.016563 134 137 141
0.142819 0.185176 0.020934 254 253 253
-0.032843 -0.252390 0.028550 253 254 254
-0.068168 0.049707 0.039856 111 141 195
-0.071255 -0.115014 -0.088717 109 144 214
-0.064065 -0.043780 -0.049754 121 138 173
-0.086849 0.151702 -0.083245 131 136 141
-0.067264 -0.248879 -0.021713 122 140 171
-0.065519 0.027451 0.000179 134 137 143
-0.061397 0.277354 0.011174 251 251 252
0.055782 -0.212710 -0.028486 252 252 251
-0.092101 -0.194374 0.014827 114 146 202
0.025240 -0.234860 0.039985 255 254 253
-0.094123 -0.111202 -0.024131 112 132 169
0.189575 -0.150877 0.019546 253 252 253
-0.067596 0.180111 -0.078643 141 144 150
-0.066296 -0.207629 -0.021456 128 131 133
-0.071685 0.008047 0.025258 139 146 158
0.155105 0.191708 0.021044 255 255 254
-0.079227 0.079898 -0.080368 133 130 133
0.221812 -0.148563 0.043215 254 254 253
0.096424 0.213951 -0.008964 250 251 252
-0.064072 -0.081109 -0.079661 110 145 211
-0.085179 -0.046218 -0.026739 127 128 131
0.061850 -0.204265 0.051615 251 252 251
-0.070781 0.187568 -0.044884 125 128 135
0.318814 0.122054 0.007389 255 255 255
0.022219 0.233644 -0.042498 254 254 252
-0.071219 0.193183 -0.052854 110 134 172
-0.070098 0.212486 -0.033957 110 152 230
-0.067253 0.204908 0.009641 106 141 203
-0.063060 -0.249704 0.039628 131 130 135
-0.058924 -0.261467 -0.016328 251 251 251
-0.092612 0.069402 -0.051940 127 129 133
-0.069234 0.084519 0.039713 129 129 132
0.057038 0.229380 0.012262 253 254 253
-0.034437 -0.247196 0.012619 252 254 253
-0.066342 -0.263891 -0.015229 111 134 173
-0.092867 0.139686 -0.021219 128 131 134
-0.066481 -0.207409 0.053208 110 142 200
0.079105 -0.198967 0.024172 251 252 254
0.329772 -0.101765 -0.000721 251 252 253
-0.090946 -0.239728 -0.058087 115 138 177
-0.069372 -0.182080 0.058217 128 130 134
0.236954 0.162870 0.007817 255 255 255
0.108498 0.210234 0.017872 253 251 252
0.006182 0.231426 0.055404 253 253 253
0.117524 -0.182221 0.023057 251 251 254
-0.067734 0.180080 0.053941 131 130 135
-0.015300 0.259464 0.052780 252 253 255
-0.063169 -0.271769 -0.027452 252 253 253
-0.038493 -0.252070 -0.034444 254 254 254
-0.091756 0.055924 -0.078275 134 135 138
-0.087055 -0.273658 0.024454 113 131 160
0.281185 -0.122321 0.052782 250 251 254
0.037317 0.236855 0.014520 254 253 254
-0.071942 -0.279687 -0.006734 114 143 196
-0.092167 -0.077590 -0.050142 109 148 217
0.160344 0.192039 -0.017986 249 249 251
-0.087767 0.163651 -0.081455 125 128 130
0.055380 -0.216510 -0.031134 254 252 252
-0.067335 0.240728 0.030782 132 131 137
-0.068277 0.271391 -0.054590 134 137 144
0.094013 0.216030 0.040142 251 252 253
0.228109 -0.133681 0.007251 254 252 252
-0.092778 -0.151941 -0.054968 111 141 200
0.105564 0.196109 0.057461 253 252 253
0.197627 0.168663 0.063060 251 252 252
-0.091110 -0.199473 -0.017040 108 142 204
-0.069333 0.062275 -0.052580 107 144 213
-0.070202 0.087024 0.009498 126 131 133
-0.067397 -0.192062 0.042321 108 149 222
-0.067869 -0.185962 0.059214 110 145 209
0.056792 -0.208408 0.002609 253 253 254
0.265323 -0.116721 0.049429 252 252 253
0.153804 0.180557 -0.004997 252 253 252
-0.091541 -0.105882 -0.066321 107 146 219
0.198139 -0.158349 0.030238 254 255 254
-0.040724 0.257042 0.064547 249 250 251
-0.031969 0.250912 0.060940 253 253 255
-0.046256 -0.265073 -0.044574 252 251 252
-0.090048 -0.108567 0.024687 127 129 133
0.265951 -0.119623 0.003810 252 251 253
-0.000694 -0.246483 0.051505 253 253 253
0.143181 -0.185069 -0.007686 252 254 254
-0.013933 -0.254584 0.014195 253 252 254
-0.093824 0.117602 -0.056851 127 129 134
-0.095322 0.086602 -0.083397 111 145 208
-0.091298 -0.208207 0.009545 137 141 145
0.153679 -0.177505 0.008861 250 251 251
-0.088993 0.253152 -0.010178 108 136 187
0.010243 0.232180 0.013707 251 253 252
-0.048223 0.258529 -0.053460 252 252 254
-0.049940 -0.255660 0.046869 255 255 255
-0.089961 0.280611 0.017387 131 132 136
-0.080530 -0.242562 0.059190 123 129 140
-0.062246 0.281794 -0.002034 254 253 254
-0.093858 -0.161968 -0.058104 111 146 213
0.106254 0.198836 0.017888 254 254 254
-0.066711 -0.237312 0.014188 108 147 216
0.106444 0.194444 -0.022002 251 251 252
0.205568 -0.157369 -0.004117 254 253 253
-0.087249 -0.241060 0.040852 128 129 134
0.046058 -0.211604 0.011527 253 254 253
0.096260 -0.203130 0.001667 253 254 253
-0.064403 -0.210595 0.006911 140 145 151
0.003205 -0.247209 0.003495 253 253 254
0.008571 0.242995 0.061077 252 252 254
0.111521 0.198000 -0.020081 253 254 254
-0.068535 -0.199760 -0.044382 110 138 189
-0.092173 -0.094615 0.012586 107 138 195
-0.065916 -0.085698 0.033446 113 130 162
-0.090264 0.216848 -0.005684 134 138 143
-0.036912 0.267295 -0.013145 254 254 255
-0.069791 -0.153545 -0.004902 128 129 132
-0.090598 0.163562 0.033601 127 129 137
-0.093709 0.146962 -0.064096 123 128 136
0.265712 0.141328 0.035010 253 253 254
-0.093514 -0.200136 -0.016947 110 148 214
0.015624 -0.242160 -0.023332 251 252 253
-0.075780 0.018758 0.038302 116 130 158
0.164232 -0.160851 0.045180 193 194 198
-0.030397 -0.257260 0.006877 250 250 250
0.013016 -0.228818 -0.019239 252 253 252
-0.066062 0.257112 -0.004569 111 149 216
-0.011843 -0.240460 0.067502 253 254 254
0.091823 -0.190937 0.050669 251 251 253
-0.070544 -0.257022 -0.063769 132 134 137
-0.070657 0.255098 -0.072551 111 146 210
0.258372 0.143444 0.007843 253 252 254
0.122019 0.193481 0.039989 254 254 253
0.038355 0.236202 0.027249 255 253 254
-0.074713 -0.118442 0.048798 128 130 139
0.128329 0.189163 0.026252 254 255 252
0.078337 -0.211521 -0.027467 252 252 252
-0.067919 0.254092 -0.015937 107 140 204
-0.070405 0.121299 -0.085181 112 152 226
0.310605 -0.103745 0.032731 251 252 252
-0.092371 -0.076579 -0.023678 128 132 134
-0.066321 0.209472 0.049660 120 127 142
-0.091065 -0.115001 0.046525 132 132 136
-0.069829 0.156688 -0.018341 105 146 221
-0.091788 0.151925 0.012346 128 130 136
-0.091887 0.030017 0.002700 111 146 210
-0.095548 0.137650 -0.007560 121 129 142
0.202995 -0.145400 0.009169 252 253 252
0.200184 0.173969 -0.003465 253 252 252
-0.092315 -0.158739 -0.010539 130 134 138
-0.028513 -0.246644 0.037185 253 253 253
-0.091987 -0.200009 -0.051317 113 135 178
0.166887 -0.171580 0.050682 253 254 253
-0.091943 0.181009 -0.010612 111 139 186
-0.086706 -0.237298 0.041853 119 129 149
-0.070301 0.043886 -0.045528 110 133 172
0.113646 0.195246 -0.005976 253 254 253
-0.013428 0.244352 -0.024981 251 252 253
0.332390 -0.101903 0.015427 251 251 254
-0.081578 -0.281640 -0.011273 114 136 175
-0.067178 0.177836 0.039833 127 131 133
-0.090799 0.035154 -0.060037 125 127 131
-0.092316 -0.265531 -0.013997 119 129 146
-0.090743 -0.167077 0.019486 129 131 136
-0.068733 -0.052295 0.038045 128 131 133
-0.092833 0.147013 -0.051137 129 136 147
-0.092079 -0.225936 0.011981 132 131 134
0.256979 -0.125692 0.055210 251 252 252
0.038531 -0.216728 0.010017 254 252 253
0.009302 -0.230553 -0.022756 254 253 253
-0.071508 -0.267310 0.035949 254 254 255
-0.077837 -0.171687 -0.082309 128 130 135
-0.047952 0.260557 -0.048816 254 254 252
0.166453 -0.160764 0.017104 251 252 252
-0.091613 -0.191426 0.016245 128 128 132
0.041190 0.222800 0.007309 253 255 255
-0.091480 -0.089451 -0.010945 115 136 176
0.247530 0.152842 -0.002857 251 253 254
-0.077901 -0.096742 0.045236 108 137 193
0.282122 -0.112470 0.000463 252 253 254
-0.080007 0.033002 -0.060496 111 148 218
0.068147 -0.215862 -0.025277 254 254 254
0.073890 0.209409 0.045131 254 255 255
-0.071560 0.071880 -0.021916 128 130 136
0.077174 -0.210567 0.033547 254 254 254
-0.079373 0.118662 -0.085555 115 136 178
-0.090250 0.026419 -0.020029 132 131 135
-0.093521 -0.132686 -0.046753 111 144 202
0.004376 0.237109 0.057028 252 252 254
-0.067361 -0.215340 0.014727 118 134 165
0.149669 -0.179828 0.013110 253 253 254
-0.052637 0.255787 0.030191 253 254 254
0.196185 0.168666 -0.005322 253 255 255
-0.068861 -0.055267 -0.007623 137 141 149
-0.066788 0.226978 -0.029025 131 132 136
-0.069658 -0.054722 -0.005690 116 134 168
-0.035173 0.267219 -0.026841 252 252 253
-0.068976 -0.088390 -0.028677 121 130 148
-0.092045 0.149941 0.038923 107 149 224
-0.091595 0.242832 -0.030526 109 145 212
-0.069523 -0.216553 -0.075998 109 144 211
-0.049032 -0.257440 -0.009237 254 253 253
0.039493 -0.221271 0.036396 251 251 253
-0.076235 0.276135 0.021269 128 130 133
0.095808 0.203154 0.030942 253 255 255
0.127272 0.205460 0.055003 252 252 253
-0.091097 0.273431 -0.049902 128 130 134
0.331488 0.118172 0.019670 253 253 254
-0.058180 -0.259456 0.027201 252 252 251
0.083264 0.206968 0.038938 253 253 253
-0.065323 -0.246419 -0.025641 129 131 133
0.277789 -0.113202 0.019226 250 251 253
-0.068759 0.252712 -0.075418 128 130 134
0.002943 0.238268 0.014454 252 253 254
0.011240 -0.243337 -0.019899 252 253 252
-0.089297 -0.154753 0.035245 127 131 134
-0.093244 0.079492 -0.005308 129 134 147
-0.086425 -0.178995 0.059769 107 148 220
-0.092255 0.054288 -0.046121 110 148 221
0.206369 -0.156495 0.020762 250 251 251
-0.068165 -0.089613 0.024785 131 143 159
0.031465 0.225257 0.041639 254 255 253
-0.076002 0.206772 -0.079553 124 127 133
0.264646 0.141065 0.010943 254 255 254
-0.034834 -0.259350 0.011468 252 252 251
0.093192 -0.198564 -0.002697 187 190 193
-0.086131 0.092568 -0.086693 129 128 132
-0.093223 0.067985 -0.069417 113 135 171
-0.094642 0.212392 -0.015355 116 139 181
-0.091984 -0.246297 -0.073473 127 130 137
-0.090111 0.265767 -0.032332 113 146 203
0.256747 -0.122851 0.043351 253 253 253
0.325565 0.124417 0.009403 252 253 253
-0.067378 0.270951 -0.006985 251 251 252
-0.066501 -0.137949 0.046016 118 130 153
-0.091611 0.164500 -0.041846 109 136 184
-0.090710 0.215740 -0.008803 109 147 213
-0.090528 0.044556 -0.067515 114 133 165
0.287395 -0.118992 0.028096 252 253 253
-0.092365 -0.193430 -0.025303 122 128 140
0.007873 0.251375 -0.002396 255 253 255
-0.089258 0.227207 0.026992 128 130 133
0.006465 0.249958 -0.021746 253 253 254
0.133948 -0.184526 0.030100 255 255 255
-0.093522 -0.081552 -0.072156 111 139 187
0.165297 0.187457 -0.017359 252 252 252
-0.084541 0.264331 -0.063832 128 130 134
0.063126 -0.217024 0.024842 251 251 251
-0.093535 0.199674 0.012308 113 133 171
-0.016142 -0.254267 0.031914 250 251 252
-0.012797 0.242543 0.049021 253 254 252
0.131113 0.189539 -0.009341 255 255 255
-0.092906 0.207109 0.024631 120 130 151
0.171033 -0.167195 -0.015211 253 253 254
0.257056 0.154109 -0.004535 251 252 252
-0.036860 -0.255096 -0.042829 251 251 251
0.196882 -0.146939 0.000482 253 254 252
-0.046191 -0.267829 0.048619 253 254 253
-0.091207 0.080491 0.033329 109 142 200
0.035836 0.225164 0.000738 253 255 255
-0.063982 0.161349 0.048331 134 134 141
0.024563 0.243483 0.021830 254 253 255
0.061411 -0.218463 -0.004509 253 252 253
-0.065535 -0.146670 -0.012945 111 143 199
-0.063176 -0.262427 0.048858 255 255 255
-0.079686 -0.253096 -0.015032 107 148 222
-0.028660 -0.245589 0.060642 252 253 254
-0.069623 0.216048 -0.007857 105 140 207
-0.094225 0.177462 -0.003381 109 147 214
0.003538 -0.240824 -0.039233 253 254 253
-0.007346 0.240733 0.033835 251 252 252
-0.094456 -0.185230 -0.062921 113 133 168
-0.028305 0.250209 -0.003349 252 253 254
-0.067472 -0.037243 0.001070 127 130 137
0.022709 0.234893 -0.040467 252 253 252
0.066432 -0.203061 0.043239 252 253 253
0.069468 0.224258 0.020427 254 253 254
-0.074769 0.142549 -0.082827 127 131 134
0.259775 -0.130571 -0.008459 253 254 254
0.181908 0.179660 -0.007166 251 254 253
-0.070493 -0.262685 0.001742 254 255 254
-0.070953 0.193358 0.004730 111 145 206
-0.070208 0.142850 0.017512 128 131 135
-0.081333 -0.263857 0.034754 107 141 206
0.335398 -0.096142 0.047486 254 252 252
-0.092572 0.070185 -0.047706 108 139 193
-0.066708 -0.120904 -0.063185 121 128 141
0.322566 0.132607 0.024230 251 251 253
-0.090582 0.012404 0.022550 130 131 134
0.140635 -0.171876 0.061772 252 254 253
-0.070284 0.115972 0.045474 110 140 196
0.231935 0.154768 -0.001447 253 253 255
-0.092954 0.112341 -0.076605 133 136 139
-0.047625 -0.269640 0.018427 245 246 247
-0.095888 -0.171587 -0.081113 120 131 155
0.171144 0.184574 -0.002671 254 254 254
0.096991 0.203611 0.054045 252 253 253
-0.089008 -0.270328 0.006052 125 133 151
-0.067945 0.220664 0.031568 131 130 134
0.204597 0.174137 0.025814 253 254 252
-0.090221 0.189331 0.045742 131 134 140
-0.085273 -0.224794 0.061141 115 137 180
0.150282 -0.167231 0.019907 253 252 252
-0.048060 -0.272844 -0.036441 252 253 252
-0.068577 0.196173 0.021369 114 133 170
-0.081185 -0.066014 -0.070185 107 149 222
0.025915 -0.234921 -0.007472 193 194 194
-0.063414 0.274572 0.018096 250 252 251
-0.066132 0.277692 -0.032993 110 138 188
-0.072548 0.142258 -0.070906 107 141 205
-0.066920 -0.278217 -0.006639 253 253 252
0.148765 -0.179727 0.058146 251 252 252
0.282958 -0.108798 0.016286 246 247 249
-0.087863 -0.225512 0.020305 112 143 202
-0.094221 -0.080996 -0.071336 109 150 224
-0.068969 -0.095908 -0.011730 111 150 220
-0.069211 -0.184239 -0.037954 134 136 139
-0.089412 -0.061941 0.017563 106 143 208
-0.089493 -0.170751 0.047511 130 133 135
0.111078 -0.196006 0.013950 253 252 253
-0.081696 -0.169934 0.059401 111 138 186
0.270513 0.139756 0.016976 255 255 255
-0.092527 0.183041 -0.014892 106 147 218
0.067461 -0.201727 0.056153 254 255 254
0.090457 0.203219 -0.020996 252 254 255
0.057229 0.230241 0.016549 253 251 252
-0.067018 -0.255172 0.014305 109 133 179
0.299160 0.128490 0.048504 254 252 254
0.060175 -0.205115 0.049936 253 254 254
-0.089987 0.221291 0.034112 109 150 224
-0.069412 0.206763 -0.034753 106 143 209
0.171283 0.187730 0.002773 255 255 255
0.023626 0.229503 -0.003104 254 253 254
-0.067403 0.267146 -0.043914 253 254 253
-0.090474 -0.131037 0.013045 126 128 131
-0.090789 -0.053288 0.038371 126 128 133
-0.069848 0.017878 -0.002228 129 130 136
0.306362 0.124031 0.016765 253 255 254
0.076453 0.207523 -0.003804 254 252 253
-0.068130 -0.169382 -0.007525 127 130 138
0.067188 -0.216864 -0.022888 252 253 253
-0.058810 0.274243 -0.041656 250 250 252
-0.069486 -0.117687 -0.039369 107 146 219
-0.089149 0.271797 -0.000520 112 146 208
0.325937 -0.097978 0.034824 253 253 253
0.287829 0.133430 0.043904 252 252 252
-0.067934 -0.051324 -0.029639 130 133 138
0.047233 -0.212322 0.021076 253 253 253
0.017204 -0.240608 -0.004862 254 255 253
-0.066531 0.218641 -0.026266 132 133 137
-0.072696 0.089396 -0.065120 110 141 195
-0.093771 0.166820 -0.020398 135 137 142
-0.090283 -0.143327 0.029175 123 130 141
-0.075548 -0.131948 -0.085605 140 145 154
-0.065497 -0.137090 -0.088502 125 127 133
-0.069445 -0.058406 0.040885 132 133 136
-0.064245 0.264529 0.022159 252 252 252
-0.093984 -0.198057 -0.078170 108 141 206
-0.081665 -0.274219 0.025804 112 131 165
-0.016909 0.250474 -0.048524 251 251 251
-0.070334 -0.263602 0.031362 253 253 253
-0.078215 0.162476 -0.081200 107 145 219
-0.068643 -0.265300 0.039369 250 251 251
-0.070199 -0.265173 0.037528 251 253 253
0.182023 -0.153881 -0.006639 251 252 253
-0.066839 -0.280200 -0.019626 251 252 253
-0.044346 0.255262 0.009893 253 255 254
-0.081862 0.056051 -0.072677 130 132 135
0.319339 -0.112999 0.020011 252 255 252
-0.067954 0.223348 -0.079290 132 134 138
-0.090562 -0.273270 -0.042138 116 135 170
-0.080569 0.123643 -0.083464 110 150 224
-0.093326 0.217848 -0.007406 109 142 202
0.059940 0.228229 0.010738 253 254 255
-0.059128 -0.259328 0.005364 252 252 253
-0.089444 -0.147151 -0.088461 108 145 211
-0.089385 0.200406 0.037038 112 143 196
-0.065921 -0.275387 -0.041441 135 140 148
0.316601 0.132584 0.004300 251 252 252
0.248790 0.148569 0.032814 253 252 252
0.055991 -0.221563 0.059193 252 252 254
0.068915 0.227802 0.002871 254 254 254
-0.078612 -0.268149 0.018709 107 145 213
0.309028 -0.101540 0.048215 248 249 250
-0.089248 0.020281 -0.009549 118 131 152
0.194898 -0.159210 0.033321 254 252 252
-0.094525 -0.162396 -0.041260 107 148 219
0.060539 -0.199944 0.050000 251 250 251
-0.026594 0.249895 -0.026167 251 252 252
-0.040054 -0.249865 0.066649 253 254 252
-0.041846 0.268973 0.039325 255 255 254
-0.064700 -0.048430 -0.057125 151 161 175
0.324048 0.131587 0.060943 249 249 251
-0.029038 0.267531 -0.017057 250 250 252
0.042230 0.222503 -0.009286 253 251 254
0.311195 0.136141 0.028381 251 255 252
0.005459 0.250538 -0.016136 250 251 253
-0.092844 0.045628 -0.051736 116 132 158
0.311638 0.136491 0.010365 253 252 253
-0.069406 -0.191148 -0.044363 107 146 217
0.019692 -0.243270 -0.038195 252 253 251
-0.060854 0.262268 0.032527 111 130 167
-0.066457 0.043715 -0.064993 128 129 135
0.052805 0.230373 0.039023 252 253 253
-0.058490 0.271204 -0.049336 254 253 254
0.006150 -0.245175 0.006940 254 253 254
0.088857 -0.202672 0.018253 185 188 191
-0.090531 -0.247844 -0.054422 111 147 210
0.265709 -0.118723 0.031186 251 253 253
-0.061408 0.205261 0.052676 164 170 175
-0.070169 0.267507 -0.009677 251 250 251
0.239663 -0.133956 0.055692 251 251 252
-0.089004 0.252342 -0.033576 106 142 204
-0.068507 0.248400 -0.022582 111 151 223
-0.067559 -0.174235 -0.064235 113 137 178
-0.089971 -0.074267 0.009336 110 136 182
-0.071731 0.031969 -0.053840 131 131 136
0.030991 0.226519 -0.020765 253 253 255
