ply
format ascii 1.0
element vertex 1180
property float x
property float y
property float z
property uchar red
property uchar green
property uchar blue
end_header
0.004697 -0.242244 -0.006765 254 254 254
0.253746 -0.115681 0.022259 254 254 255
-0.067405 -0.279574 0.020418 255 254 254
-0.078378 0.013629 0.034182 102 148 236
-0.098538 0.190183 0.014279 103 147 228
0.295244 -0.101668 0.060028 255 254 254
-0.078743 -0.273588 0.013224 105 149 232
-0.080890 0.194765 -0.045772 101 148 230
-0.062489 -0.270811 0.027802 253 255 255
0.189090 -0.145011 0.009464 252 253 253
0.077445 0.217142 0.047166 253 254 254
0.128904 -0.173159 0.038073 255 255 255
0.310539 -0.105135 0.029138 255 255 254
-0.098254 0.089158 -0.080118 102 140 208
-0.099884 -0.089494 -0.077286 103 150 235
0.205216 -0.139541 0.012072 254 254 254
-0.025752 0.247876 0.037492 255 254 253
0.294703 -0.099402 0.031885 254 254 255
-0.101777 0.270950 -0.057492 105 145 217
0.109213 0.208099 -0.006314 253 255 255
-0.103545 -0.212723 -0.077077 104 150 236
0.298528 0.122151 0.043861 254 255 255
0.356037 0.104484 0.001759 254 254 255
0.142467 0.179719 0.060853 254 255 255
-0.068820 -0.275341 0.010179 254 255 253
0.053558 0.224144 0.061068 254 255 254
-0.092051 0.145382 -0.085053 103 141 210
0.217609 0.162467 0.064994 253 253 254
0.055969 -0.213719 -0.027410 253 254 253
-0.078802 -0.279806 0.002517 106 136 194
-0.096937 -0.115036 0.043356 105 145 220
-0.079937 0.113278 0.043728 105 150 235
-0.082024 -0.135835 0.006683 105 150 235
-0.102438 -0.146326 0.019668 104 150 235
0.289312 0.129069 0.062791 255 254 254
-0.100136 -0.225056 0.033666 103 148 232
0.294302 0.124032 0.064104 253 253 254
0.307734 -0.094121 0.016165 255 253 253
-0.081765 0.084600 -0.025251 102 150 235
-0.077950 -0.136608 0.022920 102 150 236
0.152818 -0.162782 0.010867 252 253 254
0.232234 -0.137733 0.028622 253 254 254
0.256942 -0.120520 -0.003478 255 254 253
0.227670 -0.129400 0.012692 253 254 254
-0.052489 0.270823 0.049558 255 255 255
0.116423 -0.180099 0.011975 253 253 254
-0.080471 0.258931 -0.031844 112 133 171
-0.096465 -0.077642 0.010847 103 148 234
-0.107981 -0.139176 -0.066847 105 151 235
0.233124 -0.137141 0.037487 253 254 253
-0.078985 -0.215481 -0.037916 102 145 224
0.148325 -0.165013 -0.012545 255 254 254
-0.077100 0.036147 -0.008482 104 150 232
-0.004992 0.251009 0.036545 253 253 253
-0.097367 0.113782 0.012916 105 148 232
-0.080437 0.119510 -0.068096 103 148 235
-0.100386 0.187932 -0.041713 105 151 234
-0.099718 -0.229730 -0.035184 105 149 235
-0.080219 -0.047884 0.009009 104 150 235
-0.097898 -0.102725 -0.010965 105 150 233
0.321064 0.115019 0.039925 254 253 255
-0.082094 -0.056596 -0.059349 103 146 228
-0.108701 -0.187926 -0.022092 104 150 234
0.287445 0.125757 0.025562 252 252 253
-0.102626 -0.040380 -0.007342 105 150 231
-0.089682 0.276165 -0.031387 102 149 236
-0.107990 0.051451 -0.001615 107 142 209
0.215059 0.164064 0.036089 254 253 255
-0.103918 0.024048 0.012094 135 139 142
0.206135 -0.153899 0.050361 254 255 255
-0.083500 0.280468 -0.034202 102 142 216
0.001844 -0.229547 -0.034209 254 254 252
-0.072343 0.279368 0.013740 252 252 253
-0.031934 -0.260984 0.008308 254 253 254
0.312412 -0.099953 -0.011445 254 255 254
-0.043087 -0.264908 0.022957 252 253 253
-0.086670 -0.273036 0.024893 253 253 254
-0.102469 0.063449 -0.000439 102 146 226
-0.016125 -0.241429 -0.006559 254 255 254
-0.031557 -0.261710 0.039991 253 253 253
-0.034040 0.263705 0.011799 254 255 255
-0.084046 -0.179843 -0.019502 103 150 235
0.114423 0.191167 0.002977 255 255 255
0.107730 -0.185646 -0.007352 254 253 253
-0.006907 -0.248790 0.008608 254 254 253
-0.082111 -0.272378 0.003990 103 151 234
-0.093838 -0.175028 0.055997 104 147 227
-0.099482 0.120080 0.047597 106 149 228
0.028502 -0.229609 0.036286 255 255 255
-0.029432 -0.259991 -0.004072 254 253 252
-0.106849 0.134778 -0.038597 128 132 138
-0.085324 0.220709 -0.032902 104 149 230
0.033321 -0.216568 0.012875 254 254 253
0.292427 -0.111166 0.021896 254 253 253
0.228401 -0.128991 0.030969 254 253 253
-0.082359 -0.044737 -0.036161 102 137 201
-0.090060 0.145693 -0.013342 104 139 203
-0.054012 -0.258487 -0.028973 254 254 254
-0.104852 -0.062808 0.021957 105 147 224
-0.026717 -0.257952 -0.017535 253 253 253
0.355945 -0.090105 0.011571 254 253 255
0.262849 0.131544 0.014921 254 254 255
-0.082820 -0.178234 -0.038474 103 150 234
-0.025806 0.260067 -0.009267 254 253 254
-0.105516 -0.083295 -0.068910 104 149 235
0.048313 -0.209279 0.044213 253 255 253
-0.107181 0.119227 0.018774 104 148 233
-0.097369 -0.241443 0.030047 104 150 235
0.205846 -0.151703 0.004758 253 254 254
-0.104771 -0.142096 -0.044744 106 152 235
0.162906 -0.168867 0.004106 253 253 253
-0.020922 0.244489 0.050636 254 254 253
-0.081376 0.249362 0.009011 102 149 230
-0.099637 -0.135277 0.040760 135 139 145
-0.102830 -0.191783 0.016338 133 135 141
0.353114 0.111506 0.061658 252 253 254
-0.079156 0.122357 0.032282 133 134 140
-0.009681 0.251069 0.062018 253 252 254
-0.085946 0.103284 0.042101 132 137 140
0.036845 0.221283 0.019839 253 253 253
-0.099312 -0.198223 0.057789 104 147 232
-0.105879 0.048593 -0.005949 103 148 234
-0.056550 0.258174 0.032284 255 253 254
-0.082518 -0.121902 -0.003722 102 150 233
0.053003 0.218960 -0.012310 255 255 255
0.084012 0.216265 0.051934 255 255 253
-0.082693 -0.114150 -0.021320 103 148 232
0.021178 -0.237133 0.003601 255 254 254
-0.102690 -0.142026 -0.066845 130 134 138
-0.045963 -0.265322 0.057270 255 255 255
0.316704 -0.089211 -0.002988 255 254 255
-0.080125 0.060288 0.005366 105 140 205
0.206492 -0.141651 0.065542 255 254 254
-0.098553 -0.250128 0.010912 105 151 233
0.083977 -0.192484 0.024009 255 254 254
0.101872 -0.196902 0.022346 253 254 254
0.266377 -0.116288 0.055291 253 255 255
-0.018497 0.256648 0.055775 255 254 255
0.218430 -0.132888 0.018242 255 255 255
0.059461 0.225232 0.016511 255 254 253
-0.065782 -0.273051 0.023361 255 255 254
-0.082873 0.137060 0.027593 103 149 233
0.311345 0.128687 0.003321 255 254 254
0.195863 -0.142774 0.050553 254 253 254
-0.079310 -0.276583 0.003705 107 135 187
0.169560 0.179307 -0.014718 253 253 254
-0.094489 -0.044936 -0.040568 105 150 235
-0.002493 0.249855 0.058629 255 254 255
0.041873 -0.227701 -0.005959 253 253 253
0.138905 -0.166147 0.043401 253 254 255
-0.101969 0.050562 0.026047 130 132 137
-0.087254 0.064870 -0.034569 104 138 199
-0.045137 0.268186 -0.036145 254 254 253
0.190415 -0.155828 0.044538 252 253 253
-0.055702 -0.265527 0.068919 255 253 255
0.251626 0.139415 0.053764 255 253 253
0.176994 0.162791 0.053657 253 253 255
-0.104405 -0.136194 0.047060 103 146 224
-0.081498 0.225122 -0.073361 133 133 139
0.281041 0.133514 0.005722 252 252 252
0.034365 -0.210825 -0.022475 253 254 253
0.032004 0.231847 0.061413 254 255 255
0.114766 -0.179906 0.043490 253 253 255
-0.106115 -0.172104 -0.013560 105 148 228
-0.088571 -0.282664 0.006250 103 148 231
0.003622 -0.244128 0.003376 252 253 253
-0.081351 0.051413 0.040190 104 148 228
-0.074583 -0.195970 0.001200 104 145 219
-0.068294 -0.262012 0.036114 253 254 255
-0.097207 -0.107857 0.020397 104 148 231
0.117544 -0.178525 0.018719 255 255 255
-0.069079 0.261568 -0.003449 255 254 254
-0.101303 0.159567 -0.086814 107 138 198
-0.052839 0.257710 0.000594 253 253 254
0.050984 -0.219475 -0.014956 255 254 253
0.044056 -0.223317 0.002549 255 255 255
0.347207 0.103319 0.008893 254 255 255
0.136334 0.182412 0.042594 253 253 254
-0.083959 0.173870 0.006193 105 139 198
-0.093625 0.172621 0.048363 104 140 210
-0.034597 -0.246358 -0.029011 254 254 254
0.182598 0.178466 -0.007171 254 254 255
-0.106742 -0.187229 -0.033161 104 138 203
-0.099830 -0.212802 -0.059933 104 150 235
-0.076937 0.105074 0.016060 134 133 140
0.055859 0.214029 -0.019151 253 255 253
0.337921 0.109419 0.037607 254 255 255
-0.007059 0.250994 -0.035940 255 255 255
-0.100534 0.017765 0.003083 103 137 202
-0.096753 0.063266 0.019342 104 149 233
0.010827 -0.225344 0.019512 254 254 254
-0.106365 -0.243818 -0.071826 104 139 199
0.235730 -0.124528 0.039050 254 255 253
-0.104180 0.168844 -0.064082 103 147 226
-0.106302 0.232341 -0.081455 107 145 216
0.308335 0.130165 0.013434 252 253 253
-0.085534 -0.114642 0.045235 106 144 217
-0.058870 -0.273945 -0.006574 253 253 255
-0.082998 0.104667 -0.081773 104 150 234
0.329256 -0.091921 -0.001759 252 254 253
-0.080068 0.226644 0.032229 103 145 218
0.251156 -0.129839 0.009309 254 255 255
-0.099930 -0.054923 0.034338 105 151 235
-0.095458 -0.074279 -0.052889 104 150 235
0.245413 0.143441 0.022510 252 254 253
-0.108450 -0.164962 0.012185 104 149 234
0.021444 -0.234368 0.016164 255 255 253
0.285167 0.131196 0.060693 254 253 254
-0.093143 0.199166 0.051500 103 149 235
-0.097594 0.244874 0.041900 104 148 232
0.210944 0.167125 0.006789 255 255 255
-0.052866 -0.255625 -0.000265 255 254 255
-0.078929 0.268217 0.037388 254 253 255
-0.080718 0.196942 0.015730 105 150 235
0.013087 -0.239826 -0.034968 254 254 254
-0.024698 0.259034 -0.027031 254 255 255
-0.097384 -0.227869 0.060018 104 150 235
-0.088668 0.127259 -0.066563 104 150 235
-0.082147 -0.117874 0.003891 103 147 234
-0.102048 0.034836 0.009026 134 136 141
0.229878 -0.139493 0.018024 254 254 254
-0.085836 -0.199337 -0.048438 102 144 216
0.330458 -0.095854 0.017175 254 253 255
0.033205 -0.232337 -0.019928 252 253 253
-0.103953 0.056977 -0.081533 105 149 230
0.221904 -0.141939 0.023411 255 254 255
0.119559 0.201733 0.019073 255 254 254
-0.101196 0.104065 -0.090957 104 149 236
0.098150 -0.190053 -0.020952 252 254 252
-0.014344 0.240373 -0.032728 254 255 254
-0.101249 -0.178199 -0.007045 103 150 235
0.125390 -0.170322 0.018846 253 253 254
-0.104018 0.098199 -0.028657 133 133 139
0.209625 0.167333 0.023012 252 252 252
0.338492 -0.075230 0.007683 251 252 252
-0.102634 -0.099579 0.019406 103 149 233
0.295184 0.121405 0.030161 254 254 254
-0.103092 0.180511 -0.083221 103 149 234
0.267201 0.142034 0.000337 253 253 255
0.059076 -0.205328 -0.013042 252 255 252
-0.079618 -0.056931 -0.067117 102 149 234
0.270961 0.133343 0.024901 252 252 254
0.275366 -0.109676 0.014859 253 253 253
-0.080636 -0.063831 -0.016297 129 132 141
0.034269 -0.225530 -0.024925 253 255 254
-0.102464 0.249306 -0.053800 104 150 234
0.298037 -0.112386 0.056253 255 255 254
0.070648 -0.212067 0.005292 254 254 253
-0.085905 0.215624 0.056701 104 143 214
-0.085002 -0.073440 -0.071253 105 151 235
0.279078 -0.106197 0.016989 254 255 255
-0.105704 -0.042609 -0.026970 104 145 220
0.073274 -0.196894 0.056446 255 253 255
-0.081252 -0.171921 -0.088205 103 150 234
-0.097377 0.286521 -0.022197 134 137 142
-0.013863 0.255427 -0.039092 254 253 254
-0.101469 -0.049609 -0.066570 105 150 234
-0.093761 -0.270742 -0.062933 105 146 224
-0.005648 -0.235852 -0.013529 253 254 254
-0.016919 -0.253567 0.025840 253 253 253
0.194538 -0.157477 0.050946 253 255 253
-0.013116 0.241712 0.031099 255 255 255
-0.101830 -0.162243 -0.006393 102 148 232
0.200969 -0.141063 0.016025 253 255 254
-0.096039 -0.103196 -0.049522 102 148 233
0.299690 -0.097928 0.025821 253 255 254
-0.079182 0.047957 -0.062286 102 149 234
-0.103752 -0.050498 -0.043061 104 151 235
0.007796 0.245581 -0.021291 253 253 255
-0.010416 0.241244 0.003027 253 254 253
-0.096345 -0.272330 0.034492 105 134 185
0.309021 0.124306 -0.000136 253 255 255
-0.024823 -0.258304 0.043314 254 254 254
-0.086052 0.137062 0.038860 102 150 236
-0.065562 -0.278441 -0.024801 254 255 254
-0.099534 0.184879 0.031409 103 149 234
-0.079385 -0.243066 0.049962 130 132 137
-0.096813 -0.254404 -0.070053 106 150 233
-0.082689 0.081827 0.039330 104 148 229
-0.088698 -0.149118 0.050717 104 149 234
0.146571 0.190842 0.024993 253 254 254
0.125030 -0.172213 0.042582 253 253 254
-0.085390 0.172070 0.017947 105 143 218
0.360819 0.110502 0.055540 255 254 254
-0.097332 0.158695 -0.026766 104 150 234
-0.014360 0.254151 0.028162 253 254 253
0.080950 0.215987 0.047367 253 253 255
0.172528 -0.166060 -0.009743 254 253 253
-0.082515 -0.082743 -0.030673 105 150 235
-0.101761 0.282150 -0.030422 104 134 189
-0.072493 -0.280356 -0.017166 186 193 197
0.249525 0.153335 0.011381 252 253 253
-0.099395 -0.160904 0.017374 106 145 218
-0.082015 0.153615 -0.046252 104 150 235
-0.081272 -0.164117 -0.027367 103 149 231
0.253085 -0.114352 0.056889 255 255 255
-0.095892 -0.152801 0.049301 107 144 209
-0.089512 0.267390 -0.005048 132 136 140
-0.102798 -0.196305 0.050438 104 135 191
0.179686 0.179811 0.034750 254 255 253
0.367625 0.107792 0.019570 252 254 254
-0.044790 0.270976 0.027821 254 255 255
0.262511 -0.124305 0.045266 253 254 254
-0.099769 -0.274242 0.017153 104 149 229
-0.106141 -0.218451 0.016363 104 148 234
0.045195 0.230315 -0.022714 254 254 254
0.245021 -0.132019 0.057138 254 253 254
-0.003266 0.249487 -0.021030 254 254 253
0.220217 0.168018 0.044242 253 252 253
-0.083103 -0.270323 -0.014052 255 254 254
-0.098007 -0.100528 -0.045923 106 134 188
-0.104189 -0.201378 -0.015034 136 138 144
0.132618 -0.168349 0.038765 253 254 254
0.098712 0.209601 -0.003881 253 254 253
-0.083978 0.139550 -0.006759 103 149 235
0.150273 0.188208 -0.015627 251 252 252
0.342884 0.115868 0.034737 253 255 255
0.131267 0.197307 -0.013491 254 254 255
-0.063904 -0.270676 0.061630 255 255 253
-0.080440 0.115656 0.020527 102 147 232
0.205510 0.160471 0.040984 254 255 255
-0.080839 -0.184578 -0.083277 103 150 236
-0.086214 -0.101494 0.004865 103 147 227
-0.077814 -0.276541 0.014791 130 133 139
0.144704 0.179284 -0.014147 253 254 255
-0.086326 0.077483 -0.006462 102 144 223
0.151203 0.190547 0.000694 253 253 254
0.096047 0.199268 0.034838 255 255 255
0.062834 0.219862 0.065052 252 254 253
-0.084015 -0.185924 0.024184 105 140 204
-0.079887 0.142225 0.049958 107 139 201
0.225599 0.148345 0.067848 254 254 255
-0.081806 0.257952 0.001779 102 144 222
0.050830 0.216163 -0.003584 253 253 255
0.267461 0.132383 0.007802 253 255 254
-0.102029 -0.226071 0.026098 105 139 203
0.028415 0.236978 0.028910 254 253 255
0.019466 -0.235179 0.022138 255 254 254
-0.080565 -0.070442 -0.014646 102 146 227
0.145757 -0.164957 0.031998 253 253 254
0.129345 0.197881 0.003153 255 255 255
0.320600 0.114114 0.043661 255 255 254
-0.083405 -0.119932 -0.011785 105 145 220
-0.103044 -0.159283 0.048584 104 150 235
-0.025675 -0.258665 0.020883 254 254 254
0.052650 -0.221167 -0.027994 254 254 253
0.211381 -0.142649 0.065123 255 255 254
0.235081 0.158003 0.004308 254 253 255
0.093003 0.197189 0.047256 255 255 255
0.011552 -0.238803 0.003137 253 253 254
0.242814 -0.137739 0.038781 254 254 254
0.313531 -0.103795 0.040706 254 254 253
0.328122 0.108058 0.014999 255 255 255
0.348577 0.102338 -0.007324 252 253 254
-0.066028 -0.262548 0.064326 254 254 253
-0.101959 0.156177 -0.043490 102 150 236
-0.024803 -0.258788 -0.024738 253 253 253
-0.083826 0.017845 -0.023900 102 149 236
0.127555 -0.171348 0.056788 253 253 255
-0.097794 0.095721 0.017972 104 149 235
-0.040446 -0.251567 -0.029155 255 254 254
0.339984 0.107501 0.058530 254 254 255
0.166765 0.171318 -0.001642 254 255 255
0.121284 -0.187424 0.011116 254 255 254
0.050418 -0.211746 0.059288 255 255 254
0.283544 -0.104081 0.036865 255 253 255
0.127836 -0.185459 -0.011438 254 255 253
0.068284 -0.212862 0.006048 255 253 253
0.302465 0.121257 0.037599 252 253 254
-0.101492 -0.168647 -0.028972 103 149 233
-0.097806 0.017318 -0.011792 106 151 235
-0.105595 0.155448 0.004793 103 150 236
-0.066104 0.262178 -0.034088 255 255 255
0.201281 0.164719 -0.006737 252 252 253
0.022950 -0.215125 -0.002729 254 255 254
0.063771 -0.215943 -0.019508 254 255 253
-0.094500 -0.234187 0.058497 103 149 234
0.038508 -0.212170 0.057872 253 255 253
0.097318 0.209394 0.063388 255 255 253
0.183417 -0.160398 0.030385 254 254 254
0.299163 -0.094708 0.053715 254 255 255
0.234001 -0.124882 0.049945 254 255 253
-0.092750 0.047513 0.033969 102 148 235
-0.099937 -0.155435 0.017238 104 151 235
-0.094535 0.140523 0.007951 105 140 203
-0.088236 -0.113775 0.040975 101 144 225
-0.099369 0.117405 -0.038563 103 138 204
0.030867 -0.232559 0.050280 255 255 254
-0.100919 0.024124 0.014809 103 150 235
-0.101953 -0.233810 0.018736 105 145 218
-0.098039 0.191182 -0.086867 103 149 231
-0.105852 0.100643 0.023159 104 146 222
-0.080472 0.270982 -0.017204 128 131 136
-0.064623 0.258217 0.007903 253 254 254
-0.083915 0.172377 -0.013819 105 139 200
-0.101013 0.277290 -0.029027 105 150 232
0.157659 0.179039 0.062509 255 254 254
-0.080561 -0.271504 -0.038889 102 143 216
0.232687 -0.138452 0.006813 253 253 254
-0.083035 -0.128220 -0.066010 103 142 213
0.300571 -0.101603 0.003230 254 253 254
0.204873 -0.138286 0.052188 253 252 253
0.276804 -0.117626 0.033725 253 253 253
-0.083467 0.066406 -0.014871 103 148 235
-0.080628 0.270057 0.009172 105 151 236
0.072214 0.219258 0.046594 253 253 253
-0.104650 0.204191 0.015761 136 142 150
0.005679 -0.230553 -0.013301 255 254 254
-0.032958 0.246555 -0.027375 253 254 254
0.316567 -0.087905 0.008068 254 253 253
0.220580 0.151074 0.029727 254 253 253
0.107977 -0.180787 0.054972 252 253 254
-0.100558 0.089298 0.039614 102 138 206
0.276716 -0.117632 0.026300 255 255 253
-0.084975 -0.123262 -0.046935 106 144 218
0.102003 0.210852 0.022245 254 255 254
-0.077353 -0.154662 0.050768 103 150 234
-0.053376 0.270793 0.053037 255 254 255
0.274469 -0.106807 0.017077 254 255 253
-0.036815 -0.245306 0.058390 253 253 254
0.137672 0.196663 0.008036 253 254 254
0.059256 0.231103 0.013943 254 253 253
0.269281 -0.108404 0.043652 254 253 255
-0.029809 0.249725 -0.028133 253 254 254
0.301247 0.120941 0.050713 253 255 254
0.077263 0.220674 0.022083 253 253 254
-0.101963 -0.240932 -0.062903 103 149 230
-0.023911 0.257757 0.038039 255 254 255
-0.099816 0.073405 0.033177 102 144 219
0.206848 -0.149209 0.025910 253 253 253
-0.097228 0.056360 -0.021199 104 142 214
0.206859 -0.150074 0.064250 254 254 254
0.151752 0.190348 0.010663 253 253 254
-0.025099 -0.257319 -0.000518 253 253 254
-0.079759 0.131135 -0.083297 102 141 213
-0.109318 -0.156281 0.035625 104 151 234
-0.103622 -0.074016 -0.018461 104 149 232
-0.082383 -0.076143 -0.056810 108 138 194
-0.080087 0.196043 -0.061612 116 133 163
-0.088398 -0.033360 -0.008393 106 150 234
-0.080214 -0.179776 -0.000412 130 130 135
-0.095678 -0.067862 -0.009451 105 135 191
-0.094023 -0.275047 0.029381 103 150 234
0.175200 0.178203 -0.015402 252 253 255
0.155213 0.170222 -0.007809 255 254 255
-0.080673 -0.218173 -0.059438 104 152 235
-0.019042 0.257067 -0.022414 253 254 255
-0.051348 -0.256316 -0.028700 253 253 252
-0.095468 0.275014 -0.048990 104 150 234
-0.101502 -0.113956 0.010613 104 150 234
0.001275 -0.246495 0.042178 254 255 255
0.107005 0.206055 0.007873 254 254 253
-0.052270 0.271841 -0.036785 253 255 255
0.312379 0.126888 0.050151 255 255 255
0.070188 0.210336 0.034173 255 253 253
-0.095349 0.195589 -0.080337 103 148 235
0.124064 0.203574 -0.019911 253 254 253
-0.097318 -0.059616 -0.079796 104 150 233
-0.098180 0.036068 -0.071211 103 150 236
0.165122 -0.166894 0.049424 253 254 254
0.232694 0.159766 0.024126 255 254 254
-0.081980 -0.159787 -0.004733 103 143 218
0.249399 -0.118168 0.023587 253 253 253
0.263697 0.147853 0.067557 254 254 254
-0.108118 0.187492 -0.016914 103 149 234
0.195959 -0.155152 -0.006482 255 253 253
0.198691 0.169869 0.066220 255 254 254
-0.101733 0.244058 -0.014392 140 141 146
-0.096476 -0.032430 0.014211 104 151 235
-0.084216 -0.038022 0.023034 105 150 234
-0.099975 -0.146559 -0.085439 106 134 186
-0.077602 -0.087648 0.033856 134 140 145
0.113382 -0.178396 0.000493 252 252 255
-0.086670 0.048023 -0.001447 102 149 235
0.044856 0.219385 0.010397 254 255 254
-0.099189 -0.287377 -0.008984 103 141 209
0.249716 0.153142 0.002211 255 255 255
0.224498 0.150136 0.056906 254 255 255
0.333453 0.109119 0.025888 255 254 254
0.294890 0.123092 0.035589 254 254 254
-0.100889 -0.283024 -0.005597 103 142 215
-0.103976 0.087170 -0.055671 127 134 148
-0.078536 -0.247148 -0.009433 103 149 235
0.029302 -0.219341 -0.017286 252 252 253
-0.082956 -0.210905 -0.043604 128 133 138
0.034386 0.223484 -0.006978 253 253 254
0.124036 -0.187259 0.022027 254 254 254
-0.078582 0.122038 0.037168 103 149 235
0.176657 -0.164686 0.025862 253 254 255
0.253417 -0.115923 0.018702 255 255 255
-0.096559 0.097750 0.001497 103 143 215
-0.095346 0.187801 0.012864 103 146 224
-0.099799 -0.046613 -0.029235 104 149 234
0.303546 0.130234 0.035853 254 254 255
0.038559 0.221113 0.021983 255 254 255
0.039112 -0.213873 0.001208 254 253 254
-0.072957 0.263482 0.028028 187 193 196
0.281902 0.139586 0.017166 253 254 253
0.118776 -0.175417 0.059180 255 254 253
0.064576 -0.213621 0.026392 253 254 252
-0.081845 0.038491 -0.057446 126 130 136
-0.021350 0.249037 -0.043847 255 255 254
0.102946 0.197607 0.042792 253 254 254
-0.082441 -0.084712 0.027405 105 149 235
-0.084718 0.060518 -0.025532 138 142 148
0.083366 -0.192977 0.012160 254 255 255
-0.096688 -0.136696 -0.089882 104 144 218
0.292426 -0.100802 0.027304 253 254 254
-0.045811 -0.251899 0.044356 253 253 253
0.079102 0.214276 -0.018799 253 254 254
-0.078783 0.072934 -0.016449 103 139 208
0.096739 0.211219 0.055112 254 253 255
0.305604 -0.106230 0.042710 254 254 253
-0.062565 0.274017 0.000993 252 255 252
0.195946 -0.155493 -0.007575 255 254 254
-0.109533 0.157382 -0.038013 104 138 199
-0.097279 -0.175978 -0.004183 103 150 233
0.188339 0.160619 0.023907 255 253 255
-0.093131 0.270684 0.032306 103 151 236
-0.105412 -0.159445 -0.089698 105 143 215
-0.095582 -0.171598 -0.056138 105 140 205
0.134952 0.196228 0.000523 255 254 254
-0.105974 0.168009 -0.024579 103 148 235
-0.108245 0.095339 -0.053338 106 149 229
0.255460 0.134927 0.024412 255 253 255
-0.055790 -0.260394 -0.013997 255 254 254
-0.087878 0.156873 -0.081275 107 150 228
0.074073 0.217897 0.003563 253 254 254
0.094660 -0.197009 -0.022582 254 255 252
0.297577 -0.097273 0.055695 254 254 253
-0.100023 0.100790 0.031031 105 151 236
-0.086263 -0.227528 -0.076017 132 135 140
-0.100597 0.125662 0.046796 103 146 223
-0.050819 0.270384 -0.022292 254 253 254
-0.076352 -0.264113 0.052822 253 253 254
-0.076623 -0.142175 0.035364 103 147 230
-0.082590 0.126899 0.039962 103 149 234
-0.081807 0.191414 0.006444 102 148 235
-0.084332 0.064501 -0.009122 102 149 235
-0.081777 -0.093077 -0.075001 102 148 233
-0.096415 0.253475 0.050136 105 137 200
-0.088925 0.181302 0.056477 135 137 144
0.124495 -0.187461 0.023216 254 253 253
0.324903 0.110201 0.053422 254 254 254
-0.103430 -0.081608 -0.075628 103 149 235
-0.106336 -0.172611 -0.081099 107 139 199
-0.009380 0.238405 0.061542 254 255 255
0.316174 0.118141 0.006944 254 254 255
-0.086993 0.094895 -0.008923 132 135 139
0.022714 -0.220746 0.023581 254 253 254
0.113929 0.203135 0.020853 253 253 254
-0.099241 0.107203 -0.064562 103 148 233
-0.080837 -0.164693 0.047582 105 150 233
-0.082275 -0.188615 0.010035 102 149 234
-0.010030 0.241802 -0.023664 254 254 254
0.182787 0.176650 0.036223 254 253 253
0.134419 -0.168282 -0.014238 252 252 253
-0.098601 -0.201456 0.038894 132 136 141
0.021734 0.239861 0.051879 253 253 254
-0.078606 -0.176291 -0.068226 104 149 234
0.281016 0.140124 0.012881 254 252 255
-0.108828 -0.144492 -0.092141 105 143 211
-0.053301 0.269232 0.032647 253 253 253
0.181099 0.177959 0.039377 253 254 253
0.104137 -0.183623 -0.019002 252 253 253
-0.082250 0.032865 -0.004295 138 143 149
0.138510 0.184521 -0.016492 254 254 255
-0.025714 -0.261163 -0.018086 254 254 254
0.024156 0.239847 -0.028319 254 255 254
-0.054790 -0.255505 -0.031221 254 253 254
-0.083963 0.120409 0.037701 104 150 235
-0.099281 0.181620 -0.012734 102 150 235
-0.023475 0.257827 -0.028393 254 253 255
-0.006332 0.251503 0.057186 255 253 255
-0.101656 -0.218309 0.000914 103 149 234
0.107986 0.198673 0.003504 254 254 255
-0.072397 -0.272565 0.060812 255 255 254
-0.079967 -0.064110 -0.026021 104 151 235
0.270963 0.132725 0.070058 253 253 254
-0.046017 -0.270494 -0.033074 254 253 254
-0.097610 -0.035463 0.009611 105 146 222
-0.084091 0.231000 -0.077600 105 146 222
-0.076208 0.177359 -0.035442 103 138 203
-0.084232 -0.151161 0.033812 103 146 228
0.035736 -0.228283 0.033531 253 253 254
-0.106369 0.138623 -0.071218 132 134 141
-0.101428 0.246683 -0.028588 105 149 234
-0.020280 -0.254552 -0.025571 253 255 255
-0.083639 -0.222808 -0.010551 103 148 230
0.050800 0.215835 0.053651 254 253 255
0.317444 0.113470 0.033810 254 254 255
-0.079596 0.085458 -0.081700 104 143 213
0.026610 -0.220352 -0.022684 254 255 255
-0.095905 -0.224237 -0.064689 105 146 219
-0.066447 -0.252454 0.041278 192 192 193
-0.078989 0.127253 -0.035851 104 150 233
0.166054 -0.168120 0.065142 255 255 254
-0.102115 -0.113612 -0.067574 103 150 235
-0.099219 -0.223634 0.047083 104 150 233
0.026106 -0.234715 0.014756 254 254 254
-0.076831 0.266383 0.006119 255 254 253
-0.058619 0.259316 0.052683 255 254 255
0.282732 0.127267 0.009550 254 255 255
-0.107644 0.166542 0.007485 105 138 201
-0.101693 0.215702 0.053483 103 150 234
-0.092462 0.066948 0.041748 104 141 211
-0.078332 0.134798 0.045299 104 150 232
-0.079172 0.073361 0.040494 103 148 235
-0.038487 0.267338 0.022372 254 254 254
-0.098760 0.281212 -0.038618 103 149 234
-0.062730 0.273673 0.011990 255 254 253
-0.107233 0.093995 0.024941 103 142 213
0.295663 -0.111189 0.039556 255 255 253
-0.095769 0.158961 -0.072907 104 144 220
-0.017309 0.255898 -0.000938 255 255 253
-0.097242 0.175606 -0.008543 105 151 236
0.299516 -0.092913 0.055846 254 255 255
0.152928 0.169498 0.021584 252 252 254
0.032353 0.235656 0.021612 255 255 255
-0.075224 -0.161700 0.021693 104 143 217
-0.105221 0.042156 -0.073678 104 148 232
-0.085035 0.115101 -0.089412 103 149 236
-0.030838 0.262529 0.025533 253 254 254
-0.077295 -0.216881 -0.003902 136 140 145
0.350953 0.108853 0.059770 253 254 253
0.095639 0.208142 -0.019528 253 253 254
-0.099978 0.032208 -0.034251 105 151 235
-0.083355 -0.179526 0.017577 102 149 234
-0.096220 0.095167 0.006666 102 150 234
-0.041156 -0.252124 -0.033084 253 253 254
-0.079509 -0.127058 0.030036 131 132 137
-0.082670 -0.066350 0.006508 104 146 224
-0.100782 0.252055 -0.016770 104 150 236
0.116303 -0.177808 -0.008450 255 254 254
-0.045647 -0.261421 0.051170 253 254 252
0.050161 0.228034 0.063881 254 255 253
-0.098707 0.090105 -0.015137 103 147 225
0.037273 -0.228487 -0.000105 195 195 192
-0.085025 -0.171330 -0.074011 103 138 201
-0.104262 -0.112646 -0.084653 104 136 198
-0.106025 0.169029 -0.004536 104 149 233
-0.081908 0.137889 -0.083082 138 130 135
-0.098345 -0.077939 0.002998 104 141 212
-0.078214 0.242095 -0.021393 104 150 235
-0.082020 0.053737 -0.053541 103 148 233
0.065451 -0.212324 0.046360 255 254 254
0.207391 -0.138585 -0.007855 253 254 254
-0.098817 0.148083 -0.035974 106 140 205
-0.096450 -0.137534 0.022554 104 150 235
-0.087340 0.162906 -0.066032 104 150 236
-0.020212 -0.244198 0.038831 254 254 254
-0.083724 0.240745 -0.058179 105 147 230
-0.102718 0.130827 -0.042719 105 151 233
-0.084420 -0.039016 -0.024587 104 150 236
0.324034 0.111885 0.000977 254 255 255
-0.056573 0.268974 0.054895 198 198 203
0.023271 -0.234096 0.036291 255 254 255
-0.094741 0.012082 0.015195 104 149 234
-0.086296 -0.267084 -0.064998 105 149 230
0.218461 0.170715 0.019353 253 254 254
0.343046 -0.080502 0.013312 253 252 252
0.081752 0.216631 -0.017188 254 253 253
0.179804 -0.150651 0.021979 255 254 253
-0.086709 -0.280733 -0.034434 103 138 204
-0.080007 0.236148 -0.074570 103 150 236
0.176598 -0.152169 0.021583 252 253 254
-0.103531 0.157146 -0.077684 105 146 225
-0.082212 -0.250600 -0.008979 106 136 191
-0.096460 0.031145 0.009523 105 144 217
0.002917 -0.242704 -0.029991 253 254 255
-0.086256 0.055562 -0.088605 102 148 233
-0.106235 0.098738 -0.079057 105 151 235
-0.099514 0.074429 -0.034002 102 149 232
0.325827 -0.084250 0.033593 253 254 253
-0.080870 0.137732 0.041408 102 149 235
0.186319 -0.150862 -0.009450 254 253 254
0.176868 0.181729 0.038890 254 255 255
0.164454 -0.156256 0.047878 253 254 253
-0.083287 -0.114087 -0.008567 132 134 139
-0.093169 0.069273 0.039716 105 146 222
0.152973 0.188264 0.049750 253 255 253
0.209206 0.158798 0.038892 255 255 254
0.006493 0.240191 -0.038838 254 255 254
0.109644 -0.193938 -0.016462 255 255 254
0.201429 -0.145293 -0.006572 254 255 253
-0.082646 0.046415 -0.060538 102 149 233
-0.092150 -0.089383 -0.090252 134 134 138
-0.082311 -0.112105 0.033209 103 147 230
-0.071674 -0.266501 -0.011060 253 253 254
0.177854 -0.162740 0.032310 252 253 252
0.146308 -0.176502 0.023149 254 253 254
-0.103636 -0.170492 0.052887 103 149 235
-0.080062 -0.043288 -0.013359 104 149 234
-0.064989 0.271241 -0.043364 253 254 253
-0.006636 -0.236618 0.022387 253 253 254
-0.068566 -0.276993 -0.007403 253 254 254
-0.076419 -0.081635 0.031803 104 143 215
0.245080 -0.132427 0.003334 252 252 254
-0.101275 0.057910 -0.055234 102 147 225
-0.081474 -0.102639 -0.037976 103 150 235
0.191573 -0.156160 0.011189 254 253 255
-0.026615 -0.236456 -0.015415 160 185 231
0.307872 0.131272 0.056415 254 253 255
-0.091950 -0.280312 0.020453 129 132 138
-0.079092 -0.281107 -0.014626 103 148 233
-0.086532 0.085272 0.041885 104 148 232
-0.000462 0.236219 -0.011542 255 255 255
-0.103474 0.107663 0.025192 105 148 233
0.256227 -0.122829 0.061306 253 253 254
-0.101708 -0.214262 -0.040316 105 146 224
-0.011171 0.241924 0.036226 253 254 253
0.009776 0.246748 -0.019267 254 255 253
0.024847 0.239274 0.008083 255 254 255
0.169414 -0.155897 -0.010181 252 254 253
-0.005785 0.251244 0.009949 255 255 255
-0.086457 0.023068 -0.054528 135 136 142
-0.006455 0.238736 -0.007359 253 255 253
-0.102754 0.178144 -0.039252 104 139 203
0.196532 -0.152864 0.040888 253 253 254
0.033850 -0.228454 -0.016543 253 253 253
-0.098736 -0.199794 0.042586 103 148 233
0.092432 0.200535 0.038581 255 255 254
-0.101991 0.061029 -0.044856 104 137 199
-0.044895 -0.252614 0.023620 254 255 254
-0.103044 -0.202143 0.000074 104 147 226
0.295373 -0.097719 0.060924 254 255 255
-0.102285 0.183773 -0.006591 103 150 235
0.356086 0.110381 0.060851 255 255 254
0.354303 0.112447 0.035824 253 255 255
0.236473 0.156024 0.022214 255 255 255
0.100175 0.197407 -0.003124 253 254 255
0.257424 0.147711 0.030339 255 254 254
-0.080663 -0.253579 -0.057356 127 133 137
-0.005575 -0.249822 -0.008996 254 255 255
0.204653 -0.138057 0.036524 253 254 255
0.200468 -0.140488 -0.007319 255 255 255
-0.100766 0.176991 0.027227 103 149 234
-0.018106 0.246179 -0.041959 255 254 255
-0.088038 0.070165 0.043031 106 147 223
-0.103267 -0.225234 -0.023770 104 150 232
0.043416 0.231514 0.019261 254 254 255
-0.080659 -0.170847 -0.027012 103 150 232
0.071652 0.207504 -0.012311 253 255 253
0.293009 0.125278 0.065106 254 255 255
-0.075596 -0.117961 -0.016405 105 149 229
-0.015260 0.253560 0.045279 253 254 254
-0.107020 -0.172342 -0.087852 104 149 235
-0.101790 0.210287 0.043231 103 137 199
0.157259 -0.173256 -0.004390 253 254 255
0.026140 0.239244 0.061857 255 254 255
-0.104635 -0.063316 -0.077602 106 151 235
-0.101246 0.177975 -0.012705 103 149 234
0.296743 -0.099156 -0.005083 255 255 253
0.215559 0.166471 0.046564 255 253 253
0.319827 0.112534 0.016221 255 255 253
-0.087234 -0.132710 0.017107 105 143 212
-0.096096 -0.066395 0.020928 104 148 228
-0.095329 0.170838 0.012736 102 141 215
-0.058374 -0.272731 0.016182 253 254 254
-0.075287 -0.271654 -0.035284 253 254 253
0.172326 -0.164144 0.049506 254 255 255
0.030797 -0.232835 -0.005351 255 255 254
-0.082208 0.192964 0.044408 102 148 230
-0.099908 -0.193979 -0.014370 131 132 137
-0.074714 0.265743 0.015432 254 254 253
-0.090965 -0.110981 -0.098198 104 146 228
-0.088642 0.094404 -0.041516 103 143 220
0.029732 -0.216168 0.056268 254 255 255
-0.081125 0.180548 0.025412 104 150 234
-0.097481 0.253791 0.001691 104 149 233
0.326348 -0.100436 -0.004361 254 254 254
-0.020728 -0.240629 -0.030675 252 253 253
0.155582 0.175533 0.062702 254 255 255
-0.048524 -0.268437 0.010623 254 254 253
0.203014 0.159811 0.020619 253 253 254
-0.081677 -0.270916 -0.017856 253 255 253
0.079687 0.215964 0.060676 253 254 254
0.037206 -0.227410 -0.008583 254 254 254
-0.078911 0.063194 -0.015737 131 133 137
0.064436 -0.204196 -0.024145 254 254 255
0.018331 0.231704 0.055161 253 253 255
-0.086838 0.141693 -0.073315 127 130 135
-0.110302 -0.141824 0.011692 105 150 233
-0.076837 -0.141808 0.002465 102 149 234
0.371186 0.104820 0.048885 255 255 255
-0.030448 -0.248437 0.012594 253 254 254
-0.100200 0.080016 0.000468 103 148 233
0.100131 -0.189261 -0.020960 253 253 253
0.211425 -0.148012 0.062249 255 255 255
-0.102129 -0.280474 -0.027843 108 138 193
-0.069338 0.279566 -0.023558 255 254 253
0.131845 -0.171309 0.064039 209 208 212
0.309687 -0.109332 0.057439 253 255 253
-0.062440 0.259311 0.050073 254 254 254
0.287174 -0.114288 0.009517 255 253 254
0.107199 0.200511 -0.020681 253 253 255
-0.082698 -0.248928 -0.053991 105 150 235
0.248386 -0.118818 0.026916 253 254 253
0.213179 -0.147708 0.019792 255 255 253
-0.000329 0.248614 0.031918 253 254 254
0.175362 -0.164959 -0.009577 254 254 254
-0.071060 0.262266 -0.038171 253 255 253
-0.082700 0.124801 -0.034423 133 136 142
0.267740 0.130851 0.034104 255 253 253
-0.013398 -0.251477 -0.028738 253 255 253
0.163795 0.172902 -0.014335 252 253 253
-0.098086 0.074937 0.025957 104 148 234
-0.106757 -0.201849 -0.070061 103 151 236
0.034550 0.223180 0.036900 255 254 255
0.022685 -0.223746 0.061392 254 255 254
-0.096770 0.140282 0.016217 103 150 234
-0.027440 -0.258544 -0.004602 253 254 254
-0.065864 0.264946 0.064182 253 255 254
0.222164 -0.144439 -0.002908 255 255 253
0.172499 -0.150919 0.029975 253 255 255
0.029934 -0.219094 -0.012976 253 254 254
0.301073 0.129118 0.064372 254 254 255
-0.102848 -0.206097 0.018213 103 146 221
-0.052891 0.257743 0.000241 255 253 255
-0.065622 -0.276509 -0.002571 253 253 253
-0.079272 -0.271036 -0.031372 255 254 255
-0.098971 0.242270 -0.040972 129 131 136
-0.098414 -0.096931 -0.048542 102 149 235
-0.017706 -0.240553 0.056570 253 253 255
-0.023021 -0.247277 0.061744 254 253 254
0.270492 0.131202 0.059419 255 254 255
-0.080402 0.183884 0.018693 103 145 225
-0.094912 0.098777 0.003013 132 138 142
0.272981 -0.122389 0.032330 255 254 254
-0.083210 -0.095516 -0.029171 104 148 231
0.093378 0.211855 -0.008649 254 255 254
0.026879 0.228719 0.063088 253 254 255
0.009142 -0.226649 0.037302 254 254 255
-0.076823 -0.162134 0.017110 102 144 221
-0.080052 -0.043367 -0.038717 105 149 234
0.184204 -0.151329 -0.009567 253 255 255
0.061864 0.211870 0.022372 254 255 255
0.037278 -0.215227 -0.016327 254 255 253
0.285840 -0.103047 0.001561 252 254 253
-0.090466 0.050827 -0.085813 103 149 233
0.046805 -0.209221 0.049723 254 254 255
-0.101973 -0.181236 -0.037464 105 144 217
-0.083644 -0.131322 0.009152 104 149 235
0.109852 -0.189245 0.067953 253 254 253
0.125959 0.186480 0.027826 253 254 254
0.074529 0.207126 -0.004774 255 255 255
-0.076875 -0.045165 -0.028567 105 146 220
-0.000730 0.249152 -0.015467 253 254 254
-0.089056 -0.209031 0.011939 102 149 235
-0.100980 -0.158616 0.004677 103 149 234
0.205066 -0.153642 0.000229 253 254 253
-0.075406 -0.275769 0.004688 253 253 254
0.102996 -0.196966 -0.021321 252 252 253
0.113558 -0.189469 0.025431 253 255 255
0.164349 -0.155283 -0.000842 252 253 254
0.255211 0.147956 0.029210 255 254 255
-0.079847 -0.276709 0.060198 254 255 253
-0.096696 -0.097698 0.001330 104 144 218
0.236934 -0.123386 0.025302 254 253 254
-0.097106 0.066922 0.025393 103 148 234
-0.081261 0.273048 0.019588 253 254 253
0.018174 -0.223448 -0.011224 253 253 253
-0.061627 0.263333 0.061696 254 255 254
-0.088301 0.089879 -0.089411 102 150 235
0.011401 -0.223640 0.033357 254 255 254
-0.079973 0.207906 0.049731 105 141 206
0.344807 -0.089964 0.033173 252 253 253
0.031656 0.227425 -0.011368 254 255 254
0.118879 -0.188620 0.000183 253 254 253
-0.083394 -0.231226 0.060606 103 148 226
-0.076263 -0.108401 -0.023935 102 149 234
-0.099829 -0.157184 0.014607 105 147 221
-0.070150 -0.275922 0.013746 253 254 254
0.324981 0.113448 0.041230 253 254 255
0.039405 0.232577 0.034165 255 253 254
0.192275 0.163051 0.012011 255 255 255
0.102175 0.192937 0.010911 254 254 255
0.048707 0.229594 -0.000123 253 254 254
0.132108 -0.168259 0.017055 254 254 253
-0.100359 -0.181742 -0.057285 105 151 233
-0.079054 0.205410 0.028753 102 149 234
-0.078705 0.142936 -0.025197 102 144 223
-0.083747 -0.044348 -0.000864 102 146 228
0.037599 -0.225281 0.043610 255 255 254
-0.087106 -0.262062 -0.066020 102 149 235
-0.100683 0.173783 -0.033801 104 150 234
0.016615 0.228983 -0.010465 254 253 255
-0.095955 0.240153 0.029536 105 148 228
0.160891 0.174325 0.003749 253 254 254
0.016565 0.229406 -0.031303 255 255 254
0.045054 -0.220102 0.064285 254 253 253
0.024217 -0.221006 -0.013812 253 254 254
-0.101774 0.136930 -0.037179 105 148 229
-0.006646 0.239358 -0.011813 254 255 253
-0.106614 -0.058671 0.005481 104 149 234
-0.099919 0.149704 -0.032967 106 136 190
0.048839 0.218093 0.036176 253 254 255
0.299729 -0.107830 0.060706 253 254 253
-0.090079 0.064189 -0.082678 131 137 142
-0.097621 -0.107477 -0.006392 104 150 232
-0.101953 0.227199 -0.012875 105 148 227
-0.080420 0.280777 0.002704 104 144 219
-0.044401 0.255163 -0.016844 254 254 255
-0.065329 0.268214 -0.024250 253 253 253
-0.088710 -0.187281 -0.028404 104 150 235
0.193591 -0.144676 0.024686 254 253 254
-0.079657 -0.266568 -0.012918 102 144 221
0.260128 -0.125034 0.006432 253 254 255
-0.095422 -0.072848 -0.085668 105 150 236
0.219193 -0.131369 0.047591 254 254 254
0.043169 0.232509 -0.016868 255 255 255
0.148711 0.182206 -0.016023 254 254 255
-0.100032 0.040421 -0.000266 102 148 227
-0.107185 -0.248725 -0.011905 104 148 226
-0.091801 0.276363 -0.039943 105 149 232
-0.077619 0.155860 -0.081677 127 132 137
-0.102688 -0.117137 0.029961 103 150 235
-0.078970 -0.039846 0.017869 132 136 139
-0.081780 -0.279442 0.017357 255 254 253
0.001840 -0.243343 0.048549 253 254 253
0.196725 0.165905 0.046381 254 254 253
-0.025965 0.260264 -0.032899 255 255 254
0.126307 0.183657 -0.015199 253 253 254
0.075996 0.214243 -0.028882 253 254 255
-0.041194 -0.264768 0.030713 253 253 254
0.072248 -0.199227 0.025754 255 253 253
0.100843 -0.185701 0.066208 255 255 255
-0.099087 -0.238486 0.039704 128 135 141
0.318999 -0.101618 0.020001 254 254 254
-0.107574 0.035802 -0.030239 132 132 138
-0.032091 -0.246670 0.034627 253 253 254
0.282946 0.135792 0.067036 253 254 254
0.088077 -0.192181 0.036409 253 253 255
0.216196 -0.144909 0.023064 254 255 255
0.332933 0.108355 0.049608 254 255 254
0.237240 -0.134578 0.052355 255 253 255
0.136857 -0.175271 -0.011965 254 253 255
0.096760 0.201112 -0.025563 253 253 253
-0.090365 0.211730 -0.081458 103 149 235
-0.093903 -0.058621 0.036250 102 145 225
-0.014477 -0.239898 -0.028335 253 254 252
-0.074089 0.265752 0.051076 254 254 255
-0.053914 0.273475 0.058338 254 255 255
-0.091215 0.024557 -0.058350 105 149 232
0.319164 -0.103124 -0.003409 254 253 253
0.099087 -0.199275 0.020343 255 254 255
0.333531 0.116017 0.031380 255 255 255
0.147361 0.191524 0.009345 254 255 253
-0.079447 -0.216547 -0.024967 105 135 191
-0.053138 0.256512 0.053633 254 254 255
-0.081952 -0.104282 0.026852 101 141 212
-0.104086 0.161122 -0.083526 104 149 234
-0.077729 -0.216547 -0.011147 102 148 232
0.159790 -0.154730 0.062170 255 254 253
-0.085396 -0.126686 -0.066721 103 150 235
-0.089659 0.271495 0.032718 102 149 234
-0.076628 0.279574 -0.009838 133 134 140
0.095992 0.211185 -0.002441 254 254 254
0.123389 -0.188240 0.036675 254 254 255
0.252578 -0.116062 0.015693 254 254 254
-0.086458 0.195843 -0.020962 103 149 235
-0.079028 -0.208840 -0.036420 103 135 193
-0.087006 0.193026 -0.065651 135 132 137
-0.051682 -0.266806 0.040050 253 254 252
-0.038634 0.252480 0.035569 255 255 255
-0.099858 0.192819 0.050666 104 138 201
-0.097999 -0.202590 0.043656 102 143 214
-0.020166 0.245638 -0.006004 254 253 255
0.216512 -0.145614 0.009606 255 255 254
-0.099848 0.207822 -0.006703 129 133 138
0.332309 0.111552 0.049662 254 254 254
0.213742 0.167952 0.040499 253 253 254
0.035246 0.227503 -0.034720 254 255 255
-0.099622 0.230158 0.042051 103 150 235
0.143158 0.191440 0.043267 253 254 254
-0.095317 0.031489 0.025470 103 147 233
-0.102586 -0.280290 0.015426 104 149 233
-0.100025 -0.127813 -0.020733 104 148 233
-0.102014 0.117662 0.046986 104 149 231
-0.088784 0.138832 -0.062698 104 150 236
-0.088098 -0.086846 -0.069876 103 148 226
-0.030522 -0.260824 -0.022101 253 255 253
-0.079600 0.068170 -0.032557 130 132 138
-0.077445 -0.218714 0.026954 103 143 212
0.035913 -0.215094 0.007405 255 254 253
-0.056638 0.270547 0.010993 255 254 254
-0.103746 -0.243176 -0.009664 138 148 162
-0.074710 0.273771 0.058150 253 255 254
0.141963 0.183155 0.028885 255 254 255
0.115435 0.202816 0.025223 253 254 254
0.275082 -0.118577 0.008402 255 254 254
0.152821 0.176783 0.058273 253 255 254
-0.086999 0.086974 -0.061605 104 149 229
0.036278 0.233158 -0.019724 254 254 254
0.166093 -0.165270 0.067688 253 255 254
-0.094169 0.282267 0.012262 134 134 139
0.210315 -0.148889 0.001967 253 254 255
-0.095421 0.017728 -0.021865 102 139 207
-0.083355 -0.138403 0.033938 103 146 229
0.025088 -0.232144 -0.011952 253 253 254
-0.102320 0.042037 0.035502 104 137 199
0.001313 -0.243077 -0.007632 253 254 255
-0.108521 0.143180 -0.061956 104 151 233
-0.099951 0.067584 -0.074002 104 149 233
-0.003880 0.250451 -0.037996 254 254 254
-0.080416 0.125884 -0.024492 104 150 234
0.306346 -0.107990 0.050742 255 253 254
0.192703 -0.145633 -0.004624 255 255 254
-0.096847 0.141243 -0.056109 102 149 235
-0.083667 -0.071919 0.007176 105 151 234
0.085141 0.208933 0.063050 255 255 253
-0.090838 0.005233 0.027503 103 150 235
0.048323 0.230069 0.022700 254 255 255
-0.106791 0.264078 -0.055307 105 150 232
0.319167 -0.089177 0.030200 255 255 253
0.297015 0.134482 0.065641 253 255 255
0.333374 -0.093220 0.029314 255 255 254
0.314336 0.125396 0.008106 253 253 255
0.156260 -0.173372 -0.010303 253 253 253
-0.101216 -0.213005 0.052390 105 150 234
0.186574 -0.146155 -0.003424 255 254 253
-0.106544 -0.132925 -0.020852 105 149 228
0.303865 0.130564 0.024439 252 252 253
-0.084200 0.098792 -0.093848 102 145 224
0.030093 0.224459 -0.000384 253 255 254
-0.080722 -0.241842 -0.035331 104 141 209
0.068077 0.221526 -0.022412 254 254 253
-0.079103 0.013392 0.002815 103 146 222
-0.014021 -0.240156 -0.002228 253 253 255
0.121496 -0.176371 -0.017181 252 252 253
0.123934 0.187694 -0.007839 252 253 254
-0.087439 -0.173758 -0.084557 106 151 235
0.068620 -0.209118 0.061810 253 254 254
-0.034238 0.264057 -0.010478 255 253 253
-0.086238 -0.111198 0.044108 106 147 225
-0.084882 0.103716 -0.076762 102 143 218
-0.080761 0.147209 0.033767 104 150 234
0.301926 0.131269 0.035013 253 253 254
0.352663 -0.081721 0.047728 253 252 253
0.112676 0.204235 0.017880 254 255 255
-0.082920 -0.107566 0.030228 102 148 232
-0.081969 0.180830 -0.004929 106 142 207
0.303896 0.121525 0.033148 253 253 254
-0.087894 -0.273730 -0.008781 255 255 255
-0.098560 0.084862 -0.050016 103 149 234
-0.025471 0.253058 0.062295 255 255 255
0.157920 0.171878 0.009925 255 255 255
-0.111691 0.152320 -0.019669 104 141 207
-0.085724 -0.179748 -0.075267 103 149 234
0.022412 0.226760 0.050630 255 253 254
0.026437 0.238947 -0.038771 254 254 254
-0.015722 -0.241815 0.024369 254 254 254
-0.079871 0.264642 -0.037213 179 184 188
-0.102490 -0.243775 0.002725 106 150 232
-0.083907 -0.192270 0.060446 105 144 214
0.103930 -0.180107 0.008887 253 254 254
-0.068838 0.277158 -0.028728 255 254 255
-0.061122 0.277817 -0.029225 255 254 254
0.229941 -0.140828 0.002826 253 253 254
-0.083084 -0.244565 -0.009504 106 136 192
-0.081575 -0.159406 -0.073593 104 151 236
0.069020 0.217345 0.064800 254 254 254
-0.081940 -0.067903 -0.072346 105 146 223
0.024428 -0.222011 -0.016253 253 253 254
-0.100038 0.078573 0.026009 103 149 234
-0.083697 0.107646 0.036278 104 138 202
0.074598 0.219111 0.013043 255 255 255
-0.104626 0.016646 -0.003037 113 133 170
-0.011668 0.239505 -0.023942 253 253 254
-0.099734 -0.282289 -0.002740 104 143 214
-0.082341 0.106821 -0.088530 104 144 217
-0.083699 0.226377 0.005803 136 134 139
-0.009015 -0.249428 -0.033488 253 253 253
0.264197 -0.110652 0.022258 254 253 254
-0.079581 0.067711 -0.043115 105 149 234
-0.101949 0.044529 -0.073920 105 150 234
0.184748 -0.146761 0.044619 253 255 253
-0.086189 -0.228398 0.056517 102 148 230
-0.104242 0.164863 -0.048396 104 150 235
0.224455 -0.142745 0.021054 253 254 253
0.008029 0.245005 0.035352 254 254 254
0.218266 0.163654 0.043712 254 253 254
-0.055759 0.256098 0.062807 255 254 254
-0.082903 0.274630 0.026074 133 137 142
-0.096492 -0.262636 0.002841 134 133 138
-0.074886 -0.121218 0.012249 133 137 140
-0.105016 0.198920 0.014039 104 145 223
-0.073923 -0.278015 0.037284 254 252 254
-0.105541 -0.236884 0.020288 110 139 192
0.110578 -0.194508 -0.020975 253 253 253
-0.087819 0.091017 -0.037294 103 150 235
0.317460 -0.090905 0.014736 253 253 253
-0.096761 0.216772 0.011443 105 150 234
-0.104761 0.171608 -0.032264 102 147 228
-0.088826 0.045816 -0.003101 104 150 235
0.158226 0.172705 -0.010463 254 253 254
-0.040484 -0.252792 0.005304 254 253 254
-0.081352 0.261608 0.016054 103 148 232
-0.078122 0.178326 0.014168 104 150 235
0.125289 0.191218 0.063688 253 254 254
0.029965 0.234038 0.064355 254 252 253
-0.051339 -0.254189 0.026588 254 252 252
0.225622 -0.140386 0.040049 253 254 253
0.132121 -0.169893 0.054821 253 254 253
-0.022255 -0.252209 0.062627 255 254 254
-0.098256 0.198361 -0.044577 103 148 231
0.164983 -0.155785 0.027058 254 255 253
-0.082350 0.256102 0.018828 103 148 229
0.310564 0.123898 0.062796 254 253 254
-0.061752 0.274747 0.056037 255 254 254
-0.091824 0.151281 0.049742 104 150 234
-0.084625 0.152540 -0.083706 102 148 233
-0.089702 0.278224 -0.013743 106 151 235
-0.079321 -0.229111 0.043105 103 150 235
0.264267 -0.108387 0.039217 252 253 253
0.265595 -0.108475 0.062744 255 253 255
-0.078655 -0.174748 -0.060573 103 140 209
0.325913 -0.088251 0.021076 253 253 254
-0.100480 -0.146588 -0.040938 106 149 227
-0.045131 0.254456 -0.024417 255 254 254
-0.099255 0.089462 0.033894 105 151 236
0.209762 -0.135219 0.053547 255 255 253
-0.099445 -0.255919 -0.069806 106 134 186
0.020069 0.238519 0.027388 202 202 204
0.069560 0.220992 -0.012864 254 254 255
-0.080481 -0.264718 0.010287 102 148 234
-0.037343 -0.254874 0.008374 255 254 255
-0.080960 -0.265749 0.036846 105 150 234
0.013472 0.231040 0.010919 253 254 254
-0.085199 0.023808 0.036072 116 134 167
0.263437 0.146257 0.047224 255 254 255
-0.103471 -0.050726 -0.052454 104 149 232
-0.098405 0.086941 -0.035389 102 147 232
-0.037739 -0.250636 -0.016278 254 254 255
-0.027437 0.260601 0.007393 254 255 254
0.058756 0.213853 0.050700 253 255 253
-0.107033 0.239538 -0.037954 107 142 206
-0.098697 -0.107367 -0.063295 104 144 215
0.243161 -0.132916 0.038520 254 254 254
0.285783 0.137722 0.059040 253 253 253
0.237663 0.159556 0.036732 253 254 253
0.285648 0.138016 0.020959 255 255 255
-0.085728 0.135796 0.047995 103 138 200
-0.100573 -0.204423 -0.013119 104 149 234
0.199070 0.174937 -0.005762 253 255 253
-0.042064 0.254938 -0.008925 253 254 253
0.085290 0.203469 0.007927 253 254 253
0.260674 -0.113768 0.020007 255 255 255
0.016102 0.243550 -0.002182 253 254 255
-0.102248 -0.077205 -0.063458 103 150 235
-0.098847 0.265253 0.041734 129 132 137
-0.089471 0.064361 -0.028134 101 148 235
-0.098713 -0.171926 0.044820 103 150 235
0.304554 -0.103628 0.002387 255 255 255
-0.084438 0.005269 0.023768 104 150 233
-0.075300 -0.168255 -0.077146 131 133 138
-0.080532 0.123111 0.013761 128 130 134
-0.058511 0.274725 0.041000 254 253 254
-0.102598 0.132460 -0.056213 103 150 236
-0.109117 0.094813 -0.066383 103 149 232
-0.100846 0.269199 0.005221 103 144 218
-0.080858 -0.189110 0.002086 134 134 138
-0.053722 -0.268430 0.045635 253 253 255
-0.084879 0.058980 -0.023405 102 150 234
-0.107967 -0.208897 -0.066890 104 151 234
-0.099295 -0.121175 -0.058199 104 149 233
-0.081139 -0.129674 -0.068067 104 151 235
-0.037053 0.246778 0.005308 251 252 253
0.032862 0.235795 -0.013986 255 255 255
0.057669 0.225043 0.054029 254 254 254
0.282467 0.130246 0.063164 253 253 255
-0.085794 -0.041285 -0.047388 103 143 215
-0.092057 0.269199 0.027195 104 149 233
-0.099288 0.023709 -0.037530 104 149 234
-0.080717 0.132467 -0.070684 102 150 235
-0.077313 0.014358 0.015596 103 146 224
-0.077496 -0.241422 0.055371 105 144 217
-0.008536 0.238375 0.012126 255 255 254
-0.084784 0.039355 -0.015743 105 141 211
-0.072607 -0.279692 0.009726 253 253 254
