ply
format ascii 1.0
element vertex 1180
property float x
property float y
property float z
property uchar red
property uchar green
property uchar blue
end_header
-0.082461 0.278268 0.052516 253 253 253
-0.084001 -0.043714 -0.029309 101 148 235
-0.084556 0.240320 -0.012492 103 149 237
-0.107485 0.108571 -0.063942 103 150 235
-0.074081 -0.277180 0.038947 254 254 253
0.205646 0.163620 0.052340 254 253 254
-0.014823 0.239630 0.024413 255 255 254
0.005659 -0.233933 -0.032299 254 254 254
-0.108118 0.088699 -0.088140 104 141 208
-0.087633 -0.234307 -0.017514 102 148 231
-0.102201 0.267307 -0.028990 129 133 140
0.289223 0.118961 0.040055 254 255 254
-0.089591 -0.233661 0.007166 101 144 223
0.219786 0.157680 0.021194 255 254 255
0.122665 0.200683 0.019727 254 254 253
-0.103977 0.179855 -0.085945 102 149 236
-0.091656 0.116988 -0.041805 103 149 237
0.164493 0.168268 0.032367 255 253 255
-0.090348 0.053086 -0.074859 102 149 237
-0.106018 -0.235275 -0.012850 104 150 236
0.070451 -0.208787 0.030112 255 255 255
0.085521 -0.198837 0.062689 254 255 255
-0.086717 -0.161352 -0.044928 103 149 235
0.119862 0.187396 0.031112 255 255 254
-0.071348 0.274813 -0.034592 254 254 255
-0.108590 0.073213 0.019790 104 150 235
-0.043770 -0.264957 0.008420 255 255 255
0.319703 -0.089158 -0.008919 255 255 255
0.142354 -0.163408 0.021858 255 253 253
-0.104179 0.153415 -0.081554 101 138 206
0.035853 -0.225886 -0.023461 255 254 254
-0.100135 0.195349 0.055412 104 150 236
-0.084404 0.149522 -0.084732 101 149 234
0.040678 0.230405 0.053536 254 255 254
-0.030254 0.260210 0.015107 255 255 255
0.199709 0.167518 0.001490 253 254 255
0.319125 0.124160 0.039084 254 255 255
-0.099598 -0.231438 -0.076838 105 141 208
0.033411 -0.215027 0.008859 254 254 255
-0.106251 -0.167909 0.010703 104 151 237
-0.111850 -0.180425 -0.062048 104 150 234
-0.084782 -0.063007 -0.074172 102 148 237
-0.004424 0.234579 0.047641 255 255 255
0.184736 0.172556 0.019142 253 253 254
-0.101511 -0.275805 -0.049584 103 150 237
0.011565 0.236976 -0.033671 255 255 255
-0.103744 0.244351 0.047111 101 148 236
-0.082625 0.089352 -0.012363 101 149 235
0.041235 0.216990 0.022466 255 255 255
-0.103003 -0.237347 0.046290 102 150 235
-0.085596 0.245788 -0.069429 102 148 237
-0.107865 -0.106366 0.040554 104 149 233
0.205947 -0.133355 0.039536 255 255 254
-0.089107 0.018842 -0.021519 102 150 237
-0.084834 0.268223 0.037939 103 149 235
-0.104235 -0.229012 0.021196 103 147 228
0.033841 0.231907 0.036303 255 253 254
-0.087857 -0.282609 -0.046717 102 148 233
-0.102951 -0.106073 -0.085386 102 149 236
-0.057197 -0.268775 0.018123 255 255 254
0.016274 0.226991 -0.032067 255 254 254
0.001629 -0.243831 0.046265 254 254 254
0.042551 0.228811 0.010326 254 254 253
0.330513 -0.082086 0.035344 254 253 254
-0.088045 -0.163496 -0.007871 131 134 141
-0.093042 -0.116418 -0.064162 103 150 237
-0.106744 -0.110818 -0.038349 131 134 141
-0.096406 -0.067900 0.033830 104 147 233
-0.022808 0.255622 0.035391 255 254 254
0.151300 0.186448 0.024921 255 255 253
-0.008775 0.237423 0.056968 255 255 255
0.083592 -0.202517 0.033732 254 254 254
0.070565 -0.208656 0.029458 254 255 254
-0.087534 -0.140806 -0.013255 102 148 231
-0.070392 0.276836 0.000595 253 254 254
0.247136 -0.115139 0.057506 254 255 253
-0.085351 -0.121979 0.001458 101 150 233
-0.088053 0.256818 -0.051816 103 147 231
0.275296 -0.105928 0.023331 255 255 255
-0.081946 -0.272786 0.064103 253 254 253
-0.086921 0.257835 0.024548 102 149 236
0.212014 0.157088 0.040088 255 255 255
-0.083876 -0.075149 -0.089091 102 141 213
-0.103185 -0.132683 -0.024935 103 150 237
0.237804 -0.120108 0.000536 254 255 253
0.261658 -0.110171 0.011764 254 254 255
-0.103918 -0.058286 0.021191 102 149 237
-0.106129 0.182332 0.047484 102 149 237
-0.083647 -0.263154 -0.051034 101 147 232
-0.090076 0.152874 -0.088179 103 146 227
0.012680 -0.238400 -0.014754 255 254 255
0.200829 -0.143500 0.064528 255 254 254
-0.082935 -0.035769 0.009809 103 139 208
0.086028 -0.189715 -0.011063 254 254 254
-0.090993 0.281301 0.000615 139 145 153
0.268967 -0.118294 0.033551 254 255 254
-0.087100 0.101491 0.038455 103 144 219
-0.109299 0.064418 -0.087762 101 145 225
0.025625 -0.230848 0.016890 254 254 255
-0.096592 -0.079549 0.036443 103 149 235
-0.078969 -0.266152 0.019246 255 255 253
-0.104149 0.226185 -0.005835 102 148 234
0.260656 -0.108577 0.041656 253 253 254
-0.102562 -0.063095 0.024869 104 148 231
-0.097671 0.025091 0.033227 104 151 237
0.040236 -0.223049 0.030808 255 254 254
-0.089997 -0.202430 -0.066912 102 150 237
-0.101391 -0.068631 0.035610 102 150 236
-0.101240 -0.136784 0.012294 103 149 233
0.050233 0.225844 0.045727 255 255 255
-0.035248 0.248904 0.061052 254 255 254
-0.029595 0.259395 -0.005085 254 254 254
-0.112408 0.194910 -0.077822 103 150 236
-0.053969 -0.257798 -0.015285 254 254 254
-0.081682 0.106040 0.022816 102 148 235
0.232230 0.154540 0.019254 253 253 255
-0.015005 -0.234353 0.061868 255 254 254
0.080973 -0.194050 -0.016932 255 254 254
0.011294 -0.224619 0.055116 253 255 254
-0.100586 -0.052023 -0.007638 102 149 235
-0.085133 0.050972 -0.061724 104 151 236
-0.101983 0.213109 0.023863 103 148 234
-0.105732 -0.227213 -0.044769 104 150 235
-0.107174 0.060095 0.014152 102 148 231
-0.091834 -0.225030 0.030335 102 148 233
-0.107842 0.105056 -0.055769 129 133 140
0.339622 -0.091552 0.059512 255 255 254
0.069090 -0.209180 -0.017868 254 253 254
-0.084930 0.148905 -0.041859 130 134 140
0.147327 -0.166283 0.070092 255 255 255
0.155957 -0.169363 0.063574 255 255 255
0.169542 -0.151713 0.014333 253 253 254
0.100047 0.207154 -0.002365 253 255 253
0.001128 0.235425 0.015708 255 255 255
0.021697 -0.221029 0.003427 255 254 255
-0.090602 -0.155754 0.028979 102 149 235
0.006339 0.239433 -0.033270 253 254 254
-0.107718 0.156597 -0.061811 103 142 216
0.280451 -0.111390 0.022329 254 255 254
0.296139 -0.107919 0.059823 255 255 254
-0.103450 0.234758 -0.069821 101 149 236
-0.058652 -0.262214 0.060336 254 255 255
-0.106230 0.034795 0.015821 102 148 233
-0.105235 -0.104081 -0.096671 101 149 236
-0.075491 -0.279027 0.031348 255 255 255
-0.103815 -0.282116 -0.035100 103 148 236
-0.020765 -0.236314 0.047605 255 254 253
-0.106269 0.048851 -0.087849 102 148 237
-0.106533 -0.163100 -0.046912 103 150 236
-0.105131 -0.134754 -0.090028 103 149 237
-0.085190 -0.120390 -0.045115 103 149 236
-0.084733 0.280259 -0.001694 102 149 236
-0.085415 -0.050931 0.024825 104 149 236
-0.035363 -0.258469 0.054044 255 255 255
-0.086508 0.025254 -0.053516 129 133 139
-0.108354 -0.157392 0.042307 102 149 235
0.073381 0.216650 0.039113 255 253 255
-0.103883 -0.159535 -0.029348 102 149 237
0.331243 0.117571 0.009731 254 255 253
-0.097909 0.021392 -0.044486 102 148 234
0.130878 -0.177364 -0.017815 253 253 253
-0.083953 0.280174 -0.027506 191 193 193
-0.085476 0.142267 0.040900 101 148 234
-0.087288 0.027871 -0.025902 104 149 236
0.113333 0.190115 0.005699 254 254 255
-0.096017 -0.068533 0.035233 141 144 147
0.277575 0.135428 0.027532 254 253 255
0.153926 0.184649 -0.007732 253 253 255
-0.104908 -0.171164 -0.015998 102 150 235
0.303647 -0.103761 0.001372 255 254 254
-0.081945 0.278476 0.014518 255 255 253
-0.020890 0.244588 0.025239 255 255 254
-0.084533 -0.087868 -0.089352 136 142 149
0.264954 0.133396 0.002591 253 253 255
0.128482 -0.169693 0.048966 253 253 255
-0.089382 0.140486 -0.078424 101 147 229
-0.093124 -0.043885 -0.047017 102 150 236
-0.099191 0.270328 0.034074 103 149 237
-0.062236 0.259440 -0.010071 254 255 255
-0.104206 -0.151043 -0.016186 102 147 229
0.031956 -0.214996 0.037429 253 253 253
-0.106097 -0.078444 -0.050030 102 148 234
0.090787 0.197614 0.059412 255 255 254
-0.098372 -0.280937 0.009601 102 149 237
0.217669 0.159006 0.053837 253 255 255
-0.106182 0.242497 -0.017399 103 149 235
-0.033698 0.249657 0.045277 254 255 255
0.347452 0.104201 0.065721 255 255 254
-0.103719 -0.053174 -0.011804 103 148 234
0.093899 0.209108 0.042692 253 254 254
-0.087830 0.225352 0.018187 102 148 237
0.200040 -0.136404 0.031492 255 255 254
-0.083987 -0.086232 -0.074776 101 149 236
0.093685 -0.199220 0.022564 254 253 253
-0.043067 -0.252132 0.041182 255 255 254
-0.114636 0.041026 -0.045042 102 150 237
-0.083442 -0.081171 0.040128 149 143 149
-0.103515 -0.234090 -0.021975 103 150 235
-0.028548 -0.259183 -0.027123 253 253 254
-0.109050 0.180639 0.041469 104 150 235
-0.003208 0.244194 0.013163 255 255 254
-0.056876 -0.258759 -0.003580 253 255 253
0.002465 -0.242258 0.039221 255 254 255
-0.093053 -0.047564 0.014139 103 150 237
-0.089211 0.071691 0.041374 104 151 237
-0.085952 0.189921 -0.082991 102 147 229
0.273860 -0.104519 -0.005818 253 253 255
0.144368 0.189462 0.009543 254 255 254
0.257812 0.133486 0.004558 255 255 255
0.061572 0.213000 -0.002941 254 255 253
-0.104267 -0.127901 -0.080973 104 150 236
0.216320 0.158238 -0.005830 255 255 254
0.307727 -0.089332 0.045984 254 254 254
-0.089950 0.186311 0.042512 104 149 234
0.253173 -0.118326 0.050037 255 255 253
-0.104064 0.170260 0.010932 104 150 236
0.322258 0.119813 0.055084 253 254 254
0.064783 0.221551 -0.021160 255 254 254
-0.103438 0.272779 0.022077 103 150 236
-0.100855 -0.085799 -0.051929 101 147 229
-0.106030 0.183955 -0.082839 103 151 237
0.006671 -0.224709 0.038835 255 255 255
-0.089047 -0.276248 0.001514 255 255 255
0.042724 0.224087 0.061053 253 255 254
-0.054710 0.257520 -0.032612 255 255 253
0.105329 -0.192230 0.054475 255 254 253
0.015425 -0.229427 -0.027652 254 255 254
-0.101455 0.191241 -0.006456 103 149 236
-0.092064 -0.044642 -0.042200 105 151 236
-0.034361 -0.257585 0.049256 253 254 254
-0.025330 -0.245800 -0.028498 254 254 254
0.081972 0.201904 0.023747 253 253 254
0.172135 -0.150256 0.013281 254 254 254
0.132109 -0.179312 -0.002345 253 253 254
0.047398 -0.208704 0.024161 254 255 254
-0.104377 -0.137669 -0.001551 103 148 234
-0.100461 0.036889 -0.035947 103 142 213
-0.106896 -0.211914 -0.039801 104 147 226
0.074242 0.217153 -0.014355 254 255 254
0.198971 0.167078 0.022551 255 253 253
-0.061690 0.259286 0.013791 253 255 255
0.138094 0.182509 -0.013694 253 253 254
-0.085693 0.262217 -0.004459 103 141 213
0.248569 -0.127700 0.060578 254 254 254
0.070363 -0.197044 0.036208 253 255 254
-0.085241 0.192134 0.041832 102 149 235
0.254679 -0.114956 0.061440 255 254 255
-0.107348 -0.149922 0.035367 103 150 237
-0.088959 0.112405 -0.075773 133 137 142
0.129322 0.183494 0.001047 255 255 255
0.050391 -0.205976 0.017793 254 255 255
-0.101564 -0.067770 -0.045626 102 150 233
-0.101328 0.144646 -0.049429 101 145 226
0.178468 0.163042 -0.009196 255 255 255
-0.083301 0.277997 -0.000548 102 143 219
-0.086730 0.235979 0.009358 102 150 237
-0.086746 0.169167 0.035727 102 149 235
-0.082789 0.213576 -0.018892 128 135 140
-0.086159 0.062472 -0.085062 102 146 228
-0.093995 -0.280880 -0.026589 103 150 235
-0.108672 -0.095236 0.022606 104 150 236
-0.041449 -0.259288 -0.016211 255 255 254
-0.105220 0.175643 -0.058859 102 150 236
0.165780 -0.166293 0.033446 255 255 254
-0.088868 0.114704 -0.015790 102 149 236
0.110038 0.199108 0.063916 254 254 255
-0.088890 0.143639 -0.031986 104 149 234
0.058564 0.209129 0.060913 255 255 254
-0.109542 -0.227534 -0.060067 103 148 231
0.248054 0.149385 0.047294 254 253 254
0.325726 0.111122 0.064730 253 254 254
-0.100999 0.059794 0.008089 104 148 232
0.125353 -0.183732 0.003018 254 254 255
0.273541 0.132417 0.002501 253 255 254
-0.093493 -0.112672 0.041895 103 149 236
0.308199 0.125341 0.023607 255 255 254
0.128417 0.199551 0.013624 255 253 254
-0.100767 -0.097438 -0.025908 103 150 237
-0.088267 -0.076796 -0.006313 103 149 236
0.062568 -0.200324 -0.021381 255 255 254
0.336502 -0.079413 0.030369 254 255 255
-0.002604 -0.231757 0.013209 254 255 255
-0.087990 -0.190714 -0.004750 135 136 142
-0.103583 0.216684 0.020416 102 148 233
-0.109915 -0.206340 -0.008443 102 150 236
0.078674 0.204489 0.041185 255 255 254
-0.102342 -0.165030 -0.066894 103 150 233
-0.090640 -0.255580 0.018534 104 150 237
-0.093733 -0.044913 -0.046740 103 148 237
0.235154 0.152685 0.051372 253 254 254
0.168675 -0.152369 0.041762 255 254 253
0.137227 0.191736 0.000048 254 253 253
-0.102335 -0.203214 -0.051454 101 149 235
-0.082800 -0.176706 0.012577 103 150 237
-0.101792 -0.219288 -0.080055 102 149 237
-0.000415 -0.244993 -0.029054 254 255 255
-0.108321 -0.164238 -0.091439 101 140 210
-0.001656 -0.234333 0.062229 254 255 255
-0.089140 0.023036 -0.013445 104 150 236
0.213686 -0.141336 0.064103 254 253 255
0.245061 0.147500 0.064319 254 254 255
0.216803 0.146552 0.002823 254 254 253
0.004715 -0.244011 -0.020988 254 254 254
-0.089390 0.112312 -0.042367 101 148 236
0.277562 0.136336 0.020889 255 254 255
-0.108296 0.126767 -0.009759 101 150 236
-0.088344 -0.062822 -0.020919 102 148 235
-0.086302 -0.081143 -0.090889 103 148 235
-0.010158 -0.248235 0.025974 254 254 254
-0.051339 0.255513 0.034307 255 254 253
0.245314 0.137008 0.064799 255 255 255
0.178998 0.168294 0.062113 255 255 255
0.059725 -0.202576 0.026670 255 254 254
-0.107505 0.078474 0.027952 103 150 237
0.263426 -0.115090 0.010813 254 253 255
-0.103557 -0.083335 -0.032512 103 149 237
-0.107072 0.030504 0.030957 102 149 235
0.242644 -0.130616 0.054913 253 255 254
-0.086844 0.092146 0.026676 105 141 207
-0.100394 -0.222950 -0.009250 102 148 237
-0.086479 0.083521 -0.083758 102 149 236
0.072352 0.210719 0.063550 255 254 255
0.316593 0.114343 0.002623 254 254 254
-0.016784 0.256473 -0.030412 255 255 255
-0.105497 0.249033 -0.078013 103 149 237
-0.090552 0.133127 -0.051548 133 138 144
0.094556 0.196170 0.055053 254 255 253
0.116765 0.199297 0.041758 254 255 254
-0.085498 0.195098 -0.006849 102 149 236
-0.104430 -0.192140 -0.034106 103 147 228
0.250351 -0.114191 0.007988 253 254 255
0.067768 -0.203153 0.065547 254 255 254
-0.107337 -0.247752 0.018241 102 150 235
0.246537 0.138303 0.006245 255 254 254
-0.091813 -0.136952 0.045853 102 149 235
-0.104977 0.020251 -0.050133 105 149 231
0.075074 -0.194998 0.025020 254 254 255
-0.085546 -0.056147 -0.033797 101 150 237
0.177348 -0.154800 -0.002336 254 254 255
0.361769 0.096052 0.019788 255 255 254
-0.100624 0.223179 0.023351 102 149 237
0.207178 -0.145476 -0.003947 254 255 253
0.124242 0.197117 0.054258 254 255 255
-0.083660 0.021040 0.029590 102 150 235
-0.107560 0.097870 -0.081027 104 151 237
0.174149 -0.147791 0.053681 254 254 253
0.023711 -0.216996 0.011902 253 254 255
-0.073574 -0.266161 0.002760 254 254 254
-0.106017 0.221102 -0.022949 103 138 204
-0.089079 0.055700 -0.069783 133 134 139
-0.101914 -0.270551 -0.030851 102 149 236
-0.104572 -0.076546 -0.087234 103 150 237
0.020957 0.223873 -0.001572 254 254 255
0.331055 -0.090405 0.019121 255 255 255
-0.069292 -0.264512 0.012920 254 254 253
-0.088921 0.176757 -0.022168 103 147 231
0.028415 -0.232473 0.010000 254 254 254
0.135034 0.179474 -0.011148 255 255 254
-0.105919 -0.073308 0.031133 103 149 237
0.324474 -0.090715 -0.002865 255 254 254
0.310339 -0.089318 0.028445 255 254 253
0.010591 0.231148 -0.022814 254 254 254
-0.110712 0.078686 -0.093872 103 149 236
-0.104187 -0.181895 0.023653 132 137 145
0.078025 0.205097 -0.025448 255 255 255
0.168866 -0.157810 0.068493 255 254 255
0.011052 -0.225507 0.021169 254 255 253
0.084506 -0.196448 0.015466 255 254 254
0.073575 -0.197721 -0.020150 253 254 255
-0.090308 -0.141375 -0.080902 103 148 235
-0.069064 0.269575 -0.039267 255 255 254
-0.023782 0.257638 0.010527 255 254 255
0.131401 0.179156 0.055933 254 255 254
-0.088557 0.139125 0.008174 104 149 231
-0.108155 0.172732 -0.078024 102 149 236
-0.078274 -0.279061 0.022187 255 254 255
0.024802 0.235938 0.030316 255 255 255
0.198493 0.167516 0.039718 253 254 254
0.066170 0.211537 -0.026027 254 255 255
-0.079847 0.276287 0.021547 254 255 255
-0.029518 0.245221 0.062225 255 254 254
-0.053246 0.261231 0.064398 253 253 254
-0.023245 0.254835 0.049371 255 255 253
-0.107800 -0.245721 -0.056273 103 148 230
-0.099315 -0.277240 0.018655 103 149 236
-0.104263 0.017217 0.005410 101 149 237
0.249455 -0.113316 0.047933 254 254 255
-0.099941 -0.079326 0.038341 138 142 150
0.091691 -0.199793 0.047943 255 255 255
-0.086868 0.225988 -0.056516 103 148 235
0.352973 0.098911 0.040191 255 255 255
-0.062468 0.272408 -0.013669 253 253 255
0.139763 0.177536 -0.007339 254 254 254
0.242816 -0.118233 0.045567 255 254 255
0.060555 -0.203977 -0.022939 253 253 255
-0.105407 0.099709 -0.030032 129 135 140
-0.040156 0.252967 0.030319 253 255 255
0.155329 -0.168764 -0.016222 255 253 254
0.298751 0.113106 0.063537 255 255 254
-0.052775 -0.258259 0.049944 208 210 204
-0.093631 0.170324 0.047651 103 148 231
-0.047025 0.254569 0.050004 254 254 255
-0.086917 0.061816 -0.040671 104 143 215
0.063604 -0.208606 -0.016918 255 254 253
-0.097375 -0.035309 0.011954 102 149 236
-0.083659 0.111332 0.002455 103 149 236
-0.107809 -0.096389 -0.044542 101 149 235
-0.087449 0.217796 -0.053493 103 149 236
-0.091397 -0.273786 -0.030103 254 255 255
-0.089319 0.182197 -0.014166 103 150 237
-0.103990 -0.192609 0.048035 102 150 237
0.115342 0.201124 0.004406 254 253 254
0.166009 0.180070 0.054943 255 255 255
-0.087905 0.094019 0.017812 101 150 237
0.189314 0.159055 0.040770 254 255 255
-0.089292 -0.197341 -0.053196 131 137 144
0.047790 -0.206348 -0.006110 254 255 254
0.113223 -0.181943 -0.003507 253 253 255
0.307177 -0.103768 0.058620 253 253 254
0.070741 0.204957 0.058527 254 253 255
-0.091815 -0.274205 -0.056374 104 148 231
0.327561 -0.095220 0.036763 253 254 255
-0.100772 0.251342 0.051215 102 148 237
0.014258 -0.224271 0.018303 254 254 254
0.172016 0.168491 0.060989 255 254 254
-0.108879 0.187352 0.016957 103 148 233
-0.103244 -0.200439 0.034148 103 150 235
-0.066501 -0.261327 0.053200 254 255 253
0.342893 0.112791 0.006115 253 254 254
-0.023441 0.246032 0.020904 253 254 254
0.126916 -0.168434 0.050101 255 253 255
-0.105365 0.217671 -0.083388 103 150 236
-0.108081 -0.225796 -0.076154 131 131 138
-0.099526 0.068866 0.038355 103 149 236
-0.108721 0.069279 -0.085175 102 149 237
0.097943 0.203594 -0.010628 255 255 254
-0.091239 0.155678 -0.028176 102 149 237
-0.086506 0.190094 -0.083107 104 149 237
0.065033 -0.213179 0.008971 255 255 255
-0.102355 0.138847 0.046208 103 149 236
0.042076 -0.209996 0.001887 254 255 255
0.299800 0.122413 0.067014 253 253 255
-0.090174 0.017389 -0.001629 102 149 237
0.144878 -0.169735 0.016078 253 254 255
-0.041353 0.263701 -0.019126 255 255 255
-0.059494 0.270993 -0.003671 255 255 255
0.284468 -0.099444 0.026322 255 255 253
-0.026755 -0.244878 0.015593 253 255 253
-0.100868 -0.112542 0.041407 102 149 232
0.108853 -0.190509 0.039143 255 254 253
0.209266 -0.146292 0.020003 255 254 254
0.321679 -0.098095 0.040064 254 254 254
-0.088130 -0.164711 -0.030275 104 148 230
0.320169 0.119905 0.008495 254 253 254
0.139087 -0.164336 0.066044 254 255 255
0.004166 -0.229092 0.023650 254 255 254
-0.105028 -0.071132 -0.031248 101 149 235
-0.103763 0.260531 0.040768 102 148 237
-0.101260 -0.189448 -0.064362 102 150 237
-0.102738 -0.083286 -0.061175 103 150 236
-0.074188 -0.263623 0.013184 254 255 255
-0.103527 0.160095 -0.008962 102 149 237
0.034947 0.222081 -0.021759 255 255 254
-0.042449 -0.261184 0.059584 255 255 255
0.317725 0.118792 0.065602 255 255 255
0.167145 -0.147098 0.059334 255 253 254
-0.001323 0.233552 0.029832 255 254 254
0.333005 0.104911 0.032020 253 254 255
-0.043369 0.253047 -0.036307 255 255 255
-0.107579 0.197490 0.001360 102 149 234
0.263744 -0.119141 0.015498 255 255 255
-0.106391 0.124049 -0.033513 138 137 142
-0.102930 -0.257560 -0.046826 104 150 236
0.031095 -0.216697 -0.006721 255 255 254
-0.111963 -0.103014 0.015835 105 145 220
-0.002570 0.247068 0.042728 254 254 254
-0.086601 -0.133466 -0.064700 103 149 229
-0.083477 0.207242 0.035613 104 149 234
-0.083504 0.212585 0.019062 103 150 237
0.214455 0.164251 0.000143 254 253 255
-0.089021 -0.258514 -0.006715 103 150 235
-0.100784 -0.059636 -0.044211 104 150 237
0.230279 0.154151 0.000285 254 253 255
-0.019924 0.244054 0.019066 255 255 255
-0.099012 -0.237871 -0.076736 101 140 212
0.304475 0.114288 0.040134 254 255 255
-0.081440 0.244615 0.010460 103 148 236
0.256820 -0.110161 0.053265 254 255 254
0.002947 0.243169 -0.034234 254 254 255
-0.102323 -0.173218 -0.023368 102 150 236
0.359055 0.095645 0.048802 255 253 254
0.105438 0.192698 0.004944 255 254 255
-0.039997 0.265449 -0.020522 255 254 255
0.371450 0.101184 0.042930 253 253 255
-0.033078 0.253809 0.008396 255 254 254
-0.087540 -0.101161 -0.095994 133 132 138
-0.085378 -0.175918 -0.000170 104 150 234
0.185822 0.172459 0.011452 254 254 254
-0.100814 0.227121 0.012841 103 150 236
-0.018520 0.247789 0.061143 255 255 254
0.144608 -0.164474 -0.015013 254 254 255
0.090373 0.197876 0.059150 254 255 254
0.085620 0.212844 0.012427 253 253 255
0.212351 0.161672 -0.000833 254 255 255
-0.090567 0.130513 0.032784 102 148 234
-0.087181 0.268804 0.001650 255 253 253
-0.011988 -0.231061 0.060901 255 255 255
0.299177 0.127970 0.048906 254 255 254
-0.085140 -0.188920 -0.080959 102 149 235
-0.100591 -0.154091 -0.074896 101 149 236
0.016009 0.239145 0.058627 255 254 253
-0.089664 -0.246969 0.043034 102 149 237
0.215004 -0.130940 0.040063 254 254 255
-0.060042 0.260071 0.060491 255 254 254
0.066418 0.219296 0.045196 253 254 254
0.078825 -0.199773 -0.019874 255 254 255
-0.104540 0.216258 -0.061182 133 134 140
-0.104455 -0.243816 -0.014172 101 145 225
0.225465 -0.138288 0.029659 254 254 255
-0.091433 -0.167561 -0.067267 102 150 235
0.057089 -0.201730 0.051499 254 255 254
-0.089741 -0.042482 -0.023228 102 148 235
-0.088648 0.032895 0.021616 102 150 235
-0.089448 -0.046338 -0.067642 103 150 236
0.043072 -0.221888 0.053256 255 254 255
0.018552 -0.237633 -0.008913 254 254 254
0.278408 0.135932 0.045769 253 254 255
0.309401 -0.089435 0.023865 254 254 254
-0.016677 -0.254562 -0.031608 254 255 255
0.062029 0.213490 0.063820 253 254 253
-0.089054 -0.194308 -0.083034 103 148 230
-0.107052 0.272053 -0.043842 103 149 235
0.035874 -0.228988 -0.015120 254 254 254
-0.089850 -0.234000 -0.034191 101 151 236
0.004491 0.234008 0.064646 255 254 255
0.237530 -0.118492 0.062979 253 255 253
-0.107925 0.156616 0.027009 102 150 237
0.292151 0.122140 0.003665 254 254 253
-0.091729 -0.131017 -0.038199 103 150 235
0.108008 0.190072 -0.019169 254 254 254
-0.091688 -0.217289 0.001515 102 149 234
-0.083352 -0.133288 -0.079401 134 137 141
-0.101429 0.085100 -0.006836 104 150 234
0.282584 -0.112626 0.040312 254 253 255
-0.011062 -0.249105 0.011080 254 254 254
-0.086424 -0.271038 -0.023642 253 254 255
0.038327 0.219545 0.039276 254 255 255
-0.093391 -0.187007 -0.014829 103 148 233
-0.015332 0.242032 0.034568 253 255 254
0.292293 -0.096577 0.027474 253 254 253
-0.066431 0.272543 0.036743 255 254 254
0.377580 0.091462 0.027653 255 255 254
-0.107360 0.155899 -0.059818 101 148 235
0.063433 -0.200477 0.004579 255 254 255
0.236738 -0.119088 0.058111 254 255 255
-0.101147 -0.167346 -0.004293 104 150 234
0.128210 0.191505 -0.019459 255 254 255
-0.087610 0.185403 0.056924 102 149 236
0.302023 -0.104578 0.004277 254 255 253
0.097426 -0.185082 0.065158 255 255 254
-0.105938 -0.109696 -0.092308 101 149 237
0.123012 -0.172088 0.043119 255 255 254
-0.102651 0.041855 -0.076635 136 141 145
-0.086754 0.208202 0.020428 102 149 234
0.297836 0.115774 0.047933 255 255 255
0.077232 -0.205206 0.025983 255 255 255
-0.103335 0.112201 -0.067607 103 150 237
-0.101812 -0.238546 -0.050912 104 149 234
-0.103243 -0.236468 0.038735 104 150 235
-0.094093 -0.041244 -0.032643 103 150 237
0.054512 -0.204679 -0.010237 253 253 255
-0.084143 -0.255348 0.034952 102 148 233
-0.097779 0.167517 0.052513 145 148 154
-0.084181 -0.036998 -0.006331 102 146 229
0.088523 -0.189599 -0.009557 254 253 254
-0.103656 -0.178094 -0.072788 103 151 237
0.129577 -0.178744 -0.016638 253 255 255
0.308672 -0.103323 0.051801 255 254 255
-0.087655 -0.046438 -0.031201 133 136 140
0.100976 0.203513 -0.008723 253 253 253
-0.097645 -0.098449 0.037656 104 150 236
-0.025057 -0.235731 0.041221 254 253 254
-0.089567 0.163081 0.036877 104 150 237
-0.102752 0.219568 0.009988 104 151 237
-0.102156 -0.091115 -0.094761 104 147 227
0.160072 -0.156283 0.021750 254 255 254
0.163596 -0.163453 0.039953 254 254 254
-0.082716 -0.281965 0.013411 255 254 253
0.316838 0.122062 0.015639 255 255 255
-0.106070 -0.058607 -0.070615 104 151 236
0.107190 0.191949 0.051361 255 255 255
-0.109533 0.051214 -0.050016 103 149 235
0.307711 0.118936 0.008758 253 253 254
0.133049 -0.166261 -0.011643 255 255 254
0.066824 -0.193053 0.062180 253 255 253
0.206454 -0.147903 0.060226 253 255 253
0.039687 0.230465 0.054761 253 254 255
0.047356 0.227314 0.039446 254 254 254
0.133412 0.181689 0.025526 255 255 253
0.071635 0.205345 0.040439 254 254 254
-0.101660 -0.111895 -0.024401 102 149 237
-0.088896 0.087589 0.026603 102 150 237
-0.107447 0.133649 -0.079366 125 132 144
0.067601 -0.196416 0.059728 253 254 254
-0.090544 -0.166087 0.009248 102 150 234
0.280380 0.123981 0.001153 255 255 253
-0.089583 0.259251 0.047493 104 145 227
0.084971 -0.192674 0.013071 255 255 253
-0.096819 -0.211561 -0.080502 103 149 237
-0.109048 0.114733 -0.049684 131 131 138
0.210763 0.149983 0.012989 255 255 255
-0.086243 -0.145722 -0.068146 102 150 235
0.016138 -0.236047 -0.008470 254 253 255
0.201302 0.161846 0.006234 254 255 254
-0.098286 0.259494 -0.075233 103 148 236
-0.089711 -0.288476 -0.020352 102 142 213
-0.009218 0.248577 -0.035220 253 255 253
0.176616 0.161334 -0.003332 254 255 255
0.099945 0.194471 0.010221 254 255 255
-0.105241 -0.069130 -0.051127 101 149 236
-0.108533 0.066485 -0.091391 104 151 237
-0.085959 0.142311 -0.078841 103 139 205
-0.087695 0.175959 -0.003495 102 151 237
-0.086634 0.228234 0.046686 104 149 231
-0.087037 -0.090933 -0.048715 101 148 235
0.120497 -0.184991 0.043162 255 255 255
-0.106721 0.056171 0.028429 102 149 236
-0.092354 0.150904 -0.054210 102 150 237
0.070689 -0.209088 0.022596 255 255 255
-0.080946 0.242235 0.025013 101 148 237
-0.109149 0.131914 -0.012892 103 150 237
-0.099991 0.240453 0.036514 104 149 236
0.131540 -0.181103 0.059777 255 255 254
0.060687 -0.200820 0.000658 255 255 255
-0.097369 0.205314 -0.079936 101 148 236
0.112035 -0.177845 0.027514 255 254 254
-0.101655 -0.109539 0.023867 134 135 140
0.059318 0.215864 -0.015607 253 254 254
-0.009568 -0.247858 0.035698 253 255 255
0.087277 -0.186799 0.053225 254 253 254
-0.097821 -0.197568 0.055312 103 148 232
0.124388 -0.184131 0.021343 255 255 254
0.371217 0.091454 0.036492 253 255 253
-0.082815 0.205330 -0.038620 136 139 143
-0.065098 0.257720 0.029352 254 253 254
-0.027429 -0.243050 0.040339 255 255 254
-0.016053 0.249736 0.040953 254 254 255
0.109900 -0.184350 0.065194 253 254 255
0.327793 -0.082847 0.022262 255 255 254
0.082085 0.203115 -0.023891 255 254 255
0.003708 0.234452 -0.005214 255 255 253
-0.087605 -0.106258 -0.029154 103 149 233
0.330077 0.107526 0.016580 255 255 253
-0.090008 0.074639 -0.094672 102 140 210
0.101267 -0.196026 0.035232 255 255 255
-0.100163 0.235026 -0.028529 101 149 233
0.354059 -0.088405 0.056992 255 255 255
-0.088525 0.255887 -0.011788 103 147 231
0.103628 -0.192990 0.046110 254 255 255
0.082011 -0.202809 0.054237 253 255 254
-0.084451 0.155686 0.036056 103 148 232
-0.108954 -0.086821 -0.011178 102 149 235
-0.095019 0.165799 -0.084461 101 149 236
-0.099257 -0.093208 0.037938 104 149 233
-0.087389 -0.257985 -0.062187 102 149 236
-0.089877 -0.244186 -0.017386 103 150 236
0.080247 -0.204993 -0.020921 253 253 255
-0.105564 -0.164869 -0.056662 102 149 235
0.315632 -0.084967 0.008358 252 253 253
-0.083392 0.212333 -0.081748 101 144 222
0.164843 -0.152700 -0.003845 253 253 254
-0.088155 0.200360 -0.010810 101 149 235
0.301048 -0.091875 0.047653 254 253 254
0.215830 -0.144852 0.031197 254 255 253
-0.105619 -0.139548 -0.027909 103 149 237
-0.085646 0.166109 -0.035691 104 146 225
0.295530 0.121882 0.000069 252 252 252
-0.090470 0.174523 -0.058889 101 150 237
0.094105 0.209053 0.022118 254 254 255
-0.101632 0.213260 -0.081941 104 150 237
0.004482 -0.242428 -0.017528 254 254 255
-0.095035 -0.038998 -0.038924 132 134 140
0.153907 0.171074 0.006716 253 254 254
-0.105766 0.256727 0.007679 102 150 237
-0.104506 0.205416 -0.078751 103 150 234
0.046086 0.215547 0.013811 253 255 255
0.313453 -0.101725 0.059318 254 253 255
-0.083820 -0.250289 0.042429 104 150 235
-0.085729 0.253322 0.034438 102 150 237
-0.111700 0.057962 -0.088113 103 149 235
-0.082517 -0.096336 0.030878 103 149 234
0.311994 0.124227 0.006588 253 254 253
0.208916 0.152892 0.009664 253 254 255
0.164305 0.184212 -0.002465 255 254 254
0.001857 0.247139 0.062819 255 255 255
-0.104717 0.115493 0.036593 104 151 237
-0.009371 0.240119 -0.018932 253 255 255
-0.053380 -0.266572 -0.031071 253 253 253
-0.102362 0.215069 0.016887 102 149 237
0.078441 0.203216 0.031144 255 254 255
0.318798 0.121105 0.019740 255 254 255
-0.090889 0.056510 -0.035733 104 148 236
0.130057 0.194713 0.012001 254 253 255
-0.107341 0.027065 -0.059248 103 150 237
-0.100663 -0.212177 -0.067465 102 149 234
0.006306 0.231621 -0.035945 255 255 255
-0.013738 -0.237222 0.002583 254 253 255
-0.087525 0.175458 -0.066348 135 138 142
0.232786 -0.123668 0.001233 255 255 254
-0.037045 0.249335 0.036650 255 255 254
0.015884 0.245165 0.017118 254 255 253
-0.087345 -0.227478 0.031307 102 149 236
0.317470 -0.089160 -0.002092 255 255 255
-0.106779 0.184032 0.027948 103 148 235
0.080923 0.214051 0.049902 254 253 254
-0.108552 0.038857 -0.063853 102 149 237
-0.106649 0.206700 -0.078159 103 149 236
0.201885 -0.147857 0.002938 255 254 255
0.165159 -0.166644 -0.008043 253 255 254
-0.086012 0.142631 0.014785 102 147 231
-0.086140 -0.266737 0.031092 103 148 232
-0.104205 -0.198018 -0.031925 103 150 234
0.045658 -0.222574 0.005448 255 255 255
0.283945 -0.105035 0.061044 253 253 254
0.342584 -0.090168 0.050904 253 255 253
-0.084547 0.151071 0.022646 125 134 147
0.266603 -0.107183 0.046179 254 254 255
0.286377 -0.098413 0.035620 253 254 254
-0.108865 0.172132 0.016738 102 149 236
-0.083694 -0.098102 0.036454 102 145 228
-0.104088 0.016580 0.014725 102 148 237
-0.082880 0.033307 -0.011730 104 149 234
-0.084928 0.183012 -0.056312 104 149 230
0.161491 0.170076 0.064146 255 254 254
-0.013976 0.253689 0.062418 255 255 254
0.130292 -0.168510 0.026851 255 253 253
0.059614 0.222031 0.000807 253 255 255
-0.089436 0.147072 0.036476 101 150 236
0.191777 0.169867 0.029524 255 255 255
0.026706 0.222969 0.034576 255 255 254
-0.103667 -0.044806 -0.058592 102 149 236
-0.049474 -0.266779 -0.021067 255 255 255
0.060285 -0.201393 0.035740 255 254 254
-0.108364 -0.203239 -0.059105 102 149 234
-0.048669 -0.266529 0.029726 254 255 255
-0.035089 0.261421 -0.006955 255 255 254
-0.030811 0.260712 0.061647 253 254 255
-0.083406 -0.084893 -0.077557 101 149 236
-0.020443 0.254979 0.051992 254 254 254
-0.046031 -0.263622 0.037332 254 255 254
-0.102991 -0.271566 -0.049575 101 148 233
0.186934 0.173307 0.054878 255 254 254
-0.075123 -0.282265 -0.025356 255 255 253
0.038215 0.219206 0.038903 254 254 255
-0.106174 -0.152662 -0.088426 101 149 236
-0.051913 0.256298 -0.033034 255 255 254
0.053399 0.213033 -0.014647 254 255 254
-0.105561 -0.143457 0.042533 102 150 236
-0.109888 -0.120590 -0.045785 103 149 235
0.068530 -0.210187 0.022920 254 253 254
-0.082952 -0.135178 -0.004979 103 149 236
0.099173 0.207667 0.038568 255 255 255
0.021175 -0.232155 0.036204 254 255 255
-0.102065 0.136011 -0.045866 104 149 236
0.027178 0.221115 0.058294 253 254 254
-0.085952 -0.067910 0.029310 101 144 223
-0.108355 -0.066423 -0.045606 101 149 236
-0.091229 0.125906 0.041837 103 150 236
-0.091848 0.116701 -0.046016 103 150 236
-0.087664 -0.096481 0.026949 104 149 234
0.092552 -0.199375 0.001641 255 255 255
-0.098347 -0.036744 -0.021933 134 139 146
0.345527 -0.089612 0.008889 254 254 253
0.055025 0.213619 -0.027851 255 255 253
-0.005430 0.249069 -0.036195 254 254 255
-0.090323 0.114354 0.010570 101 150 237
-0.104541 0.204877 -0.045919 103 151 236
-0.099710 -0.054954 -0.076015 104 143 217
-0.103241 -0.077189 -0.090039 101 148 232
0.014958 0.229488 0.005162 255 255 254
-0.085257 0.214997 0.019603 104 150 233
0.272289 -0.105904 0.021090 253 254 254
0.296126 0.118536 0.008364 254 255 253
-0.107090 -0.103802 -0.020941 101 149 236
0.274786 0.123102 0.012194 255 254 253
0.216572 0.158717 0.006798 254 255 254
0.205804 -0.135363 0.001985 255 255 255
-0.105148 -0.153493 -0.043825 102 150 237
-0.106901 -0.105396 -0.084910 103 149 235
-0.053039 -0.269300 -0.015020 254 255 254
-0.100212 0.072469 0.041571 102 148 237
-0.026974 0.252822 0.012649 255 255 255
0.038629 0.216656 0.058924 255 255 255
-0.104443 -0.257124 -0.043491 101 149 234
0.066757 -0.211141 0.013179 254 254 254
-0.085133 -0.049333 -0.071105 138 136 141
-0.045620 0.254552 -0.030243 255 255 255
-0.101362 0.036234 -0.044377 103 150 235
-0.086722 0.106463 -0.018667 103 149 236
-0.089766 0.135050 -0.042229 103 150 236
-0.075117 -0.263074 0.052991 253 253 254
0.104665 -0.186823 0.065555 254 254 253
0.094140 0.209487 0.013991 254 255 255
-0.084736 0.067398 0.024731 101 150 236
0.050315 -0.219178 0.029200 197 201 199
-0.057296 0.272619 0.057667 255 254 255
0.323287 0.117557 0.063689 255 254 254
-0.083376 -0.121280 -0.076959 102 149 235
-0.077785 -0.278214 0.047821 255 255 254
-0.104618 0.228477 -0.022993 103 150 236
-0.086678 -0.237016 0.020102 102 150 234
0.057527 -0.211105 0.062152 255 255 255
-0.101852 0.177021 -0.027041 102 149 235
-0.002602 -0.232929 0.004103 255 253 253
-0.105091 0.104564 0.007750 103 150 235
0.299504 -0.107748 0.005914 255 255 254
-0.091574 0.086805 0.038687 104 151 237
-0.086137 0.059100 0.023926 104 150 237
-0.080897 0.112210 -0.043953 103 149 234
0.211648 -0.145902 0.057304 254 255 255
-0.104046 0.145205 0.047518 104 150 236
0.047131 0.214906 0.064391 254 255 255
0.206889 -0.133611 0.053672 255 254 254
-0.084593 0.270882 0.045780 255 254 255
-0.091619 -0.279019 -0.015854 253 254 255
-0.091176 -0.039077 -0.027783 103 148 235
-0.090392 0.150713 0.014954 103 150 237
0.055982 0.211561 -0.017973 253 253 254
0.353929 -0.086265 0.054339 253 253 255
-0.105994 0.050123 -0.078967 104 150 236
0.084918 0.201040 0.001779 255 255 254
0.223618 -0.126216 0.023726 254 254 253
0.201900 0.151901 -0.004777 255 255 255
-0.084898 0.133204 0.040199 101 144 225
-0.080898 -0.237990 -0.016798 101 149 236
-0.104020 0.125232 0.006475 103 150 237
0.164825 0.183167 0.057502 255 255 255
-0.031708 0.258705 -0.038983 254 255 255
-0.105388 0.231044 -0.017643 104 141 211
-0.088376 -0.040285 0.028922 104 146 226
0.132516 0.181860 0.043726 255 254 254
0.049148 -0.206489 0.034756 253 254 253
0.138913 -0.164691 0.022200 254 255 253
-0.086244 0.108555 -0.064552 102 149 236
-0.084099 -0.144568 -0.062828 103 150 236
0.200911 0.155662 0.016610 255 254 255
0.034136 -0.217806 -0.026012 254 255 255
0.108775 0.196308 0.007490 255 255 254
-0.106040 0.213072 -0.038108 102 149 237
0.237480 0.141579 0.039587 254 254 254
-0.086772 0.081425 0.034896 103 151 236
-0.110891 0.266920 -0.047212 102 143 219
-0.107299 0.081469 -0.061033 101 143 219
-0.104523 0.092907 0.017429 103 149 237
0.072374 0.205233 0.050730 255 255 255
0.112909 0.190047 0.007442 255 255 255
0.132158 -0.180941 0.021088 253 253 255
0.087191 0.200728 0.042529 254 254 255
0.274172 0.130097 0.013667 254 254 253
-0.052107 -0.250579 -0.003138 255 254 255
-0.094610 -0.095288 -0.096802 102 149 237
-0.093485 -0.204162 0.000014 101 149 236
-0.091052 -0.212982 -0.051659 103 149 237
0.015937 -0.222488 0.041911 254 255 254
-0.102134 -0.230702 -0.079411 104 150 234
-0.000865 -0.243044 0.034775 255 255 254
0.069879 -0.197657 0.047903 255 255 255
-0.103884 -0.128865 -0.063476 102 151 237
-0.107217 0.042438 0.037191 102 143 217
0.224403 0.157170 0.007820 255 253 254
-0.007679 0.238049 -0.035573 254 254 254
0.072447 0.203149 -0.022159 253 253 253
-0.107400 0.179034 -0.040996 104 147 226
0.180485 0.162156 0.041711 253 253 254
-0.110232 0.136766 -0.065870 103 150 235
0.315727 -0.084658 -0.013689 255 255 253
-0.101229 0.243078 -0.051459 101 148 235
-0.105907 -0.110534 -0.078395 101 150 236
-0.104454 0.196817 -0.039726 104 150 237
-0.100984 0.221949 -0.083244 104 149 236
0.005631 -0.243184 0.001190 254 254 255
-0.085494 -0.274339 -0.018874 102 147 231
-0.091932 0.145833 -0.041265 101 149 235
-0.017029 0.245890 0.061727 255 254 255
0.054677 -0.203037 0.048589 255 255 255
0.090312 0.204852 0.062295 254 255 255
-0.084928 -0.256919 -0.072034 103 148 236
-0.099987 -0.073166 0.035591 104 146 229
-0.080608 -0.162691 -0.011444 101 150 236
0.364549 -0.083805 0.028275 253 255 254
-0.086714 -0.189069 -0.076477 139 141 146
-0.073593 0.279264 -0.016246 255 255 255
0.200226 -0.151200 0.031769 254 255 254
-0.106157 -0.065327 -0.054959 101 150 235
-0.088374 -0.236588 0.041901 103 145 222
-0.071345 -0.265024 0.062411 253 255 255
-0.005902 0.238553 0.023579 254 254 254
0.045439 -0.217048 -0.017706 207 207 208
-0.104352 -0.285526 -0.029450 102 149 236
-0.023382 0.245963 0.025380 255 254 254
-0.091444 0.168497 -0.011287 103 149 236
0.311981 0.112307 0.027082 254 254 254
-0.006130 -0.243471 0.044381 254 255 255
0.334779 0.110284 0.037603 255 255 255
-0.107129 -0.065701 -0.018548 102 150 235
-0.104820 -0.208719 -0.006990 102 148 229
-0.103727 -0.124636 0.044106 102 150 235
0.046688 -0.215209 -0.020802 255 255 255
-0.043655 -0.266273 -0.027795 254 255 254
0.043443 -0.223342 -0.015988 255 254 255
-0.058272 0.269703 0.046580 254 255 255
0.311851 -0.101237 0.030220 255 255 255
-0.046530 -0.252016 0.057163 255 254 255
0.073973 -0.208145 0.015417 254 254 254
-0.053241 -0.256224 0.045750 254 254 254
-0.103493 -0.076320 0.014150 102 148 236
0.139671 0.177784 -0.008730 255 255 254
-0.030062 -0.246415 -0.030703 252 253 254
-0.070342 0.263683 0.032787 253 254 255
0.121337 -0.185761 -0.009889 255 255 254
-0.085750 -0.267929 0.023702 103 150 236
-0.099910 0.229250 0.038240 102 149 236
0.348506 -0.087797 0.054235 253 254 254
0.145087 -0.165493 0.032991 254 255 254
-0.101353 -0.172735 0.055755 103 148 237
-0.089003 0.264515 0.042676 103 149 237
-0.058478 0.257311 0.020583 254 253 254
0.263018 0.140495 0.034337 255 253 254
-0.091735 -0.175163 -0.024964 102 140 211
-0.050610 -0.266351 0.028546 253 254 254
0.047512 0.222291 0.054075 254 254 254
-0.104319 0.082629 -0.024319 102 150 235
-0.024603 0.253010 -0.038675 254 254 254
0.026938 -0.232855 0.021732 255 255 253
-0.100890 0.165293 -0.026837 102 150 234
0.020362 -0.236636 -0.001017 253 253 255
0.229131 0.143080 0.057658 253 254 254
0.150678 -0.162970 0.063780 255 255 255
-0.105127 -0.070226 -0.045402 102 142 216
-0.083959 0.230773 0.055168 135 135 143
0.286690 0.121773 0.027957 255 255 255
-0.100650 0.031369 -0.065235 136 139 143
0.166966 -0.151696 -0.006558 253 253 254
-0.103834 -0.109168 0.005549 103 149 233
0.336792 0.114242 0.059488 255 254 255
0.048551 -0.221247 0.030217 255 254 255
-0.087519 0.032863 0.035462 101 149 237
-0.085653 0.165049 -0.015229 101 150 236
-0.107269 0.118331 -0.082104 133 135 140
0.277921 0.135523 0.045325 254 255 255
0.309086 -0.088524 0.037222 253 255 255
-0.073901 -0.262359 -0.002585 254 255 255
-0.088050 0.214576 -0.019113 102 149 234
0.202236 0.153265 0.051880 255 254 255
-0.050258 -0.252314 0.002507 253 255 254
0.046455 -0.225718 -0.026795 254 255 254
-0.021893 -0.242645 0.010115 254 255 255
-0.068542 -0.273597 0.050459 254 255 255
0.090443 -0.186320 0.065968 254 255 255
-0.091505 -0.167982 -0.068660 104 150 237
0.288196 -0.111862 0.061880 255 255 254
0.226488 0.158347 -0.003731 254 255 255
0.160055 -0.157006 -0.011875 254 255 255
-0.101070 0.027502 -0.003955 102 149 233
0.141238 0.177296 0.041773 255 254 254
-0.000372 0.234736 0.013916 255 255 255
0.238575 -0.118124 0.057209 253 254 255
-0.083030 -0.116334 -0.026791 101 149 234
-0.040865 0.261198 -0.035547 255 255 255
-0.100752 0.277831 0.009430 103 149 236
0.253101 0.146014 0.020788 255 253 254
-0.081689 0.052295 -0.033501 103 149 235
0.279078 0.127701 0.012806 255 255 253
0.131619 -0.181334 0.025161 255 254 253
0.129768 -0.172769 0.066831 255 255 254
0.056503 -0.203605 0.008379 254 254 255
0.216344 0.158502 0.062439 255 255 255
0.076652 -0.195113 -0.014994 254 255 254
-0.084276 -0.051696 -0.019390 101 149 236
0.165143 0.180459 0.015091 253 253 254
0.193077 0.169267 0.036883 255 254 255
0.312362 -0.101628 0.039985 255 254 253
-0.084573 0.161729 -0.035125 104 151 237
-0.104550 -0.139858 -0.031333 104 151 236
0.274633 0.136218 0.027933 253 254 253
-0.089467 -0.279834 0.006476 101 147 228
0.299240 0.117516 0.038527 255 255 255
-0.087790 -0.150884 0.034538 102 150 236
0.025138 -0.230746 0.056179 254 254 254
0.012289 0.229872 0.041050 253 255 254
-0.094901 -0.281581 -0.037132 102 148 233
-0.046048 0.255826 0.064219 254 255 254
-0.084743 0.026826 0.031738 136 136 141
-0.102608 0.212752 0.002711 103 150 235
-0.087911 0.274357 -0.039814 254 254 255
-0.102977 -0.277631 -0.005350 103 150 233
-0.041406 0.252073 -0.023750 255 255 255
-0.081400 -0.265145 0.039244 255 253 254
0.243189 0.150563 0.020513 254 254 254
-0.107035 -0.155217 -0.058555 103 151 236
-0.103123 0.246824 -0.047725 139 144 149
-0.085198 0.069998 -0.071119 102 150 236
-0.097882 -0.252962 0.050645 102 151 237
-0.051677 0.257332 -0.027742 254 255 254
-0.102080 -0.081276 -0.069690 100 140 213
-0.105279 0.167685 0.027971 102 150 237
-0.090347 0.073441 0.041724 103 150 237
-0.078040 -0.272865 0.002677 254 255 253
-0.059172 0.270510 0.019037 255 255 253
-0.104357 -0.281185 -0.002711 103 150 237
-0.046122 0.267240 0.054896 254 255 254
0.175367 -0.147718 -0.002926 254 255 255
-0.083450 0.230220 -0.043571 102 150 236
0.185084 -0.143055 -0.005897 253 254 253
-0.087700 -0.078747 0.039016 128 136 141
-0.103373 0.068596 -0.092715 102 146 225
0.270793 -0.105559 0.042958 255 254 255
-0.075669 0.276779 0.062642 255 254 253
0.333485 -0.083082 0.027430 255 255 255
-0.088615 0.226825 0.056760 103 147 232
0.236148 -0.133109 0.061867 254 254 254
-0.085172 0.060736 -0.074913 101 148 237
-0.090684 0.256249 -0.042026 102 148 235
-0.086908 -0.243101 0.028625 104 148 230
0.051152 0.215318 -0.014859 254 253 255
-0.106483 -0.125460 0.027759 101 150 237
-0.086534 0.111364 -0.035568 104 149 236
0.250076 -0.126484 0.031175 254 255 255
0.071467 -0.199642 0.029205 254 255 253
0.032173 0.234779 0.005861 255 255 254
0.127753 -0.181215 0.068447 253 255 254
-0.106437 -0.113706 -0.090133 101 149 235
0.241380 0.138008 0.055726 254 254 253
-0.100162 -0.223761 -0.020745 104 149 237
-0.087313 -0.050712 0.003863 101 148 236
-0.103819 -0.147634 -0.008965 102 150 236
0.112850 -0.192653 0.041490 254 253 254
-0.103736 0.133184 0.024780 102 149 237
0.100947 -0.196272 -0.016743 253 254 255
0.201186 -0.133263 0.058923 254 255 255
-0.089901 0.204590 0.034098 101 149 236
-0.080042 -0.145393 -0.000439 152 157 162
0.308887 -0.092894 -0.004778 255 255 254
-0.102089 0.134605 -0.059879 102 149 237
0.212086 -0.144406 0.014384 253 254 255
-0.086205 -0.270764 0.047073 255 254 254
-0.105307 0.167084 -0.081832 139 140 144
-0.091443 -0.197316 0.055915 103 148 236
0.205491 -0.147853 0.022253 254 254 254
0.246635 0.136773 0.043788 254 255 254
-0.109757 0.088300 -0.027251 103 150 237
-0.101729 -0.190007 -0.020061 102 149 236
-0.082039 0.238942 0.028159 102 149 236
0.025316 -0.232328 0.040939 254 254 254
-0.086335 0.269774 -0.052722 103 148 233
-0.101233 0.131798 -0.036814 104 150 235
-0.083231 0.150267 -0.038890 102 150 237
-0.087259 0.101251 -0.021650 101 147 231
-0.068199 -0.266673 0.053229 255 255 255
-0.104370 0.264974 0.004136 104 142 216
-0.101384 0.124574 0.043709 102 147 230
0.281781 -0.112206 0.045004 253 255 254
-0.091223 0.182373 0.005231 101 149 233
-0.029043 0.252130 -0.040317 254 254 255
-0.081313 -0.269312 -0.000674 255 255 253
-0.085235 -0.139706 -0.095651 101 149 234
-0.103541 -0.067113 -0.084693 103 149 236
0.256260 -0.122006 -0.003510 254 254 254
-0.087155 -0.181038 0.044804 101 148 236
0.105168 -0.193563 0.002667 255 255 255
-0.105199 0.148412 -0.018392 101 150 236
-0.086340 -0.123983 0.045135 101 150 236
-0.084880 0.165142 -0.085391 104 150 236
-0.087799 -0.151485 -0.024039 101 149 237
-0.052137 0.256788 0.029880 254 255 254
0.220792 0.147554 -0.005605 254 253 254
0.112633 0.190540 0.029602 255 255 255
-0.028600 0.251914 -0.037102 255 254 254
0.082741 -0.194417 0.063579 254 254 253
-0.089836 -0.186119 -0.015460 142 147 153
-0.091496 -0.098340 0.013155 101 148 236
-0.025889 0.244442 0.032879 255 255 253
0.133871 0.180584 0.023578 255 254 255
0.143742 -0.175003 0.039517 253 255 253
-0.085237 -0.193818 -0.003398 102 150 237
-0.094712 0.156060 -0.087987 101 141 217
-0.091144 -0.216472 -0.081509 104 150 236
-0.086959 0.240461 -0.049139 102 148 236
0.051786 -0.206574 0.000515 254 255 253
0.036056 -0.213443 0.061104 255 254 254
0.002775 -0.244827 -0.028148 253 254 255
0.031292 -0.213121 0.048277 253 254 254
-0.086087 0.237860 0.022177 102 150 236
-0.104577 -0.246882 -0.029046 102 150 234
-0.105847 0.066196 -0.085084 101 144 222
-0.103604 0.230860 -0.027707 102 149 237
-0.093041 0.237834 -0.078011 104 148 234
0.256402 -0.112412 0.027725 255 254 254
-0.110448 0.219541 -0.028288 102 138 204
-0.075638 0.274153 0.020316 254 253 255
0.271893 -0.105046 0.030349 255 253 255
-0.091771 0.140747 -0.011901 103 150 236
-0.049488 -0.265031 0.034459 255 254 255
-0.107341 0.071876 -0.000115 104 146 224
0.036622 0.219739 0.008021 254 254 255
-0.088580 0.089344 0.028524 104 150 234
0.062698 -0.215069 -0.015119 254 254 254
-0.106473 0.177344 -0.072291 125 134 142
-0.065044 -0.261864 0.047211 255 254 253
-0.104520 -0.127837 0.045984 104 143 215
-0.087994 -0.252734 0.030476 103 146 223
-0.103584 -0.233641 -0.017810 102 150 236
-0.086681 -0.264072 0.041230 102 151 237
0.037113 0.215479 0.027760 255 255 255
0.118778 -0.185338 0.031969 254 254 254
-0.085773 0.268363 -0.010514 254 253 254
-0.095061 0.112282 -0.091759 101 149 236
0.042429 -0.210839 0.017591 255 254 254
-0.114197 0.062874 0.022193 104 151 236
-0.083029 0.193947 -0.064816 103 148 237
-0.092927 0.115168 0.007158 102 146 224
-0.101917 -0.235698 0.029906 103 150 237
-0.088791 -0.153677 -0.000049 103 150 236
0.077331 0.201158 0.058020 255 255 254
-0.103798 -0.216272 -0.068892 103 150 233
-0.100562 -0.242274 0.057664 103 149 236
-0.089495 0.160943 0.018735 103 151 237
-0.101244 0.085679 -0.095522 103 149 235
-0.008668 -0.237096 0.052068 255 255 254
-0.106351 -0.068920 -0.019575 102 150 236
-0.096818 0.072200 -0.091908 101 150 237
-0.059476 -0.273166 0.021231 254 255 255
-0.101857 -0.063722 -0.047486 103 147 230
0.266635 -0.107266 0.054394 255 255 255
-0.103562 -0.210871 0.013627 101 150 235
-0.109030 0.148246 -0.073686 102 149 235
-0.065668 -0.272325 0.045952 254 255 254
0.270345 -0.105218 0.062052 254 253 254
-0.082353 0.132770 0.024635 103 151 237
0.242576 -0.118707 0.029452 254 254 254
0.198904 -0.141355 0.063476 254 255 254
-0.026179 -0.256245 -0.002049 255 254 255
-0.084988 0.193126 -0.027717 131 138 142
0.049844 -0.207159 0.020566 254 254 254
0.323636 0.109038 0.030606 255 255 255
-0.090434 0.180235 -0.068139 102 148 233
-0.102844 0.090555 0.041226 103 148 230
0.091489 0.210423 0.041623 255 254 255
-0.105849 -0.223129 -0.076626 102 149 237
-0.093714 -0.282440 -0.003687 104 150 234
-0.097234 0.176386 -0.082887 103 149 237
-0.100678 -0.104484 -0.094826 105 151 235
0.023496 -0.224552 0.061788 253 254 255
0.213530 -0.144159 0.043062 254 254 254
-0.085351 0.176180 -0.049547 102 149 232
-0.040706 0.249743 -0.005313 255 255 255
-0.089142 0.173588 0.031949 103 150 237
-0.092568 -0.043578 -0.036857 102 149 236
0.086132 0.212569 -0.004662 254 254 254
0.047191 -0.205719 0.061613 255 253 254
-0.103084 -0.276553 -0.049922 103 150 234
-0.104036 0.271156 -0.049343 137 137 144
-0.085912 0.156077 -0.016812 102 148 237
0.336050 -0.093300 0.045513 254 255 253
-0.039978 -0.251189 0.009090 255 254 255
0.057565 -0.203396 0.025872 253 254 254
-0.100891 0.125360 0.044136 103 150 237
-0.086617 0.015539 0.012079 131 136 141
0.220232 -0.140612 0.034003 255 254 254
0.205333 0.151669 0.032985 255 253 254
-0.106689 -0.220207 -0.031157 102 145 223
-0.088155 -0.163656 0.006646 102 151 237
-0.013541 0.253317 0.007581 254 255 255
-0.088133 -0.270923 -0.040373 101 149 236
-0.041462 0.249643 0.065145 255 255 255
-0.080888 0.227223 -0.002715 102 147 225
-0.088334 0.227822 0.048571 103 150 237
-0.085255 0.227925 0.012715 104 151 237
-0.092335 0.082717 -0.067944 101 148 234
0.128538 -0.169957 0.050987 254 255 255
