ply
format ascii 1.0
element vertex 1181
property float x
property float y
property float z
property uchar red
property uchar green
property uchar blue
end_header
0.040133 0.215453 -0.016921 254 255 255
-0.106438 -0.134427 0.039288 141 134 142
0.190383 -0.151904 0.059060 255 255 255
-0.104585 -0.116423 -0.085764 103 151 238
0.017465 0.225781 0.012480 254 254 255
-0.111027 -0.216831 -0.054961 102 150 237
-0.110744 0.269658 0.017209 102 150 236
-0.109500 0.033027 -0.020574 133 139 145
-0.087873 0.131280 0.043743 102 150 238
-0.033371 0.260608 0.059216 253 255 253
-0.091506 -0.265770 -0.008884 101 149 235
0.308155 0.109719 0.043661 255 255 254
-0.088988 0.115434 -0.007406 102 149 236
-0.102527 0.197497 0.051711 101 149 238
0.108889 -0.188591 0.016631 254 255 255
0.164503 0.177488 0.015548 255 255 255
0.077444 0.201710 -0.009539 254 254 254
-0.110113 -0.213224 -0.075746 102 149 236
-0.105769 -0.190095 0.045839 102 150 237
-0.091385 -0.277803 0.003505 101 149 235
-0.073845 0.276174 -0.024998 255 254 254
0.190691 -0.138979 0.009224 254 255 255
-0.104785 0.098778 -0.027140 102 150 237
-0.042801 0.251144 0.022274 254 255 255
-0.011886 0.250418 0.022563 255 254 255
-0.050472 0.254784 -0.031582 254 255 254
0.171346 0.174577 -0.000505 255 254 255
-0.092940 -0.180884 0.052338 102 149 237
0.263994 -0.117712 0.031791 254 255 254
0.001905 -0.242352 -0.008005 254 254 254
-0.089572 -0.161522 0.051230 101 149 236
-0.012307 -0.248716 0.009095 255 255 254
-0.033994 -0.247933 -0.010929 255 255 254
-0.107832 0.173416 -0.019464 102 149 236
0.081284 -0.195381 -0.016506 254 255 255
-0.106363 -0.249857 0.021611 101 149 235
-0.109029 -0.166244 0.028894 102 149 237
-0.106481 0.084585 -0.029878 103 151 238
-0.103457 0.141318 -0.089381 104 151 237
0.110397 0.189063 0.021120 255 255 255
-0.096228 0.017014 -0.036098 103 149 236
-0.090656 0.166110 0.048533 103 151 238
0.071373 -0.207648 0.008539 255 254 253
0.139383 -0.172876 0.028300 255 255 254
0.126540 0.182280 0.022828 254 255 255
0.236578 0.137608 0.022748 254 254 255
0.170817 -0.146631 -0.003713 254 253 254
-0.106701 -0.257140 -0.048406 101 150 237
-0.102817 -0.273686 -0.058577 103 150 238
-0.065076 0.260937 0.043018 255 255 255
0.017826 0.225686 0.046857 255 254 254
-0.107481 0.199763 -0.071217 131 135 143
-0.007864 -0.235587 0.060628 254 254 255
-0.072518 0.276090 0.004380 254 253 255
-0.081496 -0.267219 -0.033966 253 255 254
-0.039403 -0.263380 -0.018153 254 255 255
0.154936 0.180890 0.063918 255 255 255
-0.086534 -0.211243 -0.010174 101 149 236
0.120634 0.183799 -0.014399 255 255 254
-0.107840 -0.101478 -0.054258 104 151 237
0.371740 0.085166 0.054529 255 254 255
-0.051925 0.254182 0.032773 253 255 255
-0.095474 0.049966 0.036733 102 149 238
-0.093108 -0.087248 -0.017891 103 151 238
0.150981 -0.169344 0.009518 254 254 254
0.274038 -0.104224 0.000960 255 254 255
0.156295 0.168499 0.034154 255 255 254
0.180700 -0.155915 0.019379 253 254 254
-0.105798 0.264517 0.026837 103 150 238
0.176806 -0.157850 0.002546 255 255 255
-0.086032 -0.075946 -0.087113 102 150 236
-0.009445 0.239153 0.016305 255 255 255
0.014336 -0.222780 0.043383 255 255 254
-0.110131 0.159159 0.005715 102 151 238
0.314195 0.106021 0.044020 255 255 255
-0.105940 -0.116504 0.022430 104 151 237
-0.106431 0.125252 -0.031545 103 149 236
-0.107563 -0.177851 0.036121 102 149 237
-0.089877 0.236540 0.012370 101 149 237
-0.104913 0.109176 0.010510 102 148 234
0.049803 0.223553 0.027193 254 255 255
0.345982 0.095468 0.051447 255 254 255
0.168064 -0.161364 0.007958 254 254 255
-0.111670 -0.211995 -0.051130 102 150 237
0.328671 0.100389 0.039652 255 255 255
0.099758 0.204109 0.005846 255 255 254
-0.091137 0.063881 -0.081637 100 148 235
-0.105997 -0.237708 -0.015312 102 149 237
0.326962 0.112799 0.004434 254 255 255
-0.087911 -0.141921 0.016706 102 150 238
0.240742 -0.127626 0.045623 255 255 254
0.255105 0.141607 0.024568 255 255 254
-0.104597 -0.145210 -0.079086 104 149 237
-0.083586 0.276243 -0.013498 255 255 255
-0.092348 0.053165 -0.090245 104 149 237
0.250139 -0.111034 0.020629 255 255 255
-0.105111 -0.228804 -0.034176 103 151 237
-0.090381 -0.211165 -0.003133 103 151 238
0.009767 -0.237604 0.017848 255 255 254
0.336392 0.099017 0.040700 255 255 255
-0.102536 -0.136034 0.043044 139 143 149
0.214635 0.146069 0.003648 253 254 254
0.153614 -0.164885 -0.013748 253 254 253
-0.107520 0.044808 -0.071814 103 150 238
0.076079 -0.194458 -0.008762 255 254 255
0.205511 0.161357 0.055740 254 255 254
0.264947 -0.103601 0.051543 255 253 255
0.348971 0.104623 0.038986 253 254 255
-0.087009 -0.054832 -0.074585 104 151 237
0.060289 0.221179 -0.004248 255 255 254
-0.063164 0.275328 -0.019807 255 254 254
-0.092921 0.255735 -0.000350 107 140 196
0.322419 0.109465 0.014052 255 255 254
-0.107853 0.078305 -0.002317 102 150 237
0.100056 -0.182439 -0.003619 254 255 255
-0.040679 -0.260515 0.053260 255 254 253
0.053073 -0.217741 -0.003605 255 255 255
0.061696 -0.212881 0.029623 255 254 253
0.041415 0.227046 0.051328 255 255 255
0.162105 0.179090 0.034441 254 255 255
-0.106274 -0.193305 -0.040247 102 151 238
-0.104762 0.176151 0.010705 102 149 236
-0.037709 0.250180 0.014769 255 255 254
-0.002034 -0.230439 0.044843 254 255 255
-0.107103 -0.169853 0.029527 101 149 238
0.113462 -0.174552 0.063320 255 255 255
0.360313 0.104630 0.052226 254 254 255
0.023431 -0.218767 0.005541 255 255 254
-0.112255 0.185115 -0.052570 102 149 236
-0.105299 0.240610 0.021589 102 149 237
0.058092 0.210365 0.019746 255 255 254
0.163776 -0.163524 0.000916 255 254 255
-0.092120 -0.094568 -0.001648 102 148 238
0.305963 0.115844 0.020666 255 253 255
0.260972 0.138530 0.013841 255 255 255
-0.108187 0.116976 -0.079879 102 150 237
-0.097602 -0.281996 0.011217 101 149 235
-0.105404 -0.232155 -0.064828 103 150 236
0.067135 0.205966 -0.016109 254 255 255
-0.096495 -0.219186 0.033867 101 149 237
0.067659 -0.193809 0.018804 255 255 255
-0.062481 0.273877 0.056454 254 254 254
0.349510 -0.072558 0.059988 255 255 255
0.046533 0.213970 0.029607 254 254 255
0.137301 -0.168732 0.065356 255 253 255
-0.089210 0.262073 -0.076709 102 148 236
-0.031594 -0.245421 -0.014182 254 255 254
-0.101094 -0.052657 -0.074516 101 149 238
0.095447 -0.193664 0.052916 255 254 255
-0.107323 0.262266 -0.040213 102 149 237
-0.088274 0.140256 0.044555 103 147 229
-0.086931 0.059397 -0.087379 102 149 237
-0.086595 0.020847 0.029770 102 149 235
-0.086975 0.127380 -0.062337 100 148 237
-0.011560 -0.235731 -0.000058 255 254 254
-0.106886 0.207694 -0.052966 101 149 237
-0.090127 -0.092397 -0.040601 133 137 142
-0.102713 -0.038539 -0.043867 102 150 237
0.202007 -0.133128 0.025029 254 255 254
0.232813 0.142481 0.010111 253 254 255
-0.093640 0.075756 0.039273 101 148 236
-0.098442 -0.261281 0.046689 102 149 234
-0.104209 -0.068535 -0.052015 102 150 236
-0.089523 0.270723 -0.056257 100 149 234
0.110564 0.188821 -0.008345 254 254 254
-0.100291 -0.058754 -0.082030 102 149 238
-0.103741 0.232754 0.024082 102 150 236
-0.110112 0.020448 0.003353 102 150 236
-0.088932 0.279481 0.041042 253 253 254
-0.094103 0.072178 -0.026271 101 149 236
0.172169 -0.160101 0.059109 254 255 255
-0.037293 -0.262426 0.026390 255 253 255
-0.089617 -0.089554 -0.085787 130 137 143
-0.061675 0.259254 0.016887 255 254 255
-0.104022 0.260249 -0.017579 101 149 236
-0.093764 -0.208831 0.034472 101 150 234
0.212344 -0.128082 0.050884 254 255 255
0.137011 -0.173911 0.028567 255 255 255
-0.094155 -0.126016 0.032155 103 148 235
0.306794 0.121496 0.021895 255 255 255
-0.009180 -0.248361 -0.003609 255 255 255
0.254507 -0.118222 0.032124 253 254 254
0.042264 -0.213639 -0.020284 254 255 255
-0.061869 0.270920 -0.027077 255 254 254
0.126952 0.179609 -0.004498 253 255 254
0.276199 0.121254 -0.001226 254 254 254
0.062361 0.205115 0.059240 254 255 255
-0.110632 -0.165112 -0.074075 102 150 236
-0.085895 0.143034 0.025220 101 150 237
-0.096950 -0.158679 0.049687 102 150 237
-0.108374 0.232533 -0.059278 101 148 236
-0.089819 -0.107495 -0.045579 100 147 231
0.263579 -0.105311 0.039191 255 255 254
-0.087923 0.119163 -0.092208 102 148 237
0.090709 0.208101 0.002545 254 255 255
-0.090599 -0.237810 0.051186 101 151 237
-0.053012 -0.266703 0.027242 255 255 254
-0.086553 0.113017 -0.013142 102 150 236
0.048631 -0.206791 0.011473 255 254 255
0.273913 0.128401 -0.000646 254 255 255
0.293600 -0.097739 0.059877 254 254 254
0.228055 -0.131704 0.063034 255 254 255
-0.108137 -0.080654 -0.076853 102 149 237
-0.113316 0.093428 -0.070142 146 149 154
0.272539 0.122655 0.020726 253 255 254
-0.110064 0.260078 0.017464 103 151 238
0.117573 -0.180572 0.064034 205 208 210
-0.087993 -0.187619 -0.012079 140 137 146
-0.103294 0.208445 -0.031294 101 149 237
0.327308 -0.076113 0.023668 255 255 255
-0.086560 0.220505 -0.054167 103 150 235
0.156915 -0.165738 0.041437 255 255 255
0.198128 -0.135136 0.019841 255 255 254
-0.091625 0.164098 0.048364 101 150 238
-0.106147 0.075537 -0.028886 101 148 235
-0.106492 0.064440 -0.019204 103 149 236
0.181461 -0.141564 0.031112 254 254 254
-0.106952 -0.241683 0.001061 102 150 236
0.167833 -0.161338 0.050880 255 255 255
-0.091070 -0.186618 -0.057724 101 151 238
-0.110345 0.156719 -0.068852 103 149 237
-0.089802 0.204764 0.053200 102 150 238
-0.090899 -0.056721 -0.034758 102 149 237
-0.095842 -0.200894 0.008726 131 139 148
0.138416 0.187890 -0.002403 254 254 255
0.029449 0.221066 0.034443 255 254 255
-0.104970 0.047391 0.026174 101 150 236
0.308410 0.111740 0.065538 255 255 255
-0.057383 -0.267411 0.026501 255 255 255
0.165019 0.164471 0.001994 254 255 255
0.334994 -0.086908 0.020851 255 255 255
-0.107303 -0.223346 -0.075131 101 150 238
-0.071029 0.275555 -0.010868 255 255 255
0.224469 0.149205 0.062570 255 254 255
0.079501 -0.203748 -0.000111 254 255 255
-0.099117 0.264568 0.046487 104 149 238
-0.107983 0.036010 -0.001519 101 150 238
0.135280 -0.174322 0.037732 255 255 255
-0.106627 -0.273455 -0.010332 102 142 219
0.223996 0.154019 0.056498 253 255 254
0.029857 0.233410 0.055505 255 254 254
-0.103543 0.276971 -0.062842 103 148 232
-0.100976 -0.270861 0.040173 102 149 237
-0.047436 -0.266540 0.002279 255 255 254
0.187533 0.156544 0.029837 255 253 254
-0.109032 -0.256661 -0.071188 102 149 237
-0.044409 -0.265175 -0.023644 255 255 254
-0.036872 0.250571 -0.019771 255 255 253
0.199833 0.163162 0.029175 255 254 254
-0.106800 -0.243435 -0.044729 103 149 237
0.087767 0.197611 0.028877 255 255 255
-0.090014 -0.084740 0.007669 101 148 233
0.124361 0.182410 0.022890 254 254 255
0.316618 0.106131 0.052469 255 254 255
-0.090672 0.170832 -0.080299 101 149 235
-0.080216 0.027096 0.023408 253 255 255
0.281039 0.119339 0.028104 254 254 254
-0.088672 -0.268490 0.038060 255 255 254
-0.074963 -0.274550 0.043038 255 255 254
0.270290 -0.114508 0.054169 254 255 254
-0.103541 0.038684 -0.075969 101 147 231
-0.105901 0.269039 0.002032 104 149 236
-0.108856 0.087789 0.036342 104 151 238
-0.104153 0.129065 0.015540 103 149 235
0.370690 0.098341 0.048515 255 255 255
0.159793 -0.153448 0.002984 255 255 254
0.035251 0.219943 0.013639 255 255 255
-0.094563 0.081760 -0.076837 100 150 238
0.139353 0.186943 -0.014282 255 254 255
0.178833 -0.142004 0.007822 255 254 255
-0.019838 0.248098 -0.034492 253 254 255
-0.095736 0.112705 -0.095006 101 149 238
0.304145 -0.085498 0.052368 254 255 255
-0.108980 -0.138403 -0.038201 101 149 236
-0.084442 0.265566 -0.068368 101 149 237
-0.109268 -0.222241 -0.028626 104 151 236
-0.105042 -0.150944 0.014190 101 149 238
0.234798 0.148094 0.055485 254 254 255
-0.105402 0.020548 0.030026 102 149 236
-0.097293 -0.285335 -0.000658 103 148 236
0.211930 0.160534 0.006054 253 255 255
-0.106295 -0.253778 -0.051505 101 150 237
0.015752 -0.237595 -0.026311 254 255 254
0.177165 -0.157266 0.015376 255 255 253
0.162060 0.160717 -0.010441 255 255 255
-0.090447 0.166488 0.006502 103 150 237
-0.088390 0.144221 -0.071259 102 149 237
-0.068761 0.272881 -0.017128 254 255 255
-0.095009 -0.194663 -0.057717 104 151 238
-0.094044 0.118101 0.015618 102 150 238
0.247869 -0.118453 0.031588 254 254 255
0.264907 0.123406 0.060999 255 255 255
-0.029531 0.245127 0.027933 255 255 254
0.318172 0.113254 0.046665 255 255 254
-0.108417 0.039210 0.031026 102 148 233
-0.089554 0.228787 -0.060649 101 149 236
-0.107776 0.275436 -0.053918 101 148 238
0.006686 -0.240407 -0.008089 254 255 255
0.191803 0.154243 0.048408 254 254 255
-0.109072 -0.245541 0.006614 104 142 212
-0.085891 -0.040330 -0.017631 103 143 218
-0.106333 0.167245 0.047002 104 150 235
-0.092199 -0.200635 0.041893 102 149 237
0.080710 -0.202921 0.002818 255 255 255
0.264542 0.137679 0.024747 253 254 254
-0.076425 -0.278019 -0.006700 255 255 254
0.020262 -0.233688 -0.012344 255 253 254
0.020669 -0.219637 0.055753 255 255 255
0.016976 0.239966 0.041573 255 254 255
0.178252 -0.144914 0.026184 255 254 255
0.330473 -0.087823 0.016226 255 255 254
0.042204 0.216321 0.038700 254 253 254
0.320993 -0.080006 0.029157 254 255 255
-0.090163 -0.114951 -0.077954 101 150 236
0.296909 0.124296 0.067583 254 255 255
0.128032 -0.178031 0.032600 254 255 254
0.214453 0.158968 0.059958 254 254 254
-0.095298 -0.254187 0.011260 102 149 235
-0.089078 0.191461 0.007321 129 134 140
0.244916 0.145046 0.046786 253 254 255
-0.089664 0.229814 0.002494 103 149 236
-0.015404 0.253597 0.037653 255 254 254
0.096196 0.191701 0.062170 254 254 255
0.191598 -0.144782 0.061957 254 255 255
-0.091532 -0.057205 -0.083809 103 150 237
0.102459 -0.179587 -0.008702 255 254 255
-0.092550 -0.271979 0.020872 102 149 238
0.232790 0.137958 0.049936 254 255 255
-0.093979 -0.071389 -0.000795 101 149 237
-0.089213 0.027617 0.002216 101 149 237
-0.105250 -0.104126 -0.008947 100 150 234
-0.105840 0.123163 0.017161 101 149 235
-0.017460 0.239926 0.053335 255 255 255
0.226402 0.152276 0.035599 254 255 254
0.138308 0.189109 0.053414 254 255 255
-0.089701 0.050897 0.034684 103 151 236
-0.091298 0.256832 0.015164 103 150 237
-0.095155 0.277664 -0.057980 101 148 238
-0.088772 -0.180951 -0.058473 101 149 237
0.024967 0.224193 0.007149 255 255 255
-0.099500 -0.169550 0.051100 103 149 238
-0.109511 0.128962 -0.022680 102 150 237
0.012088 0.229509 0.024317 255 254 255
-0.015982 0.238093 0.022090 255 255 254
-0.091360 0.055579 -0.084752 103 151 238
-0.109288 -0.189123 -0.084798 102 145 224
0.153004 0.182135 0.000559 254 254 254
-0.091576 0.174559 -0.028107 100 150 238
0.211078 -0.140944 0.011723 253 254 255
0.343981 0.106015 0.024207 255 254 255
-0.088413 0.128025 -0.060967 101 149 237
0.033238 -0.215400 -0.003307 255 255 255
-0.039428 -0.261002 -0.006687 255 255 255
-0.029217 -0.245094 -0.008747 255 254 254
0.255982 0.139348 0.061056 255 255 255
0.007748 -0.240780 -0.021836 254 255 254
-0.110007 -0.137214 0.019952 101 149 238
0.145689 0.184593 0.041307 255 254 254
-0.097863 -0.246380 -0.076577 101 149 237
-0.107667 -0.058918 -0.071824 101 149 236
-0.105339 0.201435 -0.059101 104 148 231
-0.106653 -0.129657 -0.049028 103 150 236
-0.111322 -0.140349 0.045526 103 149 238
0.051936 -0.215920 0.032575 255 255 254
-0.089752 0.110164 0.041525 101 149 237
0.099047 0.206600 0.057124 254 254 255
-0.104969 -0.182752 -0.033844 102 149 235
-0.091349 -0.114032 0.022115 102 142 217
0.109555 0.189049 -0.024281 254 254 254
0.148777 -0.158806 0.005556 255 255 254
0.144873 -0.172082 0.020922 255 255 255
-0.018539 0.252997 0.029695 255 254 255
-0.104872 -0.108503 -0.087449 101 149 237
0.010841 0.230644 0.009210 254 255 255
0.204607 -0.132969 0.025795 253 254 255
-0.056861 0.257734 0.045516 255 254 255
-0.018423 0.248234 -0.033876 255 254 253
0.123596 0.195734 0.055389 255 255 254
-0.076426 0.279322 -0.003792 255 255 255
-0.106731 -0.134891 -0.098090 101 150 237
-0.106851 -0.043885 -0.044186 102 149 238
0.086837 -0.186733 0.030621 254 255 253
-0.108936 0.245258 0.042589 102 149 238
-0.013525 -0.237342 -0.015161 255 255 255
-0.092070 -0.113884 -0.063943 103 149 236
-0.109179 0.171744 -0.076486 101 149 236
-0.095927 -0.208156 0.033451 101 150 237
0.192580 0.166331 0.044181 255 255 254
-0.107362 -0.227112 0.050239 101 148 235
0.217527 -0.129159 -0.001818 253 254 254
-0.108514 0.116889 -0.071010 103 150 236
-0.109328 0.207735 0.002970 102 149 238
-0.104705 -0.131629 -0.048192 101 150 237
0.207564 0.160132 0.034800 253 254 255
-0.088522 0.252208 -0.031467 103 149 236
-0.090797 0.244682 0.020763 103 150 237
-0.105544 0.263674 -0.024977 101 148 236
-0.101032 -0.278156 -0.012682 102 149 238
0.073615 0.202177 0.027138 253 255 255
0.243333 -0.113760 0.048057 254 255 254
0.037254 0.229778 0.053109 255 255 255
-0.106092 -0.160736 0.050365 101 148 238
-0.106582 -0.263780 -0.013508 103 150 237
0.168310 0.177799 0.052822 254 255 255
0.084637 -0.188649 0.031767 255 254 254
0.180328 -0.144406 0.014961 255 255 255
-0.105366 -0.263419 -0.006429 101 149 237
-0.115015 0.051206 -0.036505 103 149 237
-0.089417 0.279520 -0.013801 132 138 146
-0.104650 -0.056299 -0.028596 103 149 238
-0.091979 0.245360 0.053280 100 146 230
0.128587 0.191911 0.000314 254 254 255
0.195168 0.164888 0.007199 255 254 255
0.031831 -0.214111 -0.017343 255 254 254
0.003151 0.244911 0.021425 255 255 253
-0.054742 0.255344 0.020550 254 255 254
-0.106361 0.091206 0.021901 102 148 236
0.228547 -0.134126 0.018477 254 255 255
-0.108103 0.020243 0.031262 103 149 236
0.361563 0.100756 0.044111 255 254 255
-0.104296 -0.076624 -0.024247 101 150 236
-0.096783 -0.096966 -0.096173 102 150 236
-0.093071 0.094075 -0.031804 103 150 237
0.287789 -0.106323 0.040440 254 255 255
-0.091562 -0.072978 -0.007081 102 148 234
0.053114 -0.217936 0.018265 255 255 255
-0.091286 -0.071192 -0.088782 101 148 237
-0.104884 0.050873 0.026325 101 150 237
-0.089849 -0.052249 -0.069677 102 149 237
-0.107049 0.023587 -0.038012 102 149 238
-0.094525 -0.180712 -0.040748 103 150 237
0.004815 0.244372 -0.001808 255 254 254
-0.097834 0.201772 -0.082411 102 150 235
0.331741 0.109311 0.041970 255 255 255
0.212605 0.158256 0.024079 255 254 254
-0.026598 -0.255052 0.041660 255 255 254
0.279388 -0.101211 0.002434 253 254 254
-0.105791 -0.068524 0.015284 101 149 237
-0.109983 -0.214273 0.004115 101 150 237
-0.092136 -0.163091 -0.028960 103 150 235
0.133836 0.189588 0.024549 255 254 254
-0.105834 0.203219 -0.007468 103 148 237
0.288073 -0.106499 0.040289 253 254 254
0.276612 0.121027 0.047846 254 254 255
-0.087150 0.215904 -0.070147 103 147 231
-0.108222 -0.212656 -0.076781 128 134 145
-0.004950 0.248638 0.019352 254 254 254
0.271679 -0.112872 0.035316 255 255 253
0.081726 -0.204713 -0.006026 255 255 253
0.230014 -0.120104 0.043737 255 255 255
-0.106863 -0.177359 0.055425 103 150 238
-0.113334 0.199473 0.010837 101 150 238
0.244750 0.145152 0.021781 254 255 255
0.338192 0.105781 0.051987 254 255 255
0.269625 -0.102673 0.059403 255 255 254
-0.005423 0.238134 0.060826 255 255 255
0.258526 -0.119274 0.003286 255 254 254
0.086605 -0.200492 -0.005210 255 254 254
-0.008505 0.238729 0.004349 255 255 255
-0.022244 0.242017 0.058136 255 255 255
0.319840 -0.093422 0.025497 253 254 255
-0.019839 -0.250785 0.036369 255 255 254
0.313384 0.118742 0.050937 253 254 254
-0.082941 -0.267276 0.039573 255 255 254
-0.106579 0.185340 -0.012547 101 150 236
-0.090047 -0.200868 0.012529 102 148 233
-0.041719 0.251965 0.050232 255 255 255
-0.091279 0.197987 -0.029047 100 148 237
0.228731 -0.133609 0.007956 253 255 254
-0.035989 0.245887 0.059260 255 255 255
-0.104410 0.197922 0.034629 101 147 233
-0.093039 -0.150085 -0.019976 101 149 237
0.097737 -0.193518 0.003397 255 254 255
0.123978 -0.182464 0.066857 255 255 255
0.291145 -0.102702 0.002773 255 254 254
0.061411 0.219254 0.058340 254 255 254
0.161417 0.176906 -0.010607 255 255 255
0.051709 0.211940 0.018824 255 255 254
0.002390 -0.229207 -0.021030 254 255 255
-0.104318 -0.103311 -0.083668 103 149 235
-0.075022 0.264844 0.001097 254 254 254
-0.100661 -0.181831 0.053718 102 150 238
-0.092708 -0.180687 0.005062 101 150 238
0.268759 -0.115754 0.055660 255 255 254
0.139023 -0.175042 0.055344 253 254 254
-0.105458 -0.244927 -0.056614 102 150 236
-0.105145 -0.080563 -0.091632 101 149 236
-0.109279 -0.261072 -0.032830 103 151 238
-0.105613 0.106036 -0.073592 102 149 237
-0.019010 0.241528 0.053708 255 254 255
-0.109768 0.021256 -0.031061 101 148 236
-0.110604 -0.090618 -0.006195 101 150 238
-0.090099 0.033617 -0.020688 136 141 146
0.061609 0.204175 -0.018961 255 255 255
-0.106015 0.034573 0.009303 102 150 237
0.309101 0.109144 0.009439 255 255 255
-0.086589 -0.040963 -0.024198 100 148 239
-0.091248 -0.174091 -0.046369 102 150 237
0.249433 0.143519 0.004418 253 255 254
0.002303 -0.228841 0.056967 255 255 255
0.281059 -0.094728 0.008698 254 255 255
-0.113408 -0.228398 -0.033924 101 148 233
0.138339 0.176454 0.058620 254 254 255
-0.106281 -0.111214 0.027143 101 150 236
-0.089519 0.226950 -0.054214 101 149 238
-0.106118 0.209603 0.001626 101 150 237
0.307144 0.120945 0.055817 254 255 255
0.262845 0.121428 0.056139 254 254 254
-0.001496 -0.243088 0.020782 255 255 254
0.061937 -0.200772 -0.007502 253 253 254
-0.094468 0.074964 -0.012101 103 151 238
-0.094831 0.194090 0.035471 101 149 237
-0.091467 0.037826 0.006665 102 149 238
-0.091250 0.270651 -0.019273 104 149 235
-0.073586 -0.274028 0.043319 255 254 255
-0.093381 0.075325 0.009573 102 150 237
0.310985 0.119880 0.032311 255 255 254
-0.061911 0.259965 0.013180 255 255 255
-0.003963 0.235463 0.038307 255 255 255
-0.032269 -0.258847 0.049524 255 255 255
-0.013267 -0.236109 0.021913 254 255 255
-0.102603 0.225519 -0.022727 102 150 237
0.028697 -0.217333 -0.023436 255 255 255
-0.089428 -0.163500 -0.081342 102 150 238
-0.106589 -0.261325 0.014521 102 150 235
-0.066461 -0.260636 -0.009994 255 255 255
-0.087029 0.192982 0.006241 101 149 236
-0.109056 -0.147500 -0.016015 100 149 238
0.175706 0.161101 0.009453 254 254 254
-0.090017 0.280396 0.005298 102 149 238
-0.090042 -0.171241 -0.033507 102 149 237
-0.088406 -0.088418 -0.096725 102 148 237
-0.089219 0.248237 0.042031 102 151 237
-0.112431 -0.194491 0.051656 103 150 236
0.082410 -0.202485 -0.002970 253 255 254
0.033376 -0.215130 0.004878 253 255 255
-0.103630 0.222936 0.019363 102 150 236
0.064445 0.221661 -0.020309 254 255 255
-0.087836 0.125233 0.037556 101 149 237
-0.093963 -0.172575 0.008542 100 148 237
-0.038667 0.261646 0.039744 255 254 254
0.005661 -0.240826 0.015777 254 255 255
-0.094117 0.249748 -0.047515 106 139 195
-0.044401 -0.263622 -0.005765 255 255 255
0.000381 -0.229398 -0.006468 254 255 254
0.201753 -0.146629 0.054887 255 254 255
-0.106997 -0.094579 0.010190 101 149 237
0.064660 -0.209622 0.045221 255 255 253
-0.105057 0.102878 0.040739 102 150 236
-0.089264 0.214358 -0.000454 101 149 238
0.267521 0.124573 0.016869 255 255 255
-0.108263 0.112768 -0.028354 103 150 236
-0.014270 0.251488 0.053535 255 255 255
-0.104939 -0.249636 -0.037671 102 149 237
0.119150 -0.182871 0.027594 253 255 255
-0.102465 0.283428 -0.013066 102 148 236
0.362937 0.088171 0.056006 255 255 255
-0.109812 0.198845 -0.043458 103 149 237
0.317499 -0.094524 0.032444 254 255 254
-0.105620 0.260187 -0.063693 101 149 237
-0.105107 -0.069141 -0.004211 102 150 236
-0.109877 0.180230 -0.072776 101 150 236
0.025271 -0.229443 0.037889 254 255 254
-0.090967 0.251608 -0.005737 138 142 150
0.302786 0.123288 0.018660 254 255 253
0.270006 -0.101706 0.055347 254 255 254
-0.089557 -0.055993 0.020612 101 149 239
0.257954 -0.108602 0.005044 253 254 254
-0.087748 0.197799 -0.078231 103 150 235
-0.094110 0.058068 -0.061937 103 151 236
-0.105828 -0.183511 -0.070929 101 149 237
0.055566 0.209889 -0.026522 254 255 254
-0.107486 -0.243085 -0.047976 101 149 237
0.224993 0.140439 0.026825 255 253 255
-0.092221 0.036723 -0.032334 101 150 236
0.193439 0.166190 0.050767 254 255 254
-0.043423 -0.262062 0.007388 255 255 254
-0.088458 0.019052 -0.021751 102 151 237
0.327774 -0.078410 0.053573 253 254 255
-0.091025 0.238793 -0.006207 130 135 142
-0.089493 -0.067747 -0.073987 103 144 223
0.158632 -0.152687 0.052125 255 254 254
-0.100253 0.027800 -0.069956 103 148 236
-0.090197 0.268954 0.019857 102 149 236
-0.014603 0.245379 0.058951 254 255 254
0.120781 -0.171760 0.004546 255 254 254
-0.001610 0.235879 0.007227 254 255 255
0.059294 -0.212012 0.060655 255 255 254
-0.106458 0.142858 0.037969 102 150 236
0.137465 -0.162710 -0.010318 254 254 254
0.211943 -0.141537 0.001695 254 255 254
0.223903 0.142067 0.050874 254 254 255
-0.085508 0.106618 -0.070381 103 150 237
0.245325 0.145506 0.025146 254 254 255
-0.094458 -0.172151 -0.036790 102 149 237
0.110980 -0.186629 0.005071 255 255 255
-0.095087 -0.132701 -0.057516 101 149 236
0.351671 -0.068474 0.042513 254 255 255
0.113902 0.198092 0.005955 255 254 255
-0.096444 0.022781 -0.044162 103 150 237
0.298100 0.113713 0.015678 255 254 254
0.190284 0.167317 0.005603 255 255 254
0.130786 -0.178883 0.028824 254 255 254
0.334577 0.098587 0.000496 253 254 254
0.021149 -0.216704 0.050831 255 255 255
0.336213 -0.072953 0.024187 255 255 255
0.033510 -0.213062 0.057440 254 255 254
0.259131 -0.107865 0.019562 254 254 255
-0.092743 -0.130256 -0.099532 101 149 238
-0.108987 0.039803 -0.071344 103 149 237
-0.085402 0.192622 0.038959 102 149 238
0.164034 -0.163631 -0.002262 253 254 254
0.035132 -0.214101 -0.003923 254 254 254
0.213385 -0.131414 -0.004509 253 255 255
0.242205 0.135400 0.001188 255 255 253
-0.090578 -0.180697 0.054294 103 151 237
0.010760 -0.234804 0.064098 254 255 254
-0.107844 0.162969 -0.072774 102 149 237
-0.064191 -0.259953 0.006898 254 254 254
-0.048039 -0.263526 0.031791 255 255 255
0.047375 0.221159 -0.008802 254 255 255
-0.063131 0.259304 -0.022969 254 255 255
-0.051022 -0.258217 0.059406 255 255 255
0.269906 0.124239 0.040671 253 255 255
-0.087911 -0.163928 -0.093307 102 149 238
-0.105928 -0.221229 0.016055 101 149 236
-0.110325 0.038877 -0.064754 102 150 237
0.163816 -0.149512 0.034566 255 255 255
-0.103919 0.247281 -0.025449 102 149 235
-0.088601 0.149055 0.001266 102 151 237
0.255715 -0.107937 0.040652 255 255 255
0.130141 -0.170522 0.022419 254 255 255
-0.096984 -0.274023 -0.061137 101 149 234
-0.106330 0.128705 -0.001872 102 149 237
-0.092696 -0.259487 -0.008924 101 149 236
-0.095076 -0.213827 0.027575 103 150 237
-0.105827 -0.149364 -0.081042 103 150 235
-0.098548 0.171232 0.046552 104 151 238
-0.086683 -0.129689 -0.014595 101 149 236
-0.093700 -0.129546 -0.087706 101 148 236
-0.088574 0.190044 0.045527 101 149 235
-0.108080 -0.264048 -0.069394 103 150 236
-0.108872 -0.161496 0.042558 103 149 238
0.006905 0.250043 -0.014702 253 255 253
-0.091887 -0.157879 -0.059404 103 150 237
0.376260 0.094032 0.046577 255 255 255
0.321964 0.111494 0.063192 255 254 254
0.007812 0.242726 -0.000517 254 254 255
0.099794 -0.191012 0.037471 255 255 254
0.137494 0.184817 0.013516 255 255 254
-0.088822 0.247061 0.046169 104 150 237
-0.089690 -0.232311 -0.076356 102 149 238
0.223234 -0.137721 -0.006556 253 255 254
-0.093732 -0.269467 -0.012661 102 149 235
-0.075732 0.265834 0.003781 255 255 254
0.022884 0.226785 -0.032420 255 255 255
-0.106899 -0.205742 -0.002475 102 146 229
-0.106920 0.038754 -0.034093 101 149 237
-0.012387 -0.247632 0.058842 255 254 255
0.065470 0.218618 0.028587 254 255 255
0.065899 -0.198971 -0.005905 255 255 253
-0.109761 -0.099801 -0.076681 101 149 237
0.251959 -0.123430 0.005546 255 254 254
-0.105757 0.106945 -0.096904 102 148 237
-0.111802 0.044523 -0.029728 102 150 237
0.011217 -0.223357 0.059344 255 255 254
0.001410 -0.247162 -0.029344 255 253 255
0.049488 0.223468 0.037302 255 255 255
-0.096169 0.122690 -0.092565 101 149 238
-0.086374 -0.280931 -0.007002 255 253 253
-0.090384 -0.222460 0.006156 101 149 235
-0.084388 -0.268546 -0.023956 254 255 255
0.221402 0.142836 0.053286 255 254 255
-0.088146 0.223166 0.023573 102 150 238
-0.112527 0.203633 0.006009 102 149 237
0.213358 -0.125780 0.043262 254 254 255
0.211174 -0.129447 0.042315 255 255 255
-0.004650 0.246466 0.042610 254 254 255
-0.109094 -0.092822 -0.046620 102 149 237
0.020498 -0.221064 -0.011384 255 255 255
0.277780 -0.098587 0.031568 253 253 253
-0.101873 0.151343 -0.091094 103 149 236
-0.090568 0.049853 -0.021058 101 148 237
-0.089882 0.226296 0.032562 102 148 238
0.033758 0.218140 0.029035 255 255 255
-0.030075 0.244540 0.061932 255 254 255
-0.110731 -0.219123 0.001000 102 150 236
0.301637 -0.093174 0.003960 253 255 255
0.139059 0.188616 0.053363 255 254 254
0.299224 -0.088768 0.019767 254 254 255
-0.099630 -0.041280 -0.051633 102 149 238
-0.032957 0.248667 0.059549 255 254 255
-0.095435 0.243447 0.058113 101 148 235
-0.093154 -0.274741 -0.001194 101 150 237
0.338829 -0.088089 0.061966 255 255 255
0.043880 -0.223254 -0.020204 254 253 253
-0.095330 -0.101314 0.020665 103 151 236
-0.110021 -0.195292 0.010154 102 150 238
0.221169 -0.137041 0.036806 255 255 255
0.120946 -0.170580 0.004223 254 254 255
-0.067663 0.273022 0.012085 254 255 255
0.041795 0.227420 0.024477 254 255 255
0.145183 -0.171986 0.060155 255 255 255
-0.084150 0.148766 0.006856 103 150 237
-0.087411 -0.246251 0.006166 101 149 237
0.140237 0.187418 0.018302 254 254 255
0.031754 -0.215871 -0.010963 254 255 255
-0.093800 -0.072010 -0.053612 101 149 234
0.039613 -0.210854 0.034286 254 253 255
-0.109889 0.235710 -0.031340 103 149 235
-0.106827 0.079306 0.005291 103 150 237
-0.088996 0.279549 -0.033519 103 149 238
-0.087921 0.103867 -0.091428 103 151 237
0.187988 -0.142020 -0.000378 254 254 255
0.256422 -0.108327 0.019002 254 255 254
0.111764 0.197999 -0.018629 253 254 255
0.106363 0.190630 -0.001749 254 254 255
-0.067477 0.262111 0.020949 255 255 254
0.080111 -0.190657 0.030540 253 253 254
0.269611 0.125023 0.066121 255 255 254
0.234059 0.144693 0.063337 255 255 254
-0.105502 -0.089105 -0.009022 102 150 236
0.259758 -0.117664 0.053556 255 254 255
-0.093399 0.233127 0.010771 103 150 238
-0.103596 0.156301 -0.022702 102 149 236
-0.101342 0.264737 0.044079 102 150 237
0.032231 -0.214677 0.013449 255 255 254
0.312380 0.118999 0.038740 254 255 255
-0.093435 -0.257781 -0.031580 101 150 237
-0.090408 -0.276217 0.059402 253 254 255
-0.093347 0.042137 0.006399 101 150 237
-0.097114 -0.169874 0.052200 101 150 237
-0.047972 -0.252805 0.021519 255 254 255
-0.086292 0.153107 0.019611 139 141 146
-0.107891 0.206305 -0.032514 103 149 236
-0.103645 0.152191 -0.023907 101 149 237
0.320247 0.114739 0.046194 254 255 255
-0.094863 -0.177196 -0.017946 102 150 237
-0.094279 0.125031 -0.024038 102 150 237
-0.093727 -0.138277 0.027356 103 151 235
-0.002843 0.247074 0.009363 255 254 255
-0.104765 0.053201 0.021483 104 149 237
0.202866 -0.131079 0.026339 255 254 255
-0.092658 0.194206 -0.047887 102 149 237
-0.086987 -0.269460 0.034995 254 254 255
0.081327 -0.203576 -0.001635 254 254 255
-0.089004 0.145376 -0.015665 100 149 238
0.203595 -0.145403 0.048182 255 255 255
-0.108488 -0.260420 0.003185 103 148 231
0.076948 0.214081 -0.011020 255 255 255
-0.087256 0.155228 -0.007613 103 150 237
0.340404 -0.082803 0.063377 255 255 255
-0.015080 -0.236166 0.051072 255 255 254
-0.100997 -0.066934 -0.083084 136 141 147
-0.025263 0.256418 0.042879 255 255 255
-0.110104 0.106927 0.003239 103 149 236
-0.088729 0.185417 -0.070526 100 148 237
0.117554 0.194633 0.064253 255 254 255
0.077644 -0.195850 -0.012552 253 255 255
0.107165 -0.189984 0.043653 255 255 255
-0.088923 -0.204949 -0.066369 102 149 237
-0.092911 -0.267666 0.028189 104 151 236
-0.086700 -0.223397 -0.034987 101 150 238
-0.063843 -0.263997 -0.028719 255 255 255
0.325702 -0.076774 0.000095 255 255 255
-0.081397 -0.272215 -0.020073 255 255 254
-0.107241 -0.039515 0.001072 102 147 233
-0.091512 0.046256 -0.054108 101 149 237
-0.096914 0.029119 0.034361 104 150 236
0.029860 -0.229011 -0.017473 255 255 255
-0.099336 0.230482 -0.078506 103 150 236
0.349853 -0.069303 0.028874 253 255 255
0.267865 0.129939 0.063142 255 254 254
-0.103400 -0.211812 -0.083610 102 148 238
0.327877 -0.092121 0.021833 254 254 253
0.099493 0.193316 0.010683 253 255 255
-0.091585 -0.268360 0.017541 101 149 236
0.008957 0.242528 -0.006819 254 254 255
-0.106212 -0.228468 0.023078 101 149 236
0.310028 0.113285 0.004691 253 254 255
-0.021423 -0.251877 0.024445 254 255 255
0.267362 -0.107303 0.060582 255 255 255
-0.094466 -0.255258 -0.021186 102 150 235
-0.098553 -0.282325 -0.011648 104 151 238
0.042710 0.214153 0.052023 255 255 255
0.251192 0.129287 0.014500 255 254 254
0.140008 -0.171189 0.005185 255 255 254
0.253187 0.131540 0.041821 255 255 255
-0.103796 0.164301 -0.004938 101 149 234
0.182043 -0.141735 0.048914 254 254 255
-0.089854 0.057587 -0.080374 103 149 237
0.143393 -0.160992 0.004965 253 254 254
-0.092378 0.220029 -0.082376 103 149 237
-0.089079 0.252954 0.046662 103 149 236
-0.106110 -0.131057 -0.019385 101 149 236
-0.089451 0.186631 -0.007767 102 149 238
-0.109043 0.225452 0.034511 102 150 237
-0.106005 0.036060 -0.059148 102 150 237
0.097709 -0.195739 -0.014993 253 254 253
-0.105780 -0.077256 -0.065026 102 150 236
-0.094677 -0.248329 0.001625 103 150 235
0.022870 -0.230731 0.041639 255 255 254
-0.110649 0.217700 0.010239 103 150 237
-0.105815 0.222905 0.035698 102 149 238
0.167376 -0.149583 0.029199 254 255 254
-0.088348 -0.280782 0.025949 254 255 255
-0.042890 0.264268 -0.016565 254 254 255
-0.087602 0.191591 0.044856 103 149 236
0.053258 -0.216178 0.010466 255 255 255
-0.110428 0.175610 -0.085555 101 149 237
0.283717 0.119206 0.024801 253 253 255
-0.109741 -0.181701 -0.084996 103 150 237
0.049352 0.225275 -0.010267 254 255 255
-0.103102 0.232025 0.056805 102 149 238
-0.100748 0.085580 -0.094397 100 149 238
0.109003 -0.175621 0.050792 255 253 255
-0.107031 0.205890 -0.069523 102 150 236
0.131055 -0.178932 -0.003959 255 255 255
-0.089908 0.204495 0.025178 102 149 237
0.356391 0.090490 0.030477 255 255 255
0.077193 -0.204400 0.006213 254 253 255
-0.088725 -0.040302 -0.046263 103 149 237
0.044453 0.215088 0.061078 254 255 255
-0.108541 -0.041787 -0.002209 101 150 237
-0.109450 -0.281201 -0.032944 100 145 227
-0.093037 -0.101388 -0.046662 138 140 146
0.200741 0.151577 0.034008 255 254 254
-0.109877 0.165890 -0.083893 102 149 236
-0.109432 0.101982 -0.043941 101 149 235
-0.103071 -0.223548 -0.081814 103 150 238
-0.105695 0.284525 -0.009578 103 148 234
-0.089267 0.278366 -0.028354 103 150 237
-0.093233 0.133992 -0.060785 101 149 236
0.232493 0.149864 0.025882 253 255 255
0.359388 -0.067105 0.059666 255 255 255
0.006652 -0.239686 0.050407 255 255 255
-0.053206 0.266727 0.051386 255 255 255
-0.063621 -0.256238 0.017641 254 255 254
-0.055071 0.256663 0.011365 255 255 255
0.132216 -0.177492 0.024692 253 254 254
0.136066 -0.176576 -0.004777 254 255 254
-0.068041 0.274546 0.035402 254 254 254
-0.106111 -0.208200 -0.073962 102 149 235
-0.083318 -0.273018 0.046260 255 254 255
-0.089692 0.248954 0.046836 103 150 236
0.306015 -0.098275 0.003542 255 255 255
-0.088647 -0.083759 -0.057281 103 150 236
-0.089061 0.221096 -0.043853 102 149 238
0.003110 -0.241417 -0.028753 254 253 254
0.317561 0.116646 0.055163 255 254 254
0.292236 -0.092327 0.048389 255 255 254
0.146333 -0.165019 0.064021 254 254 255
0.039632 0.227369 -0.031543 255 255 255
0.222529 -0.137016 0.026320 253 255 254
-0.082834 0.276051 -0.032841 255 255 254
0.094837 -0.181799 0.019059 255 254 255
-0.105747 0.102738 -0.022253 103 149 236
0.016591 -0.233909 0.048054 254 254 254
0.128075 -0.177744 0.007113 254 253 254
0.357354 -0.073299 0.026090 253 255 255
-0.108504 0.226617 -0.011017 102 148 237
0.012124 0.240299 0.046881 253 255 253
0.153215 0.181225 -0.012377 253 255 255
-0.094967 -0.185463 -0.011815 127 137 158
0.053866 -0.204173 0.004750 255 254 255
-0.096067 0.102000 -0.091507 102 149 237
0.015497 -0.234545 0.016668 255 254 254
-0.057405 0.256363 0.050781 255 255 254
-0.066627 -0.259322 0.040984 255 254 255
-0.101150 -0.192338 0.055137 103 150 237
-0.108814 -0.215033 -0.031743 101 150 237
0.009069 -0.238317 0.011570 254 255 254
0.340414 0.106420 0.024293 255 255 254
0.327390 0.101350 0.056325 255 255 255
0.001490 -0.230239 0.006869 254 255 255
0.340212 0.105629 0.040422 254 255 255
0.097023 -0.179787 -0.015241 254 255 253
0.141386 0.175246 0.043796 255 255 254
0.244768 -0.125711 0.016079 254 255 254
-0.092698 -0.246798 0.057776 102 149 238
-0.106201 -0.071924 0.025741 104 150 236
0.080316 0.211754 0.019653 253 254 254
0.300639 -0.086457 0.009073 254 255 255
0.011311 0.242114 -0.009795 253 255 254
-0.091645 0.122633 0.035897 103 150 236
-0.094750 -0.105533 -0.072456 102 151 237
0.188289 0.155797 0.041901 255 255 255
0.105269 -0.178014 0.008362 255 254 255
-0.094285 -0.224974 0.031612 101 150 237
0.173421 0.171983 0.051369 255 254 254
-0.108526 -0.187027 -0.088732 101 149 238
0.212665 0.152342 0.064611 254 254 255
0.136159 -0.174852 0.022159 254 255 255
-0.087719 -0.159886 -0.070856 102 149 236
0.123956 -0.182429 0.051904 255 255 255
0.142482 -0.168808 -0.013871 253 255 254
-0.034544 0.261828 0.003022 254 254 255
-0.107170 0.019070 0.010686 104 151 237
-0.104706 0.043035 0.013231 104 150 238
-0.096670 -0.190919 0.036155 103 151 237
-0.088085 0.073009 0.018102 100 148 234
-0.103885 0.174066 0.015616 101 150 236
0.313980 0.107826 0.040765 253 254 255
0.254089 -0.117676 0.060445 254 254 255
0.246092 -0.124796 0.001334 254 254 255
-0.020860 -0.240113 0.034330 255 255 254
0.314983 0.106963 0.026390 254 255 255
-0.049757 -0.263774 0.061219 255 255 255
-0.110369 0.061423 -0.065724 134 140 146
-0.113189 -0.167543 -0.021353 102 150 238
-0.105705 -0.168878 -0.062666 102 150 235
0.318415 0.104847 0.022983 254 255 254
-0.093267 0.157377 0.035835 103 147 230
0.059826 0.206315 -0.004141 253 255 255
0.159218 0.172794 0.063415 254 254 255
0.111171 0.199278 0.036862 255 255 255
0.212896 -0.143949 0.035311 254 255 255
0.039391 -0.210591 0.010892 253 253 255
0.111087 -0.191279 0.043066 255 255 255
-0.093639 0.126536 0.000916 103 150 237
-0.088231 0.033159 0.013097 104 151 237
0.216247 -0.139569 0.028074 254 255 255
0.015634 0.237685 0.034387 255 255 255
-0.093406 0.078276 -0.006795 104 151 238
0.029812 -0.212835 0.022440 255 254 254
0.142879 -0.161479 0.027410 255 254 254
0.257817 -0.119749 0.011823 255 255 254
-0.089003 0.033443 0.034475 102 150 238
0.175516 0.161262 0.041198 255 254 255
-0.086702 -0.281161 0.012356 254 255 255
-0.104591 -0.204074 -0.085203 103 150 237
-0.084763 -0.088300 -0.008139 104 150 236
0.239729 -0.128082 0.020451 255 255 254
0.339138 -0.073229 0.023397 255 255 255
0.004365 0.244399 0.005148 255 255 254
0.161804 0.166126 0.010180 254 254 255
-0.092624 -0.158088 0.020599 103 149 236
-0.106191 0.256617 -0.061296 101 149 237
-0.087266 0.092739 -0.077195 101 149 235
0.172511 -0.146724 0.036093 254 255 255
0.333987 -0.087414 0.014627 255 255 254
-0.102661 0.026974 -0.012465 102 150 236
0.170894 -0.160676 0.040018 255 255 255
0.197327 0.152649 0.014099 255 254 255
-0.092720 0.270406 -0.017665 254 255 255
0.045053 -0.207976 0.010026 254 255 255
-0.089346 -0.262320 -0.074044 102 148 237
0.334101 -0.074636 0.014932 253 254 255
0.244950 -0.126843 0.003708 255 255 255
-0.092405 0.280319 0.015343 102 149 238
0.018225 0.229703 0.058519 255 255 255
0.150685 -0.155370 -0.004189 254 253 255
-0.091393 -0.218067 -0.075819 101 148 236
0.008292 0.243497 -0.029215 254 254 254
-0.045137 0.267451 0.060801 255 255 255
-0.109994 0.223533 0.025826 101 150 237
-0.086692 0.242984 -0.073534 100 149 238
-0.091468 0.218564 0.016271 102 150 237
0.002499 0.244945 -0.013253 255 255 255
0.066138 -0.197194 0.030616 255 254 255
-0.108594 0.218705 0.025132 101 149 237
0.222114 0.142293 0.058555 254 254 254
0.078566 0.200713 -0.018264 255 255 255
0.101528 -0.193086 -0.013091 254 255 255
0.101283 -0.181013 -0.001762 253 255 255
0.043517 -0.218162 0.049290 255 254 255
-0.103435 0.129762 -0.002916 103 149 234
0.297525 -0.094725 0.005494 253 253 254
-0.099743 0.122335 -0.092575 132 138 145
0.189947 -0.138689 0.020144 255 254 255
0.112256 -0.181215 0.063867 253 254 254
-0.089486 -0.114465 -0.074313 101 148 237
0.360280 -0.079595 0.051626 254 254 255
-0.028917 -0.254822 0.060574 255 255 255
0.234160 0.149566 0.029351 254 253 254
-0.107130 0.204452 -0.068461 101 148 235
-0.113611 -0.106828 0.001922 103 150 237
-0.087055 0.019938 -0.034080 101 150 235
-0.104374 0.172725 0.029021 103 150 236
0.154876 0.181455 0.018333 255 254 254
-0.090437 -0.148954 -0.049000 101 149 237
0.067806 -0.209696 -0.008455 255 255 255
-0.098213 0.107282 0.040730 103 150 238
-0.103042 0.055842 -0.091355 101 147 233
-0.108747 -0.048186 -0.042872 101 149 235
-0.092457 -0.039884 -0.027478 101 145 229
0.219708 0.154913 0.050871 255 255 255
-0.090976 0.169302 0.024139 103 150 238
-0.106785 -0.053302 -0.040909 101 149 237
-0.032622 0.259403 -0.023179 255 255 254
0.002890 0.245965 -0.021962 254 255 254
-0.108909 0.230583 0.044613 103 149 236
-0.073411 0.275281 0.007936 255 255 254
0.248158 0.146778 0.003214 253 255 255
0.132632 -0.179807 -0.012944 253 254 254
-0.105766 0.038492 -0.055302 100 150 236
0.138678 0.175845 -0.008332 255 255 255
0.051857 0.225137 -0.020110 255 254 255
-0.092929 -0.251230 0.049867 103 150 236
0.068674 0.206337 0.008915 255 254 254
-0.089948 0.241273 0.013982 102 150 236
0.092968 -0.194436 0.038850 254 255 254
-0.087592 -0.269149 -0.025443 102 148 237
-0.105414 0.237001 0.057595 102 150 236
-0.092817 -0.201202 -0.031245 101 150 238
-0.105839 -0.190443 0.015381 101 149 235
-0.111694 -0.143771 -0.067502 102 150 237
-0.106991 0.273100 -0.060804 101 146 228
0.333754 -0.088957 0.056011 255 255 255
0.073022 0.216719 -0.000557 254 254 255
-0.086589 0.181750 -0.080210 101 149 236
-0.105896 -0.151206 0.046968 144 144 150
-0.106717 -0.247913 -0.076547 101 148 236
0.146014 -0.169759 0.041525 253 254 254
0.255920 -0.110783 -0.002693 255 255 254
0.159155 0.170047 -0.014180 255 254 254
0.166795 0.176822 -0.002333 253 254 254
-0.093327 -0.258661 -0.070840 103 149 236
-0.098457 -0.159654 0.048170 101 149 237
-0.104691 0.222013 0.023245 102 148 237
0.103589 -0.190574 0.031608 255 254 254
-0.094921 -0.123457 0.028664 101 149 236
-0.086655 0.177793 0.023387 102 150 236
0.106952 -0.185785 -0.018409 254 255 255
-0.111910 -0.065382 -0.033597 103 150 237
-0.108403 0.202914 0.048960 102 150 238
-0.090858 -0.067991 -0.053034 100 149 237
0.196307 -0.136285 0.029679 253 255 255
-0.091660 0.274699 -0.059636 135 140 147
-0.105551 -0.073222 -0.038281 103 150 237
-0.094166 0.072078 -0.052052 100 137 203
0.052577 -0.217943 -0.016244 253 255 254
-0.093869 -0.253686 -0.012250 101 150 238
0.133931 -0.173748 -0.016254 254 255 255
0.213130 0.147571 0.019163 255 255 255
0.149310 0.183451 0.040332 255 255 255
-0.088631 -0.204729 -0.013236 102 151 238
-0.094568 -0.145992 -0.042026 101 150 237
-0.097793 -0.273356 0.038083 101 149 238
-0.094402 -0.174259 -0.019314 103 150 237
0.199988 0.159278 -0.007105 255 255 254
-0.083525 0.247288 -0.057444 102 148 238
0.315307 -0.083112 0.018775 255 255 255
0.223472 0.148855 0.064925 254 254 255
0.257487 -0.121561 0.044894 255 255 255
-0.104658 0.180135 -0.037567 102 149 236
-0.087892 -0.281178 0.017671 255 255 255
0.200229 -0.132993 0.053052 254 255 254
0.038787 0.217617 -0.006282 254 255 255
0.016783 0.226000 -0.013990 255 255 255
-0.094096 0.068543 -0.025310 101 150 238
0.085081 0.198810 0.006551 254 255 254
-0.106471 -0.175746 -0.077926 103 151 238
-0.086146 -0.146659 -0.066993 102 150 238
-0.098779 -0.271753 -0.061082 102 150 236
0.231295 -0.125130 0.061246 253 255 254
-0.112772 0.053725 -0.037638 103 151 236
0.184822 0.156666 0.054462 255 255 254
-0.065067 0.264938 0.058830 255 255 255
0.000190 0.246362 0.000144 255 255 254
-0.016667 0.255218 -0.004324 255 255 255
-0.106125 0.053145 -0.088186 102 150 236
0.290607 -0.092477 0.042150 254 254 254
-0.108312 0.114239 -0.057857 102 150 236
0.098969 -0.194804 -0.008896 254 255 255
-0.106332 0.108844 -0.075913 104 151 237
-0.106485 0.148500 -0.080740 101 150 238
0.217721 -0.126252 0.026841 255 255 254
-0.080508 0.275194 0.060565 254 255 254
0.020119 -0.235427 -0.020686 254 254 255
-0.098194 0.065543 0.036788 136 134 142
0.196572 -0.149006 -0.001641 255 254 255
-0.102046 -0.044092 0.027759 101 146 230
0.150913 0.183415 -0.011567 255 255 255
-0.093137 0.088962 -0.022324 103 150 236
-0.106512 0.244517 -0.013836 103 149 238
0.256041 0.139089 0.052588 254 254 255
-0.070830 -0.271850 0.059913 255 253 254
-0.028236 -0.255397 0.009298 255 255 255
-0.109422 0.105084 -0.052298 102 149 236
-0.011648 0.251101 0.009370 255 253 255
0.173795 -0.158238 0.039314 254 255 253
-0.112528 -0.196032 -0.018531 103 150 237
-0.106380 0.202719 0.052307 102 149 237
-0.106668 0.041814 -0.028185 101 149 237
-0.017808 0.252846 0.051074 254 253 254
-0.090654 -0.210078 -0.063970 101 150 237
-0.106070 -0.114823 0.012421 103 150 237
-0.087936 -0.172335 -0.080211 100 149 237
0.100718 0.195379 0.050209 255 255 254
-0.089234 -0.185036 -0.010829 101 149 237
-0.104358 -0.221925 0.038935 101 151 238
-0.108559 -0.068159 0.034205 102 148 235
-0.112499 -0.114107 0.043487 103 149 237
-0.107497 -0.127883 -0.031442 102 149 237
-0.048572 -0.254349 0.049500 254 254 254
-0.088521 0.183544 -0.076677 103 150 237
-0.007967 0.237763 -0.006752 255 254 255
-0.088728 0.138379 0.045999 103 147 229
-0.085495 -0.272000 -0.026960 255 255 254
-0.088891 0.039322 -0.061145 101 149 237
0.243000 -0.114986 0.021913 255 255 255
0.170942 0.176148 0.052704 254 255 255
-0.026266 0.255815 0.033774 254 254 254
-0.107621 -0.183336 -0.075044 101 150 237
-0.105067 -0.132637 -0.068910 102 150 238
-0.090303 0.022784 -0.040619 104 151 236
-0.094270 -0.213119 -0.083324 103 147 226
0.288798 0.126991 0.031784 255 255 255
0.320204 -0.080749 0.023566 255 255 255
-0.086767 -0.156133 -0.044051 103 151 238
-0.113617 -0.161379 -0.062979 103 151 237
-0.090519 0.261673 0.028737 102 150 238
-0.105328 0.137935 -0.027635 132 134 141
-0.101212 -0.096493 0.040338 103 149 236
-0.097846 -0.122545 -0.097359 100 149 238
0.140032 0.176966 -0.014584 254 255 255
-0.054953 0.267991 0.003452 254 254 255
0.269606 0.138238 0.001360 255 254 255
-0.093282 0.199316 -0.058704 101 149 237
0.101686 0.206555 -0.019339 254 255 255
-0.095266 -0.068830 0.033499 101 150 237
-0.104306 0.016958 -0.015231 101 150 235
0.267448 -0.102745 0.015096 254 255 255
-0.013748 -0.249636 -0.000813 255 255 255
0.221599 -0.123266 0.017243 253 254 254
0.226480 -0.120631 0.008889 255 255 255
0.165925 0.177918 0.049546 255 254 255
-0.088959 0.190731 -0.028124 103 150 237
-0.109148 -0.122125 -0.013618 102 150 238
0.355634 -0.066424 0.041346 253 255 254
-0.083981 0.184248 -0.075507 103 149 235
-0.105735 -0.258802 0.036507 102 149 238
-0.105633 -0.257514 0.006887 101 149 237
0.008355 0.240858 0.037310 254 254 254
0.068272 0.221727 -0.025568 255 255 254
-0.095702 0.164982 -0.073493 103 150 237
-0.092158 -0.099193 0.033425 103 151 238
-0.047870 -0.251996 0.029672 255 255 255
0.028422 -0.227910 0.045061 255 255 255
-0.088442 0.165702 -0.040169 103 150 237
-0.110032 -0.262043 -0.018690 102 151 236
-0.091045 0.239647 -0.076819 103 150 237
-0.091128 0.215854 0.015717 101 149 237
0.261037 -0.118274 0.029130 254 254 254
0.288603 0.117320 0.015663 254 254 255
-0.042299 0.265238 0.018207 255 254 255
0.317686 -0.093732 0.037876 254 255 255
-0.105744 0.034292 0.026953 102 149 238
-0.020942 -0.240292 0.022253 255 254 255
-0.089833 -0.040379 0.023050 100 149 236
-0.092797 0.210350 0.019862 102 150 237
0.141325 0.174406 0.054010 255 254 254
0.247615 -0.113982 0.044626 255 255 255
0.111704 -0.188299 0.046402 254 255 255
-0.094889 -0.084987 -0.011267 102 148 237
0.129780 0.191998 0.037236 254 253 255
-0.091410 -0.161421 -0.028483 102 151 236
-0.100395 -0.270597 0.031364 103 150 236
-0.061879 0.270618 -0.002411 255 255 255
-0.098130 -0.283721 -0.029853 103 150 235
0.252738 -0.124009 0.001920 254 254 255
0.078223 -0.203265 0.027328 255 255 255
0.008264 0.241176 0.024163 255 255 255
-0.013497 -0.249550 0.001634 255 255 255
0.045452 0.215542 0.019918 254 254 254
-0.107698 0.102805 0.029380 104 150 236
-0.087523 0.221509 -0.022053 102 149 235
-0.089872 -0.155661 0.048224 102 149 236
0.181693 0.171367 0.055974 255 255 255
-0.105900 -0.053207 0.022827 103 150 237
-0.109714 0.214065 -0.001118 102 147 230
0.047291 0.214872 0.048962 255 254 255
0.226604 0.152127 0.028898 255 255 254
-0.093049 0.232515 -0.065933 103 150 237
-0.092408 -0.156313 -0.032970 104 151 237
-0.093850 -0.098273 -0.063648 131 135 141
-0.086425 -0.269256 0.001998 254 255 253
-0.094530 0.061772 -0.003575 103 150 237
-0.082546 -0.278922 0.006140 254 255 255
0.269640 -0.102363 0.029248 255 255 255
