ply
format ascii 1.0
element vertex 1182
property float x
property float y
property float z
property uchar red
property uchar green
property uchar blue
end_header
0.159433 -0.162997 0.002180 255 255 255
0.063942 -0.205142 0.062096 255 255 255
0.034649 -0.210666 0.041587 255 255 255
-0.107480 -0.042904 0.026821 100 149 238
-0.047481 -0.265172 -0.018143 255 254 254
-0.006515 0.246248 -0.003747 255 254 254
0.179906 -0.152178 0.036330 255 255 255
-0.094599 0.175192 -0.076583 102 150 235
0.058405 -0.198721 0.028826 255 255 255
-0.108129 -0.082245 -0.086230 103 151 238
0.191510 -0.133657 -0.004772 254 255 255
0.147668 -0.156574 0.006434 255 255 254
-0.091147 -0.278348 0.050669 255 255 254
0.232948 -0.113683 0.062664 254 254 255
-0.111134 -0.119998 -0.096196 101 150 238
0.258854 -0.103090 0.042013 254 254 255
-0.060102 -0.257732 0.019185 254 254 255
-0.114100 0.072110 -0.045469 100 148 235
0.264904 0.123979 0.029338 254 255 255
0.176082 0.165311 0.063259 254 255 255
-0.010192 -0.234426 0.014113 254 255 254
0.339052 0.105708 0.055679 255 255 255
-0.104716 0.279125 -0.043526 101 148 237
0.085904 -0.187066 0.058375 255 254 255
0.247867 0.141808 0.047739 255 255 254
-0.096633 0.032743 0.033346 101 150 238
-0.111923 -0.080513 -0.041913 101 150 238
0.370967 0.083612 0.029264 255 255 255
0.079193 -0.190802 0.061110 254 254 254
-0.107008 0.181033 -0.050920 101 150 236
-0.086816 0.266834 0.022387 255 255 255
-0.056119 -0.268598 -0.014558 229 227 231
-0.034955 -0.247351 0.059309 254 255 254
-0.097384 0.018215 -0.038426 101 150 236
-0.111808 0.087399 -0.077696 102 149 235
-0.109560 0.105144 -0.088112 101 151 238
-0.105063 -0.153345 0.046724 101 150 239
-0.107856 -0.059792 0.009371 101 150 238
0.310975 -0.079218 0.026404 253 254 255
-0.051465 0.263031 0.045958 255 255 255
-0.108260 -0.133859 0.007927 102 150 237
-0.097458 0.208791 -0.083164 101 148 238
-0.054816 -0.252866 0.043541 254 254 254
-0.113247 0.234514 -0.069797 101 149 237
-0.111492 -0.266919 -0.013235 101 150 236
0.214723 -0.124648 0.018145 255 254 254
-0.086465 0.234318 0.013213 102 149 237
-0.109009 0.186341 -0.013247 101 149 238
-0.104715 -0.284178 -0.005944 102 149 236
-0.107191 0.187942 -0.010768 103 150 238
-0.096393 -0.111822 -0.001444 101 150 239
0.370324 -0.061496 0.031253 255 255 255
0.238686 -0.110129 0.027127 255 255 255
-0.112782 0.079291 -0.036771 100 149 236
-0.112316 -0.142935 -0.003086 101 149 238
-0.094294 0.085029 -0.001087 103 150 237
0.361092 -0.075903 0.042966 254 255 255
0.189649 0.165661 0.016895 253 255 254
-0.110932 0.133303 0.003864 103 151 238
0.086039 -0.196720 0.043191 253 254 255
0.216985 0.156230 0.059868 254 254 254
0.374430 0.092015 0.052166 255 255 255
0.216808 -0.136317 0.026606 255 254 255
-0.106798 -0.239619 -0.079950 100 149 237
0.267056 0.123563 0.019057 253 255 255
-0.096887 0.172650 -0.086051 102 150 238
0.023871 0.226270 0.060456 255 255 255
-0.111163 0.103783 -0.032900 103 150 237
0.098603 -0.191583 0.025748 255 255 255
0.355613 -0.069260 0.058474 255 255 254
-0.099992 0.092625 0.038542 101 150 238
-0.042522 0.248474 0.058952 255 255 255
0.106575 -0.180665 -0.011234 254 254 255
0.151306 0.173448 0.061054 255 255 255
-0.090887 0.139369 -0.021620 101 150 239
-0.096411 0.105830 0.021569 99 148 237
-0.110765 -0.181926 0.000477 101 148 235
0.264599 0.131376 0.007993 255 255 255
0.113064 0.185821 -0.008612 255 255 255
-0.089567 0.238786 -0.064958 101 149 236
-0.014838 0.248620 0.036522 255 255 254
0.244112 0.144199 0.006178 254 255 255
-0.044595 0.255567 -0.029772 255 255 255
0.008839 0.240316 0.006830 255 255 254
0.279809 0.128861 0.040410 253 254 255
-0.091732 0.222731 0.031102 101 149 237
0.307953 -0.088316 0.009642 255 255 254
-0.107979 -0.275686 0.020608 102 149 235
0.212626 -0.138187 0.029972 255 254 254
0.137855 -0.172964 0.057285 255 255 255
-0.094912 -0.189664 0.050460 100 149 239
0.018791 0.228867 0.055044 255 254 254
0.270905 0.132337 0.034916 254 255 255
-0.034039 0.245944 -0.018141 254 255 255
-0.019901 -0.237568 0.054038 255 255 255
0.042878 0.224840 0.033341 255 255 255
-0.094203 0.054417 -0.072771 100 150 237
-0.107625 0.200828 0.010947 101 148 237
0.313964 0.115194 0.030958 254 254 254
0.074547 -0.203207 0.020265 255 255 254
-0.108702 -0.055453 -0.029892 101 151 239
-0.090875 0.222720 -0.078218 101 149 237
-0.046361 0.251949 0.036730 254 254 254
-0.041596 -0.261001 0.026743 255 255 254
0.272445 -0.109794 0.040864 255 255 255
-0.108776 0.156981 0.046464 101 149 238
0.307518 0.107136 0.009778 255 254 255
-0.108515 -0.188819 0.023337 101 150 237
0.321970 -0.075606 0.061093 255 255 254
-0.089827 0.148835 -0.022154 102 149 235
0.080836 0.209699 0.015509 255 255 255
-0.095336 -0.237409 0.049024 102 151 237
0.302020 -0.083455 0.000067 253 255 255
-0.025492 -0.254529 -0.015232 254 254 255
-0.112242 0.059568 -0.091426 102 150 237
0.130993 -0.161792 -0.008188 254 254 255
-0.107282 0.052239 -0.008426 101 148 236
0.253511 -0.108406 0.061499 254 255 255
-0.108357 0.101839 -0.011755 102 151 237
0.336760 -0.070484 0.009109 255 255 255
-0.053385 -0.251639 0.024445 254 255 255
-0.115707 -0.170587 -0.083969 101 146 231
-0.047909 -0.252225 -0.021399 255 255 255
-0.092159 0.043114 -0.043313 103 149 236
-0.111220 -0.085266 -0.070329 100 149 238
-0.094680 0.032409 0.003913 102 149 236
0.306536 -0.095332 0.046165 253 254 255
0.354271 -0.074532 0.029226 255 255 254
0.015185 0.236847 0.020390 255 255 255
0.242256 0.132437 0.058951 255 255 255
-0.092811 -0.105530 -0.068711 101 149 236
-0.108381 -0.177062 -0.068706 102 150 238
-0.107270 0.204210 0.009318 101 150 237
0.206459 0.153621 0.002913 255 255 255
-0.058207 -0.253468 0.052826 255 255 254
0.098192 -0.178552 0.032569 255 254 255
0.197049 0.150480 -0.000387 254 255 255
-0.106820 0.038081 -0.024853 102 138 204
0.084005 0.208257 -0.011695 254 255 254
-0.097812 -0.216522 0.031945 101 149 238
0.021702 0.233766 0.029443 255 255 255
-0.009974 0.245968 0.051298 255 255 255
-0.092212 0.127377 0.005060 100 148 235
0.267576 -0.112300 0.056025 255 254 255
0.116847 0.182205 0.041796 255 255 255
-0.110214 0.252896 -0.078197 101 149 238
0.088937 0.193765 0.051379 255 255 255
0.034346 0.229135 0.020649 254 255 255
0.069088 -0.199720 0.041536 255 254 254
-0.108055 0.119085 -0.013724 102 150 237
-0.091476 0.129143 -0.017084 101 149 239
0.324551 -0.073317 0.027260 255 255 255
-0.092328 0.211767 -0.077983 101 149 236
0.153227 -0.152067 -0.003084 255 255 255
-0.097272 0.116433 -0.091662 103 150 239
0.117746 -0.174691 0.062600 255 255 255
-0.108578 0.186932 -0.022191 103 149 237
0.212598 0.157976 -0.005034 255 255 254
-0.095460 0.121517 -0.058440 102 150 237
-0.093927 0.175194 -0.031071 101 149 238
-0.092374 -0.229478 -0.040875 100 150 236
-0.004117 -0.232268 -0.020686 254 254 254
0.155411 -0.150669 -0.005106 255 255 255
0.215002 -0.138305 0.007014 255 255 255
-0.097484 -0.105989 -0.099117 101 150 238
-0.109683 0.010538 0.011857 102 151 238
0.178723 0.169883 0.039124 254 254 254
-0.110471 -0.089445 0.027282 101 150 237
0.257873 0.128684 0.043093 254 255 255
-0.109185 -0.166004 -0.084619 101 151 238
-0.107947 0.132371 -0.022177 101 149 236
0.224101 0.153672 0.022025 254 255 255
-0.088369 0.190322 0.001559 100 149 236
0.317328 -0.076093 0.048217 255 254 255
0.284192 -0.095594 0.002381 255 255 255
-0.107267 0.190739 -0.053995 103 149 237
-0.093896 -0.248120 -0.001394 103 151 239
-0.108747 -0.243681 0.032739 101 149 238
0.153420 0.167288 0.051775 255 255 255
0.008821 0.239591 0.023084 255 254 255
-0.095741 -0.198420 -0.054389 101 150 237
-0.112855 0.129288 -0.014406 101 149 236
-0.090835 0.180498 -0.053925 100 150 237
-0.108342 -0.073448 -0.014545 102 150 237
0.076860 0.210992 -0.014097 254 255 255
0.024365 -0.216187 0.046117 255 255 255
0.074462 -0.201675 0.023764 255 254 255
0.163608 0.168726 0.056919 255 254 255
-0.094982 0.212105 -0.005366 102 150 238
-0.110429 0.204786 0.012932 100 149 238
-0.036179 0.246431 0.057629 255 254 255
0.143301 -0.171119 0.053111 255 254 254
0.005293 0.231396 -0.016118 255 255 255
-0.108798 -0.146683 -0.021102 136 138 146
0.039207 0.214202 0.056625 255 255 255
0.380383 0.087238 0.032630 255 254 255
0.321991 -0.087048 0.057451 255 255 255
-0.091117 -0.277586 0.057650 254 255 255
0.135474 0.174877 0.044533 255 255 254
0.101546 0.200965 0.039243 254 255 254
-0.110813 0.051040 -0.091117 101 149 238
-0.107783 0.126601 0.029817 102 150 238
0.130723 0.189584 0.030541 254 254 255
-0.000663 0.233305 -0.018099 255 255 255
0.091444 0.193896 -0.002254 255 255 255
-0.095375 -0.265008 0.041679 101 149 238
-0.070530 0.272447 0.032155 254 254 254
-0.109062 -0.147680 -0.057373 103 151 237
-0.054873 -0.266585 0.024545 255 255 255
0.208018 -0.125736 0.053711 254 253 255
0.132143 0.188649 0.011114 255 255 255
-0.110507 -0.197753 0.050495 101 149 238
-0.090602 0.034378 -0.026223 103 150 238
-0.091369 -0.037898 -0.038064 101 149 236
0.099810 0.202257 -0.008700 255 255 255
-0.093196 0.164862 -0.008004 101 149 236
0.186014 -0.135848 0.033514 254 255 255
-0.093032 -0.187601 -0.087725 102 151 238
-0.091858 0.229928 0.050215 103 151 238
0.256244 -0.116679 0.033358 255 255 255
0.194308 0.163533 0.050639 254 254 255
0.156315 -0.152070 -0.006549 254 254 255
-0.025912 -0.242173 -0.000824 254 255 255
-0.000036 0.239007 -0.031693 254 255 255
-0.007548 0.249167 -0.013686 255 255 255
-0.110801 0.276450 0.031888 100 149 236
-0.092624 -0.136785 0.014361 103 149 237
-0.091877 -0.243285 -0.073008 101 151 239
0.285335 0.122936 0.004775 255 255 255
0.204843 0.154028 -0.005202 255 255 255
0.133078 0.190399 0.000455 254 254 254
-0.094192 -0.274283 -0.047109 100 149 237
0.114605 -0.183534 0.004210 255 254 254
-0.109946 0.175673 -0.027191 100 145 224
-0.112373 0.113698 -0.076582 103 151 238
-0.006243 0.235497 -0.025299 255 255 255
-0.111222 0.135866 -0.041487 101 150 238
-0.094738 -0.132993 -0.098695 103 150 239
0.028442 0.221917 -0.002156 255 254 255
-0.093111 0.096720 0.031563 101 149 236
0.301295 -0.083068 0.030324 254 255 254
0.165708 0.175203 0.013143 253 254 254
0.376962 0.091094 0.046366 255 255 254
-0.094461 0.174101 -0.009141 101 149 238
0.159809 -0.162738 -0.010100 255 255 255
-0.108770 -0.243108 -0.009787 101 150 237
-0.097021 -0.174146 -0.060831 140 142 147
0.113631 0.192822 -0.019056 255 255 255
-0.108493 0.156593 0.028559 103 150 238
0.238577 -0.113027 0.035151 255 255 255
-0.094730 0.079121 -0.074466 101 148 236
-0.109189 0.164951 0.012048 102 149 238
0.052721 -0.203217 0.059920 255 255 255
0.098271 -0.191144 0.005232 254 254 255
0.053794 0.208754 0.050792 255 255 255
0.026496 -0.215740 0.025161 255 255 255
-0.093144 -0.117449 0.029252 103 150 237
-0.108502 0.275023 0.021333 101 149 238
-0.109146 0.197844 0.028878 102 151 238
-0.016547 0.237038 0.004700 254 255 255
0.087717 0.196426 -0.011558 255 255 254
-0.110922 -0.224222 0.018334 102 150 237
-0.106803 0.206078 -0.051252 102 150 235
0.225294 0.144099 0.003134 255 255 254
0.053208 -0.214808 0.010061 254 254 255
-0.111234 0.177929 -0.001231 102 150 237
0.086452 -0.196507 0.031214 255 255 255
-0.101787 0.079500 0.036118 100 149 238
0.194780 0.152766 0.037660 254 254 255
-0.109341 0.062298 -0.049432 101 150 237
-0.109894 -0.123584 -0.088240 103 151 238
-0.109345 -0.224483 -0.019249 102 149 238
-0.092419 0.145358 0.043747 103 150 236
0.187625 0.154912 0.011088 255 255 255
0.353369 -0.074199 0.031352 255 255 255
0.021855 -0.233807 -0.022122 255 254 255
0.122113 0.191692 -0.005846 255 254 255
-0.071109 -0.262437 -0.027314 255 255 255
0.320566 0.101291 0.041902 255 255 255
-0.012421 -0.248771 0.051505 254 253 254
-0.093709 0.242524 -0.059200 100 148 237
-0.092360 -0.153068 -0.086689 102 150 239
0.030630 -0.214186 0.019625 217 223 231
-0.093913 -0.142499 -0.047632 101 149 238
0.305512 0.108201 0.039767 255 255 255
-0.094049 -0.150130 -0.067684 100 149 236
-0.091781 0.269175 -0.047736 101 149 238
0.039867 0.217607 -0.012895 255 254 255
-0.092240 -0.268782 -0.063581 102 150 239
-0.095288 0.131136 -0.057421 103 150 236
0.197890 0.151587 0.039636 255 255 255
0.241246 0.138733 0.064353 255 255 254
-0.095513 0.083986 -0.080921 102 150 237
-0.101050 -0.273771 -0.059610 102 149 237
-0.105304 0.221151 0.054834 102 149 238
-0.073223 -0.264091 0.046464 254 255 254
-0.092635 -0.282206 -0.048072 100 146 232
-0.093476 -0.043831 -0.007574 102 149 237
0.136954 0.184156 0.059826 255 255 255
0.222375 0.152224 0.018347 254 254 254
0.081416 -0.187959 0.031001 255 255 255
0.365646 0.098225 0.007082 255 255 255
-0.012755 0.247730 0.042941 254 254 255
-0.106382 0.177501 0.032305 100 149 236
0.230487 -0.116705 0.036371 255 255 254
0.089577 -0.197071 -0.009449 254 255 255
-0.096128 -0.114863 0.008892 102 151 239
0.350267 0.101162 0.045841 255 254 254
-0.110517 -0.078049 0.021548 101 150 236
-0.094898 0.192908 0.018609 102 149 238
0.093027 0.204500 0.015209 254 255 254
0.351984 0.103039 0.020778 254 255 255
0.161999 0.165697 0.017952 255 255 255
0.214193 0.158812 0.007637 255 255 255
0.367757 0.084727 0.056818 254 255 255
-0.054336 0.264931 0.053739 255 255 254
-0.111016 -0.189958 -0.058793 103 150 237
-0.095886 -0.191168 -0.074799 103 149 237
-0.113345 -0.185065 0.004249 103 149 235
0.255316 0.135066 0.064931 255 255 255
-0.091392 -0.277847 0.003367 101 151 238
-0.105608 -0.284081 0.017576 102 150 236
0.190727 -0.148300 0.007475 255 254 255
-0.092246 0.033084 -0.010718 102 151 237
-0.083161 -0.279420 0.044904 255 255 255
0.260829 0.132948 0.001519 255 255 255
-0.053546 -0.254036 0.031507 254 254 255
0.225920 -0.118400 0.047801 255 255 255
0.033212 0.216394 0.050641 255 255 255
0.098392 -0.191156 0.008555 254 255 255
-0.092421 0.272184 -0.034695 100 150 237
0.051125 -0.215644 0.035131 255 255 255
0.009127 -0.222796 -0.023754 255 255 254
-0.008513 -0.234320 -0.008709 255 255 254
-0.109284 0.234327 0.051532 101 150 238
-0.108091 0.084177 -0.047622 101 150 238
0.129381 -0.177520 0.010300 255 254 255
0.146233 0.184701 0.044229 255 255 255
-0.107483 -0.118366 -0.066455 101 149 236
0.120788 0.192790 0.047334 255 254 255
-0.052091 0.254672 0.023552 254 255 255
-0.112609 -0.155934 -0.094930 101 149 238
-0.021711 0.240934 0.043694 254 255 255
-0.107628 0.158123 -0.000639 101 150 237
-0.025675 0.243023 0.020846 255 254 255
-0.094603 -0.082739 -0.014916 137 138 144
0.138257 -0.172018 0.050514 255 254 254
-0.107707 -0.202783 0.035370 102 150 234
-0.095303 0.180393 0.019128 103 150 236
0.296001 0.109686 0.028668 255 255 255
0.256452 0.135377 0.067347 255 255 255
-0.108673 -0.155545 -0.044369 103 143 213
0.017604 0.235763 0.013562 254 255 255
-0.023331 0.248558 -0.027184 254 255 255
0.166352 -0.146987 0.012300 253 255 254
-0.021163 -0.239045 -0.012601 253 255 255
-0.108314 -0.157432 0.005396 101 149 238
-0.092155 0.032987 -0.001203 103 151 238
-0.111454 0.062842 -0.090356 102 149 237
0.167760 -0.158754 0.061398 255 254 255
0.147622 0.173770 0.061127 255 255 254
-0.094195 -0.075269 -0.071149 103 150 236
-0.097301 -0.201189 0.055485 103 149 237
0.185068 -0.150377 0.039882 255 254 255
0.134200 -0.162726 0.003433 253 255 255
-0.093428 -0.050336 -0.038563 102 151 238
0.097967 -0.181204 0.062245 255 255 254
0.250640 0.141429 0.038573 255 255 255
0.184456 -0.137841 0.040203 255 255 255
0.225711 -0.132224 0.032027 255 254 254
-0.095523 -0.228659 -0.085635 102 150 235
-0.108238 0.096724 -0.047921 102 150 237
-0.060631 -0.255674 0.044820 255 255 254
-0.089453 0.269131 -0.046816 102 149 237
0.352362 -0.074553 0.029929 255 255 255
0.137099 -0.174464 0.004864 254 255 255
-0.058034 0.255968 0.028381 254 255 255
-0.017045 0.249731 0.031774 255 255 255
0.079445 0.204731 0.057962 255 255 255
-0.092931 0.104462 -0.072088 101 148 236
0.039756 0.224233 0.052455 255 255 254
0.219859 0.150960 0.016756 254 255 255
0.193481 -0.146729 0.022241 255 255 255
-0.094699 0.121611 -0.018421 101 150 238
-0.090329 0.134481 -0.081488 101 149 238
0.224281 -0.132494 0.031128 255 254 255
0.132356 0.187686 0.035542 255 254 255
-0.093860 -0.274439 -0.005497 253 254 255
-0.057508 -0.268395 0.041796 254 255 255
-0.013404 -0.247073 0.047762 255 255 254
-0.107462 0.245710 0.008909 101 150 238
0.360169 -0.060693 0.020783 254 255 255
-0.109753 -0.118698 0.016464 101 150 238
-0.107792 0.220584 -0.043585 100 150 238
0.234934 -0.126213 0.009857 255 255 255
-0.095915 -0.178824 0.052338 101 150 239
-0.093621 0.165419 -0.006764 101 150 237
-0.110816 -0.190823 0.010808 103 149 238
0.017607 -0.229661 0.059802 254 255 254
-0.116651 -0.117106 -0.018050 102 149 236
-0.091279 0.078829 0.020983 103 150 236
-0.032495 0.248194 -0.026632 255 255 255
-0.108658 -0.245261 -0.062511 102 150 237
0.227399 0.148569 0.001534 255 255 255
-0.108677 -0.223512 -0.020149 103 151 239
-0.112070 -0.160204 0.004711 103 151 237
-0.097781 -0.229848 -0.014640 102 149 239
-0.094234 0.190441 0.051831 104 150 236
-0.093452 -0.045304 -0.015333 101 148 235
0.195030 -0.132856 0.037136 255 254 255
0.052478 0.221396 0.060137 255 255 255
0.020249 -0.220260 0.010718 255 255 254
-0.093668 -0.040763 -0.009206 102 150 237
-0.091574 0.229508 0.053027 102 149 238
-0.095673 -0.263573 -0.030720 101 149 237
0.133961 0.176748 0.020072 255 254 255
-0.107291 -0.082496 -0.060079 100 149 238
0.079201 -0.199903 0.052028 255 254 255
-0.110598 -0.068780 0.007670 101 149 237
-0.056210 0.255002 -0.002181 255 254 255
-0.106905 -0.245216 0.014733 102 149 238
0.086356 -0.199583 -0.004148 254 254 255
-0.117064 -0.186633 0.004572 101 149 238
0.137515 0.182463 0.060890 254 255 254
-0.097578 -0.213465 -0.029197 102 150 238
-0.113506 0.101581 -0.000508 102 149 237
-0.109575 0.146252 0.012125 101 148 232
-0.094561 -0.090316 -0.044731 103 150 236
0.329477 0.099422 0.044635 255 255 255
-0.094856 -0.062513 0.004814 102 149 237
0.267823 -0.098775 0.030550 254 254 254
-0.014824 -0.235025 0.049941 255 255 255
-0.111307 0.060683 -0.010317 103 150 237
0.118955 0.184655 -0.016136 255 254 254
0.341084 0.095906 0.018864 253 253 255
-0.089755 -0.223069 0.042315 103 149 236
0.182102 -0.139036 0.017182 255 255 255
-0.047585 -0.252467 0.008455 254 255 255
-0.004857 -0.233171 -0.021390 254 254 254
-0.092941 0.261834 -0.049977 101 149 236
-0.110306 -0.046859 -0.048751 102 150 236
-0.108889 0.181788 0.030152 101 149 237
-0.092569 -0.099109 -0.021190 103 150 238
0.131157 0.176172 0.045185 254 255 255
0.142934 0.172104 0.024531 255 255 255
-0.108958 0.163823 0.020540 103 151 238
-0.097149 -0.182699 0.034737 103 150 236
0.000455 -0.228503 0.030328 255 255 255
-0.109780 -0.218377 -0.013015 101 149 237
-0.095578 -0.072628 0.012648 101 149 238
-0.110038 -0.250155 -0.073775 102 150 238
-0.087386 0.203752 0.021916 103 151 238
-0.031421 -0.255139 0.034123 255 255 254
0.130331 0.176012 -0.007693 255 254 254
0.221141 0.139586 0.052683 255 254 255
-0.092671 0.259256 0.019875 103 151 237
0.058109 -0.200040 0.020397 255 255 255
0.284883 0.128803 0.010031 253 254 255
-0.039431 -0.255149 0.060086 254 255 255
0.025719 0.232840 -0.025843 254 255 255
0.026488 -0.230752 -0.000937 255 255 254
0.021823 -0.225062 0.059216 255 255 255
0.317906 -0.089993 0.050750 254 255 255
-0.094301 -0.279114 -0.027078 100 150 236
-0.108313 0.028764 -0.031082 104 149 235
-0.112714 0.046112 0.019783 103 151 236
-0.094371 -0.145525 0.014128 103 151 238
0.056407 0.219642 0.022414 255 255 254
-0.111093 0.130227 -0.039505 103 149 235
-0.093682 0.040112 -0.061328 102 149 238
0.009921 -0.223898 -0.007831 254 255 255
0.117939 -0.174040 0.010854 254 253 255
0.142249 -0.158458 0.003993 254 254 255
-0.102388 0.027190 -0.068119 101 149 236
0.061943 0.206553 0.034224 255 254 255
-0.095207 -0.165729 -0.087249 137 140 146
-0.096095 -0.205561 -0.041674 101 151 239
-0.094955 0.108321 -0.033957 103 150 237
-0.110239 0.160732 0.000619 102 151 238
-0.109605 -0.173660 0.042831 102 150 237
0.013883 -0.221445 0.057444 255 254 255
0.311896 0.116701 0.048682 255 255 255
0.215904 0.155505 0.037261 255 254 254
-0.092187 -0.109963 -0.095365 101 149 238
-0.059607 0.259237 0.057204 255 254 255
-0.002879 -0.243640 0.022703 255 255 254
-0.106606 0.212561 0.040739 104 149 234
0.155436 0.166003 -0.006506 255 255 254
-0.070918 0.262930 0.057316 255 255 254
-0.022040 0.240938 0.046215 255 255 255
0.255297 0.139154 0.047702 254 255 255
-0.110137 0.152458 0.038472 103 151 236
-0.059238 -0.258434 0.059584 254 255 254
0.166195 0.174433 -0.004575 255 254 255
-0.109955 -0.110126 -0.086537 102 151 236
0.267548 -0.112423 0.022655 254 255 255
-0.102892 -0.157153 0.047351 102 150 238
-0.114004 0.236506 -0.079715 103 151 238
0.141025 0.186082 0.011073 255 254 255
0.168259 0.170522 0.061813 254 255 254
0.157695 0.178249 0.039214 255 255 255
-0.027308 -0.242612 0.017212 255 255 254
-0.053814 -0.254754 0.028360 255 255 254
-0.094477 0.055649 -0.017538 103 150 238
-0.004011 0.234140 0.029821 255 255 254
-0.094306 0.204711 -0.001111 101 149 235
-0.095517 -0.167986 -0.044501 103 149 237
-0.092328 0.125869 -0.075982 100 149 237
0.087560 -0.196308 0.038911 253 255 253
-0.094867 0.034942 -0.030029 103 151 238
0.002398 0.242442 -0.016956 255 255 254
0.126661 0.179669 0.020924 253 255 253
-0.068589 -0.258318 0.040345 253 255 254
-0.107686 0.160048 -0.052632 100 149 239
0.106298 -0.177245 0.018976 254 255 255
-0.107586 -0.224873 -0.063999 101 149 238
-0.107928 -0.102489 -0.020378 101 149 237
0.331986 0.109357 0.017615 255 255 255
-0.052704 -0.269809 -0.028905 255 255 255
-0.111109 -0.103197 -0.069501 102 150 238
-0.093652 0.025654 0.004813 101 148 237
0.090761 -0.193760 0.028294 254 255 254
-0.111495 0.079591 -0.044759 102 150 238
-0.109316 0.054124 -0.023411 135 137 144
-0.111319 0.204670 -0.084789 102 148 235
0.195037 -0.135812 0.058014 254 254 255
-0.095063 -0.248748 0.024981 103 151 237
-0.108476 -0.150336 0.010814 102 151 237
0.049135 -0.204634 -0.003343 255 255 255
0.342865 0.107829 0.012372 254 255 255
-0.094415 -0.068413 -0.008698 101 149 236
0.191991 -0.135320 0.012362 255 255 255
-0.094956 0.206934 -0.032571 100 148 238
0.204802 0.159589 0.030747 255 255 255
0.194201 0.166225 0.039075 254 255 255
-0.090832 0.155774 -0.063854 102 149 236
0.300528 -0.096940 0.038096 255 255 255
0.018940 -0.217377 0.063029 254 254 255
-0.091695 -0.085475 0.023953 103 153 238
0.266025 0.123501 0.007346 255 255 255
-0.093983 0.285841 0.005396 102 150 238
-0.097119 -0.288303 -0.031148 103 150 235
-0.107163 0.203419 -0.032145 101 149 237
0.069627 0.215631 -0.002527 255 255 254
-0.109232 -0.165810 0.004660 101 150 236
0.197073 0.162731 0.052797 255 255 254
0.127402 -0.165185 0.035765 253 253 254
-0.090534 -0.281549 0.008080 255 255 255
-0.092133 0.100074 -0.089986 102 151 238
0.139277 0.179944 -0.017529 255 255 255
0.240603 0.145225 0.028488 254 255 255
-0.102423 -0.261776 0.031997 100 149 238
-0.109178 0.112405 0.009385 101 149 237
-0.012045 0.248775 -0.002923 255 254 255
-0.094160 0.117742 -0.002298 103 150 238
-0.096255 -0.098591 0.018787 102 149 236
-0.109236 -0.159163 -0.041679 102 149 237
0.281855 -0.090982 0.046032 255 254 255
-0.053388 0.254140 -0.027688 255 254 255
-0.048440 -0.263901 0.015335 255 254 254
-0.108744 -0.084087 -0.068615 101 149 236
0.357003 -0.060282 0.034424 254 254 254
-0.088625 0.157572 0.038423 103 150 236
-0.002916 0.245058 0.056421 255 255 255
0.138648 0.189052 0.004331 254 255 255
-0.108165 -0.234933 -0.024048 101 148 235
0.254893 0.140937 0.065758 254 255 255
0.025689 -0.215627 0.047434 255 255 255
-0.086648 -0.272078 -0.006692 255 255 255
-0.108172 0.153859 -0.048395 101 149 236
-0.108555 0.225678 0.041084 100 149 236
-0.112825 0.111738 -0.086620 101 149 236
0.362639 -0.057994 0.053825 253 254 254
0.361992 0.088629 0.026296 254 255 255
0.141250 0.184653 0.014037 254 254 255
-0.107678 -0.095985 -0.026423 103 151 239
-0.094528 0.039564 -0.001837 102 150 236
0.036231 0.217221 0.028010 255 254 254
0.167072 0.173945 0.036540 255 255 255
-0.093449 -0.204727 -0.050185 103 150 238
0.060144 0.206878 -0.020660 255 255 255
-0.109433 0.162400 -0.059886 102 150 237
0.132202 0.191740 0.005870 254 254 255
0.137090 0.174497 -0.004379 254 254 254
-0.094342 -0.121852 -0.078088 100 150 238
-0.112108 0.153142 -0.078476 100 149 238
0.168577 0.162737 0.027005 254 255 254
0.137370 -0.173172 0.000271 254 254 255
0.318863 -0.075571 0.038267 255 254 254
0.027786 0.231906 0.028984 253 254 255
0.239354 0.132296 0.004144 254 255 255
-0.112104 0.185218 0.003648 101 150 236
0.081789 0.197515 0.029446 255 255 255
0.074458 -0.203630 0.004405 254 255 255
-0.104557 0.227696 -0.084697 103 151 239
0.015330 0.226854 -0.017758 254 255 255
-0.090258 -0.236235 -0.037487 100 150 237
-0.094794 -0.198117 0.051229 102 150 236
-0.094330 -0.063699 -0.056673 101 149 236
-0.086026 -0.282544 0.020595 255 255 254
0.084141 0.201377 0.018621 255 255 254
-0.043534 -0.261925 -0.021383 255 255 255
-0.107263 0.221862 0.042906 101 149 236
-0.095435 -0.141517 0.038963 102 149 238
0.033389 -0.223494 0.016954 212 211 205
-0.113171 0.083465 -0.084130 103 150 237
-0.110089 -0.162560 -0.059134 100 150 238
0.189570 -0.136568 0.001812 255 255 255
0.020852 -0.231781 -0.011118 255 254 254
-0.108667 -0.269195 -0.069149 102 149 238
0.354601 -0.077097 0.051592 254 255 255
-0.093850 0.144798 0.013566 100 148 234
0.042416 0.215395 0.013913 254 254 255
0.185526 0.167297 0.023163 254 255 255
-0.111662 -0.088581 -0.009560 102 149 236
0.115240 0.186063 0.036851 255 255 255
0.073221 -0.204697 0.000426 255 255 255
-0.104935 -0.284668 -0.022139 102 150 238
0.266713 0.123949 0.035726 255 255 255
-0.110605 -0.121651 -0.096040 101 150 239
-0.108104 -0.165510 0.003775 103 150 237
-0.094724 -0.076474 -0.056521 131 139 148
0.021952 0.222868 0.031823 255 255 255
-0.111344 -0.230629 0.038100 102 151 238
-0.097197 -0.241038 -0.015396 101 150 239
-0.094653 0.081361 -0.019005 103 150 236
0.065333 0.206021 0.018806 254 255 254
-0.100749 -0.047474 -0.065719 100 148 237
0.102152 -0.177504 0.036183 255 255 254
-0.093436 0.152624 -0.090743 101 150 238
-0.057338 -0.268648 0.000551 255 255 255
-0.095554 -0.191099 -0.011836 103 151 236
0.189181 0.166823 0.014286 255 254 255
-0.088189 0.205965 -0.084650 101 148 237
0.026183 0.231761 0.039096 255 254 255
0.048747 0.224333 -0.010320 254 255 254
-0.108912 0.245131 -0.044949 101 149 238
0.276938 -0.092159 0.058943 255 255 255
-0.105064 0.094574 0.037032 102 150 239
-0.108335 -0.195263 0.053787 102 150 239
-0.095239 -0.283127 -0.002492 100 149 239
-0.109211 -0.206151 0.055168 101 149 236
-0.108827 0.260501 -0.053329 102 150 238
0.022371 0.218700 0.055463 255 255 255
-0.093713 -0.056217 0.022567 101 149 237
-0.107742 -0.052837 -0.073288 100 150 238
0.238042 -0.112982 0.033853 255 255 255
-0.110606 -0.039528 -0.014633 100 149 238
-0.108957 -0.080934 0.025849 102 149 235
-0.094333 0.058753 0.027436 102 150 238
-0.111338 -0.136766 0.025765 103 150 239
0.353139 0.089678 0.044903 255 255 254
-0.106752 -0.080927 -0.077032 102 149 237
0.007907 -0.224483 0.039673 254 255 255
-0.094321 -0.162660 -0.040671 102 150 237
0.265415 -0.112797 0.027051 255 255 255
0.073974 0.209636 -0.001656 255 255 255
-0.057972 0.266028 0.023736 255 255 255
0.034215 0.217189 0.057407 255 254 254
-0.096002 -0.145682 -0.028864 101 149 239
0.048617 -0.205082 0.002453 255 255 255
0.236842 0.147205 0.060402 254 255 255
0.317427 0.114004 0.022739 253 254 255
-0.094754 0.239863 -0.018422 102 149 237
-0.110893 -0.244550 -0.068075 102 150 237
0.120919 0.192890 0.046405 255 255 254
-0.096365 -0.039876 -0.024838 101 149 238
-0.108208 -0.240653 0.015090 100 149 237
0.240460 0.135457 0.022594 255 254 255
0.038982 -0.209855 -0.013224 254 255 255
0.059411 0.208083 0.021774 255 254 255
-0.053096 0.254296 0.007917 255 255 254
0.121463 -0.179426 0.053337 255 255 255
-0.108487 0.263519 -0.033031 101 149 238
-0.102355 0.049699 0.034329 103 149 238
-0.109224 0.235212 0.012720 100 148 237
-0.096775 -0.120963 0.006184 133 136 143
-0.098713 0.070415 -0.097033 102 149 238
-0.109664 -0.104055 -0.095385 102 149 236
0.366017 0.095068 0.062875 254 254 255
0.082212 0.209133 0.034809 255 255 255
-0.095290 -0.231186 0.030558 101 149 237
0.209044 -0.139398 0.053406 255 254 255
0.311765 0.116893 0.004200 253 253 254
0.005249 0.226017 0.057558 255 254 254
-0.110442 -0.231748 -0.067695 100 147 232
-0.089654 0.242445 0.050883 100 149 238
0.106612 -0.187028 0.002957 255 254 255
-0.114026 -0.163256 -0.077876 101 151 238
-0.109147 0.097223 -0.037802 103 150 238
-0.112324 -0.186366 0.042835 101 151 238
-0.066224 0.272797 0.051978 254 254 254
-0.111472 0.196748 0.028531 100 150 236
0.193321 -0.132519 0.004851 255 255 255
-0.096473 -0.167720 -0.044713 103 150 239
0.055125 0.209137 0.057122 255 255 255
-0.112290 -0.145479 -0.008836 101 150 238
-0.018938 0.253420 -0.026346 255 255 254
0.117168 -0.170067 0.004375 255 255 255
0.340404 0.094649 0.053108 254 255 255
0.087668 -0.184322 0.045031 255 254 255
-0.032860 0.256884 -0.002541 255 254 255
0.364135 0.088969 0.029886 255 255 255
-0.107758 -0.110142 -0.061493 101 148 234
-0.037309 0.247499 0.045422 255 255 255
-0.011152 -0.245715 0.052339 254 254 255
-0.111695 0.162008 0.006701 101 150 236
-0.095458 -0.078081 -0.069640 101 151 238
0.026788 -0.227314 0.038595 255 255 254
0.227719 -0.118187 0.032276 255 255 254
-0.075045 0.262769 -0.023226 255 255 255
0.321237 0.108424 0.061422 255 255 255
0.083516 -0.183678 -0.010940 254 254 255
-0.105859 -0.037516 -0.034822 100 149 239
-0.085863 -0.282014 -0.010849 255 255 255
0.126580 0.182577 -0.013808 255 255 255
-0.046659 -0.252170 -0.016045 254 254 255
-0.114332 0.027691 0.006601 101 150 237
-0.095644 -0.084801 -0.026089 103 150 238
0.036681 0.225191 0.005808 255 255 254
0.238549 -0.126013 0.011527 255 255 255
-0.092143 0.275873 -0.042412 102 149 237
-0.103632 0.243973 0.052869 102 150 237
0.196162 -0.132730 0.026194 255 255 254
-0.046591 0.262897 0.034467 255 255 255
-0.018511 -0.250689 -0.000220 255 255 254
-0.096954 -0.248357 -0.014879 103 151 239
0.026044 0.221417 -0.017768 254 255 255
-0.093810 -0.162041 -0.085924 101 149 238
-0.108243 0.133522 -0.028158 103 151 236
-0.111311 0.086900 -0.069411 101 150 237
-0.095526 -0.252881 -0.051103 103 151 238
-0.111804 -0.130084 0.038535 103 151 237
0.149094 -0.166868 0.036089 255 255 254
-0.004931 0.235115 0.015794 255 254 255
-0.108172 -0.155970 0.003358 102 150 238
-0.092749 0.235594 -0.042807 101 149 238
-0.108610 0.168095 -0.065058 102 149 237
-0.026130 0.252815 -0.027470 254 254 255
0.282990 0.125497 0.025594 255 255 255
-0.108266 -0.227560 -0.037574 103 150 239
0.278337 -0.094649 0.007613 255 254 255
0.072448 0.200895 0.059243 254 254 255
0.221136 0.147798 0.004371 255 255 254
-0.098772 -0.285755 -0.043173 103 150 238
-0.098909 0.011054 -0.005052 103 150 236
-0.021606 0.251936 0.028284 255 255 255
-0.094080 -0.240917 0.053298 102 150 237
-0.095213 -0.228749 -0.047448 104 134 185
0.018076 -0.230274 0.054464 254 254 255
-0.112816 -0.123072 -0.042456 102 149 238
-0.107863 -0.271719 0.038096 103 149 234
-0.111139 -0.205217 0.031311 102 149 238
-0.109719 -0.058536 -0.050700 103 151 238
0.147063 0.183641 -0.009181 254 254 254
0.032645 0.216889 0.059547 254 254 255
0.189067 0.153612 0.055977 255 255 255
-0.004468 -0.244287 -0.007463 255 255 254
-0.088720 0.122526 -0.093522 102 149 237
-0.109582 0.057321 0.029700 103 150 238
-0.093006 -0.195142 0.010274 102 150 239
-0.091057 0.204999 0.043250 101 149 235
0.190850 -0.133012 0.058145 254 255 255
-0.038846 0.249294 -0.027122 254 255 255
-0.107898 -0.073567 -0.020814 100 149 237
0.282170 -0.104523 0.019468 255 255 254
-0.050092 0.251963 0.057885 255 255 255
-0.094668 -0.109604 -0.039575 100 148 237
-0.094440 0.284713 -0.009142 101 146 231
0.183346 0.168173 0.030463 254 255 255
-0.108138 0.071666 0.023198 103 151 238
0.090170 -0.197559 -0.010107 255 255 254
-0.006656 0.246435 -0.012726 254 255 255
-0.109938 0.037641 -0.078717 103 151 238
-0.110569 -0.135051 0.037939 102 150 237
-0.108577 -0.086483 -0.003016 101 149 237
0.081514 0.208777 0.053782 254 255 254
0.356454 -0.061124 0.046508 255 255 255
-0.096743 -0.046788 0.026996 101 150 236
-0.103329 0.056823 0.036278 101 150 238
0.041180 -0.218715 -0.019723 255 255 255
0.256569 -0.104224 0.032413 255 254 254
0.163107 0.168460 -0.002401 255 255 255
-0.111715 0.024292 -0.049160 101 149 236
-0.091371 0.057691 -0.091650 103 150 237
-0.094794 0.091920 -0.075215 101 151 237
0.313209 -0.085673 0.059725 254 255 255
-0.027026 0.246901 0.060053 255 255 255
0.355334 -0.066648 0.062395 254 255 255
-0.112299 -0.088454 -0.065250 102 151 238
-0.108895 -0.232580 -0.027722 102 150 237
-0.088243 0.167672 0.048439 103 151 239
-0.091724 -0.098337 -0.087496 102 150 237
0.120967 -0.182020 0.038139 254 255 255
0.191968 0.161301 0.054813 255 255 254
-0.094353 -0.199755 -0.059350 102 149 237
0.087684 0.206433 0.036386 254 255 254
0.220938 -0.121177 0.025225 254 255 255
0.029983 0.220472 0.023246 255 255 255
0.076211 -0.201274 -0.000164 255 255 255
-0.107355 0.149016 -0.050354 102 149 238
-0.094441 0.123176 -0.041976 101 150 237
-0.050186 -0.253547 -0.015289 255 255 254
0.183170 0.168081 0.034183 255 255 254
-0.107848 -0.142821 -0.054835 101 149 238
-0.105121 0.036165 0.033663 103 151 238
0.153501 -0.158576 -0.004839 255 254 254
-0.094890 0.140439 -0.021186 102 149 237
-0.110884 -0.201392 0.007204 101 149 238
0.210973 -0.139316 0.017722 254 255 255
0.298656 -0.098182 0.055747 254 254 255
0.135549 -0.161827 0.017970 255 255 255
-0.108960 -0.177393 -0.008111 102 150 238
0.007433 -0.235747 -0.016347 255 255 255
0.005075 0.229178 0.031999 255 255 255
-0.095607 -0.233231 0.047490 103 150 236
-0.094722 -0.086468 0.027953 100 149 237
0.045364 0.211921 0.055864 255 255 255
-0.057083 -0.267405 0.038435 255 255 255
0.075929 -0.188474 0.003275 255 255 255
0.004556 0.241477 0.014123 255 255 254
0.068737 -0.194282 0.027632 255 255 255
0.068342 0.203005 0.044001 255 255 255
-0.108108 -0.165311 0.012476 103 150 237
-0.094802 0.119131 -0.016117 134 140 147
-0.112237 -0.175849 0.026714 101 149 238
0.115369 0.184685 0.054848 255 255 255
0.232933 -0.128441 0.049163 255 255 255
0.317112 -0.075978 0.039671 254 255 255
-0.088956 0.116222 -0.094797 103 151 238
-0.109378 0.039258 -0.059432 100 150 239
-0.094729 0.027814 -0.000354 102 151 237
-0.063129 0.271155 0.019512 255 254 255
-0.022344 0.252777 0.006891 255 255 254
-0.019339 -0.236476 0.057087 255 255 255
-0.074754 -0.276800 0.060754 254 255 255
-0.115804 -0.144571 -0.053314 101 149 239
-0.107435 -0.242948 -0.042704 101 149 237
-0.108871 -0.205017 -0.035332 103 150 238
0.031665 0.227259 0.061053 254 254 254
-0.101432 0.165665 0.047329 101 150 238
-0.111125 -0.270889 -0.063862 102 150 237
0.045662 -0.210981 0.060323 255 255 255
-0.092328 0.100909 0.035749 129 138 151
-0.097355 -0.191729 0.027714 101 150 237
-0.024854 0.242783 0.035903 255 255 254
0.239343 -0.113070 0.058860 255 255 255
0.092187 0.191811 0.050964 254 255 254
-0.095975 -0.099719 0.008496 102 150 236
-0.107198 0.155917 0.045597 103 150 238
-0.003751 -0.232528 -0.014544 255 255 254
-0.033699 -0.257751 -0.004623 255 255 254
-0.094950 0.239306 -0.050594 100 149 237
0.183469 -0.146807 0.060657 255 255 254
0.036461 -0.211032 0.014685 254 254 255
-0.091894 0.281457 -0.044254 136 139 149
-0.093249 0.093082 0.037967 103 150 238
-0.067441 -0.272903 0.003281 254 255 254
0.114217 -0.171676 0.013720 254 255 255
0.111135 0.194232 0.040230 254 255 255
-0.094572 0.124128 0.005034 102 150 237
-0.056685 -0.263002 -0.024802 254 255 254
0.021232 0.220856 0.043151 255 255 255
-0.093889 0.239106 -0.012087 101 151 239
0.152265 -0.153192 -0.004396 254 255 255
-0.094646 0.054563 -0.024389 103 151 238
-0.057061 0.266424 0.036615 255 255 254
-0.095588 0.111641 -0.060261 100 148 234
-0.092540 0.030922 -0.045933 101 148 236
0.119821 -0.168605 0.018567 254 255 254
-0.097337 -0.183278 -0.020265 100 150 238
-0.054537 0.270726 -0.031030 255 255 255
-0.091722 0.218224 -0.002361 101 150 236
-0.092366 0.104710 0.007824 102 150 238
0.154554 0.167221 0.055763 255 255 254
0.022281 -0.232628 -0.020441 255 254 255
0.162349 -0.148366 0.035782 254 254 255
-0.108736 -0.177186 -0.033256 101 148 238
0.184311 -0.151184 0.026255 254 255 254
-0.108312 0.034603 -0.022570 102 149 236
-0.095371 -0.176719 -0.002606 100 149 236
-0.100594 0.242704 -0.079805 101 150 239
-0.031023 0.256627 -0.011560 255 255 255
-0.097763 -0.277789 0.026858 100 150 237
-0.095253 0.220715 0.020543 103 151 237
-0.068944 0.271831 0.026658 255 255 254
0.200176 -0.143992 0.008490 254 255 255
-0.003866 0.231700 0.054915 255 255 254
-0.026171 0.255200 0.060141 255 255 255
0.350162 0.090520 0.041533 255 254 255
-0.102034 -0.035259 -0.010963 100 148 237
-0.089719 0.230642 -0.017653 103 150 236
-0.095471 -0.146053 0.033641 102 149 238
-0.096971 -0.248421 0.027603 101 149 237
0.007601 0.240323 0.004798 254 255 255
0.030818 0.219349 0.027516 254 255 254
0.230287 -0.115741 0.060793 255 254 255
0.082601 -0.197879 0.032161 255 255 255
-0.094539 0.076523 -0.089730 100 149 239
0.262589 -0.101342 0.044339 254 255 255
0.347816 0.096665 0.059741 254 255 255
0.214320 -0.124808 0.021100 254 254 255
-0.092057 0.276610 -0.010007 103 149 237
-0.111794 -0.284655 -0.003967 102 151 238
-0.109951 0.028507 -0.025072 102 150 236
0.069208 -0.206489 -0.003530 254 255 255
-0.106781 0.195722 -0.004105 103 151 238
0.125740 -0.179768 -0.006727 255 254 255
0.059630 -0.210755 0.025959 255 255 255
-0.097889 0.046124 0.034166 101 150 238
-0.095560 -0.274621 0.048853 255 254 254
0.011382 -0.237310 -0.007662 255 255 255
-0.012078 0.249000 -0.007373 254 254 255
-0.108155 -0.108033 0.006164 101 149 237
0.035778 0.229562 -0.010579 254 255 255
0.185522 0.166770 0.008450 254 255 255
-0.081305 -0.267739 0.050196 254 255 255
-0.036935 -0.246304 0.030466 254 255 254
-0.018259 0.241404 -0.007345 254 254 255
-0.012883 -0.234580 0.043538 254 255 255
-0.093267 0.164932 0.024111 101 149 237
-0.103062 -0.112044 -0.084395 101 150 238
-0.014139 -0.237628 -0.010998 254 254 254
0.066214 -0.192549 0.057906 255 254 255
-0.096903 -0.180173 -0.050012 100 149 238
0.038929 0.227890 -0.017095 255 255 255
-0.108865 0.203289 0.033771 102 150 236
0.123683 0.181514 0.002222 255 255 254
0.160083 0.172451 -0.003150 253 255 253
0.062204 -0.204726 0.042123 254 255 254
-0.095048 -0.075599 0.012538 102 150 238
0.217309 0.144954 0.022054 253 254 254
0.212683 0.152035 0.032328 255 255 254
0.081414 0.199479 0.013600 255 255 254
-0.108783 0.066050 -0.008982 101 150 239
0.329679 0.098504 0.035761 255 254 255
0.016824 0.223169 0.050611 255 255 254
0.017764 -0.223316 -0.026841 254 254 254
0.145010 -0.168996 0.013791 255 255 255
0.268432 -0.109997 0.016277 254 255 255
0.239565 0.144925 0.055324 255 255 255
-0.064138 0.269864 -0.026520 255 255 255
-0.092330 0.219933 0.032158 100 149 236
0.052499 0.213188 -0.024974 255 255 255
0.245721 0.132293 0.031228 255 254 255
0.007852 0.234733 -0.027999 255 255 254
-0.109377 -0.040110 -0.022295 102 150 237
-0.038263 0.248347 0.021007 254 255 254
-0.109794 -0.063485 -0.009782 102 150 237
0.080794 0.208899 0.032912 255 255 254
-0.110027 0.233001 -0.033650 102 149 238
0.143645 0.185026 -0.004859 255 255 255
0.181587 -0.149101 -0.003029 254 255 255
0.216747 0.154831 0.036907 255 255 255
0.205699 0.151887 -0.004098 255 255 255
0.142688 0.170438 -0.010432 255 254 254
-0.094476 0.108559 -0.057429 100 148 237
-0.091505 0.233292 0.008651 101 149 238
0.079449 0.209676 0.036475 254 255 255
0.102372 -0.177454 0.007018 255 255 255
0.102231 0.200712 0.034768 255 255 255
-0.107781 0.101173 0.024429 101 150 238
-0.110902 -0.195913 -0.064882 102 149 237
-0.093367 -0.254040 0.015327 100 150 236
-0.096007 -0.245945 -0.015222 103 150 237
0.143027 -0.164280 0.007695 205 202 201
-0.027204 0.257152 0.010500 254 255 255
-0.109429 -0.108168 0.028092 102 150 238
0.231116 0.138289 0.032099 254 254 254
0.157049 0.180526 0.000482 253 255 254
-0.107574 0.129170 -0.036934 102 150 236
-0.093834 -0.049265 -0.021112 101 150 238
0.122580 -0.181660 0.059417 253 255 254
-0.107479 -0.267896 0.014732 100 150 238
-0.096523 -0.156516 -0.041396 103 150 239
0.117802 -0.184607 -0.008513 254 254 255
-0.094177 -0.180115 -0.059964 101 150 238
0.238402 -0.126158 0.055845 254 255 255
0.128479 -0.178519 -0.012062 255 255 255
0.160730 0.178562 -0.003884 255 255 255
0.142320 -0.159934 0.061142 255 255 255
0.393837 0.084136 0.052913 254 254 255
0.078318 0.205680 0.057742 255 255 255
-0.108751 0.154423 -0.077757 102 149 237
0.020831 -0.232062 0.013655 254 254 254
-0.108471 0.096689 -0.036562 101 150 239
0.317125 0.114740 0.038207 255 254 255
-0.103143 -0.041497 -0.055514 102 149 239
-0.106827 -0.179528 -0.090358 102 150 239
0.112347 -0.171864 0.047907 255 254 254
0.334202 -0.082856 0.026368 255 255 255
0.198778 -0.143993 0.046830 255 254 255
0.037806 -0.221374 0.044460 254 255 255
0.037085 -0.210958 -0.022150 254 254 255
0.114597 0.183818 0.015728 255 255 254
0.059705 -0.197841 0.036564 253 254 255
-0.093994 0.098224 0.037788 101 149 238
0.232957 0.138365 0.024054 255 255 255
-0.094000 -0.210411 0.029536 102 151 238
0.172108 0.163684 0.048834 255 255 254
0.197919 -0.132054 0.034134 255 255 255
-0.089993 0.194590 -0.001438 101 149 235
-0.094646 -0.177726 -0.020615 102 149 237
-0.112574 -0.166982 -0.005804 102 151 238
-0.096327 -0.208453 -0.071490 102 150 236
0.026685 -0.224574 -0.023252 255 254 255
-0.012705 -0.248219 0.029519 255 255 255
0.177430 0.159500 -0.003132 254 254 254
0.066541 0.205132 0.025388 255 254 255
-0.109444 -0.234881 0.047567 101 149 236
0.017540 -0.235341 -0.012745 254 255 255
-0.094597 -0.209461 -0.050655 101 149 237
-0.108744 -0.067104 -0.063516 103 149 235
0.050595 -0.217207 0.006143 255 255 255
-0.074976 -0.266463 0.032302 255 255 255
0.011052 -0.223025 0.027102 254 255 255
0.294472 0.122957 0.053812 255 255 255
-0.107957 -0.143180 -0.054407 103 151 237
0.285269 -0.089434 0.024640 254 255 254
-0.022404 0.254070 0.015858 255 254 255
-0.109391 0.217909 -0.064938 101 148 238
0.002470 0.241811 0.022647 255 255 255
-0.087613 0.199461 -0.029868 102 150 238
0.209057 0.158627 0.001226 255 255 255
0.151150 0.180134 0.036127 255 254 254
0.041772 -0.204574 0.051216 255 255 255
-0.099079 0.193595 0.056203 102 149 236
0.075385 -0.190718 0.062512 255 255 255
0.343426 0.106849 0.058331 255 255 255
0.138486 0.180859 -0.012248 254 255 255
-0.090581 0.278062 -0.014016 255 255 255
-0.025931 -0.251893 0.052287 255 254 254
0.381795 0.086110 0.033600 255 255 254
-0.042142 -0.248036 0.017398 254 255 254
-0.094680 -0.156341 -0.022372 101 149 237
-0.094708 0.157452 -0.017289 103 149 237
-0.037720 -0.248133 -0.013451 255 255 255
0.333281 0.107045 0.063608 254 254 254
-0.108485 -0.102963 -0.020845 101 150 238
-0.094208 0.152469 -0.021201 100 150 236
0.049894 0.214916 -0.025453 254 255 254
-0.111159 0.169056 -0.085199 101 148 236
0.267102 0.124551 0.062629 255 254 255
0.181437 -0.152038 0.052509 255 254 255
0.346819 0.092255 0.058754 255 254 254
-0.111016 0.120000 0.002003 102 149 237
-0.059568 -0.255667 0.036249 255 255 255
-0.092504 0.033738 -0.063829 101 149 239
0.077978 -0.201924 0.012751 255 254 255
0.147223 -0.170240 -0.007313 254 254 255
-0.093464 0.066592 0.036505 104 150 233
-0.110586 0.212934 -0.075058 102 150 239
-0.094656 0.057764 -0.034064 101 149 238
0.328357 -0.085287 0.035208 255 255 255
0.146013 0.176661 0.061355 255 255 254
-0.108581 -0.279115 -0.036134 100 149 238
0.181701 -0.140157 0.011862 255 255 255
0.038918 0.227279 0.060441 255 255 255
-0.095047 0.089237 -0.045414 101 149 236
0.131583 -0.160374 0.061964 255 255 254
-0.111884 0.064787 -0.075406 100 150 238
0.138987 0.172248 0.057848 254 254 255
-0.095964 -0.163560 -0.049081 100 150 237
0.212008 -0.138602 0.008443 255 254 255
-0.026153 -0.242184 0.059247 255 255 254
-0.112588 0.236145 -0.016624 101 151 238
-0.041913 0.261345 0.005504 254 254 254
-0.108644 0.085859 -0.071420 102 149 237
-0.108539 -0.193144 0.054432 103 150 238
0.348908 0.091854 0.026045 255 255 255
0.063008 -0.197368 0.052679 255 255 255
-0.014004 0.245755 0.058459 255 254 254
0.029834 0.221012 -0.005255 254 255 254
0.336852 0.106267 0.035559 255 255 255
-0.110250 0.036032 0.014793 103 150 238
-0.097017 0.188094 0.049506 102 150 238
-0.108531 0.021793 -0.017469 102 149 236
0.178117 0.158210 0.015577 255 255 255
0.257763 0.128697 0.000972 254 254 254
0.131251 -0.162503 0.018082 254 255 255
0.081116 -0.201869 0.017294 254 255 254
0.189272 0.165559 -0.000089 254 254 255
0.087859 -0.189395 0.060481 254 255 255
-0.002360 -0.228181 0.014282 255 255 255
0.043654 0.223986 0.042986 255 255 254
0.288972 0.120435 0.061642 255 255 254
-0.005567 -0.231161 0.036391 255 254 255
0.332204 0.097726 0.045535 254 255 255
-0.086044 0.166766 -0.022128 102 149 236
-0.018190 -0.250475 0.002503 254 255 255
-0.108558 -0.274810 0.033362 102 151 237
-0.066981 0.257203 0.052496 255 254 254
-0.093139 0.067781 -0.086974 102 151 239
0.106352 -0.184692 0.061027 255 255 255
-0.065437 0.257113 0.003619 255 255 255
0.033816 0.229794 0.015662 255 255 255
-0.041753 -0.248312 0.035178 255 255 255
-0.094676 0.199805 0.009049 103 151 238
-0.110229 -0.250057 0.013105 102 149 237
0.271785 -0.101810 0.028785 255 255 255
-0.091706 -0.198616 -0.022376 101 149 237
0.257653 -0.104135 0.041983 254 255 255
-0.110984 -0.079506 0.025976 102 150 238
-0.094804 0.124212 -0.081383 101 150 236
0.107800 0.186977 0.050753 255 255 254
-0.104855 0.159650 0.038951 101 149 238
-0.095232 0.085407 -0.036346 102 151 237
0.245528 0.140966 0.057451 254 255 255
0.185610 0.156407 0.033763 255 255 255
0.135210 -0.161636 -0.000820 253 254 254
0.009322 0.238351 0.058883 254 254 254
-0.108784 0.101294 -0.001180 101 149 236
0.242697 -0.123616 0.016306 255 255 254
-0.083579 -0.264621 0.053589 253 255 254
0.026489 0.222232 -0.016572 254 255 254
-0.095298 0.272827 -0.063371 100 148 235
0.189883 0.168099 0.052532 255 255 255
-0.095084 0.083292 0.016130 100 149 238
0.172966 0.171886 0.038713 255 255 255
-0.094849 -0.096145 -0.070064 101 149 238
-0.095060 -0.071037 -0.000614 101 150 238
-0.110065 0.012335 0.007665 102 150 237
-0.092419 0.184125 -0.081037 100 148 238
-0.043859 0.248497 0.015951 255 255 255
-0.002462 -0.240590 0.034480 254 255 254
-0.026045 -0.240785 0.055222 255 255 255
-0.107900 0.134297 -0.049395 100 150 237
-0.093737 -0.139747 -0.068041 100 150 239
-0.096572 -0.174517 -0.027691 101 149 238
-0.101752 -0.082725 0.034500 101 149 237
0.228026 0.150246 -0.002566 254 254 254
-0.044771 0.262749 -0.013297 254 255 255
0.166853 0.165851 -0.006029 255 254 254
-0.042095 -0.248457 -0.009645 254 254 254
-0.021201 -0.252837 0.013613 255 253 254
-0.063734 -0.271615 0.020492 255 255 255
0.315632 0.116373 0.044932 254 254 255
-0.109618 0.224671 -0.067356 102 150 235
-0.108755 0.024347 -0.053152 102 150 236
0.138314 0.186367 0.061619 255 255 255
0.129354 -0.164830 -0.001026 255 254 254
0.122453 -0.175982 -0.013601 254 254 255
-0.093546 -0.071700 0.004674 100 150 238
-0.103510 0.256675 0.050025 103 150 237
0.214853 0.148754 0.015871 255 254 255
0.103727 -0.175711 -0.001529 255 255 255
0.232471 0.137094 0.000524 255 255 255
-0.095492 0.133445 -0.059958 102 150 239
-0.055180 0.251791 0.004530 255 255 255
-0.093664 -0.123618 -0.053354 139 143 149
-0.091730 -0.181634 0.033834 102 149 236
0.224414 -0.118114 0.024780 255 254 254
0.188022 0.165549 0.049052 254 255 255
-0.039074 -0.258066 0.044333 255 255 255
-0.083526 -0.273959 0.057850 254 255 254
0.020034 -0.230814 0.033522 254 255 255
-0.093806 -0.173004 0.009373 100 148 236
-0.103709 -0.055361 -0.077871 100 149 238
0.235123 -0.111773 0.053851 254 254 255
0.324067 -0.073091 0.016890 254 255 255
-0.108735 -0.186440 -0.044961 101 150 237
0.079750 -0.187252 0.054224 253 254 254
-0.095665 -0.094939 -0.028614 101 149 238
0.126674 0.190028 -0.011166 255 255 254
0.066829 0.205383 0.014177 255 254 255
-0.090388 0.222432 -0.054629 101 149 238
0.078000 -0.189950 -0.000757 254 255 255
0.042898 0.226493 0.009747 255 255 254
0.315729 -0.079289 0.001225 254 255 255
0.115951 0.182783 0.034807 255 255 255
-0.006581 0.245714 0.022581 255 255 255
-0.092923 0.250796 0.040982 101 149 237
-0.089677 -0.238241 -0.023989 102 150 238
0.360221 0.086708 0.009333 255 255 254
-0.089942 0.124547 -0.070765 100 150 237
0.139145 0.173646 0.044521 255 255 255
-0.057118 0.255906 0.025079 254 255 255
-0.037139 -0.247796 0.060916 255 255 255
-0.102954 -0.051255 -0.079287 102 149 237
-0.093747 -0.063524 -0.090026 100 149 236
-0.093850 -0.200958 0.039904 101 150 238
0.083041 0.204567 0.056456 254 255 255
