ply
format ascii 1.0
element vertex 1180
property float x
property float y
property float z
property uchar red
property uchar green
property uchar blue
end_header
-0.026699 0.261276 -0.025320 252 253 254
0.291223 0.139714 0.044804 254 255 254
-0.042159 -0.265523 0.033171 254 255 253
-0.091878 0.250074 -0.004184 105 135 192
0.033467 0.229862 -0.022044 254 255 255
-0.098758 -0.118882 0.046643 130 133 137
-0.072692 -0.252670 -0.035226 176 187 200
0.068195 -0.200758 0.044765 255 255 255
0.295627 -0.103121 0.023328 252 252 253
-0.007119 0.239410 0.053540 255 255 254
-0.009214 0.256552 0.036283 253 253 252
-0.097332 0.157908 0.049603 107 150 230
-0.031404 0.263316 0.058559 255 255 255
-0.102009 0.094683 0.024324 128 132 136
-0.075223 0.021913 0.025471 126 129 132
0.208446 -0.140309 0.018543 253 253 253
-0.094401 0.075481 -0.026522 107 137 193
0.051719 -0.222651 -0.026590 251 251 252
-0.095863 0.122792 -0.027203 135 140 145
-0.098012 -0.188166 0.054124 105 142 208
-0.101249 0.102471 0.019107 129 132 136
-0.095124 0.267044 -0.029108 107 138 195
-0.073761 0.246306 -0.076257 107 143 210
0.115982 -0.191563 0.049305 253 255 255
-0.097606 -0.051313 -0.055689 110 140 193
0.087273 0.203152 0.055760 253 254 254
-0.100440 -0.238350 -0.036146 127 130 134
-0.100976 0.123686 -0.086835 110 139 196
-0.079397 0.071910 -0.038344 106 147 221
-0.084220 0.189839 0.057151 106 149 231
-0.079429 0.242160 -0.025916 104 150 234
-0.079232 0.097291 -0.003473 105 140 203
-0.095123 -0.266051 -0.003081 106 150 227
0.007956 -0.227001 0.062603 253 254 252
0.047716 -0.223462 0.002092 254 254 252
0.193203 -0.157224 0.031181 254 254 253
0.035972 0.236180 0.039757 252 253 253
-0.093478 -0.092068 0.046985 134 136 142
-0.092828 0.029354 -0.006620 105 149 232
-0.079032 0.107734 0.036061 105 150 233
0.154566 0.181072 0.002991 252 252 253
-0.098783 0.135126 -0.066360 129 131 135
-0.075326 0.050046 -0.016914 105 139 203
0.084924 -0.199614 0.064037 253 253 253
0.107881 0.207887 -0.016012 253 252 253
-0.075517 -0.042846 0.007699 105 146 218
-0.099946 -0.257857 -0.036373 110 134 174
-0.073781 -0.274938 0.039282 255 254 255
-0.076663 -0.150251 -0.006117 105 135 189
-0.099272 0.201170 0.050476 113 136 177
0.068701 -0.199630 0.052469 253 254 253
-0.076224 0.210782 0.057656 107 144 209
0.105208 0.206495 0.058406 253 255 253
0.311146 0.130065 0.006787 254 254 255
0.133861 0.198234 0.013312 253 254 255
0.060983 0.212113 0.038018 255 253 253
-0.067249 -0.264172 -0.004335 252 253 254
-0.091538 0.082105 -0.085697 108 137 194
-0.063624 0.278364 0.032838 253 255 255
0.173004 -0.152705 0.047203 253 254 255
-0.076822 0.255754 -0.000021 107 147 219
-0.077469 -0.139081 0.034435 105 146 221
0.059081 0.214852 0.061069 253 253 254
-0.069411 0.193833 0.057646 143 147 153
-0.097091 -0.104384 0.002781 105 149 229
0.044830 -0.224785 -0.017469 253 254 254
0.107116 0.209183 -0.019223 253 254 254
0.213305 -0.137451 0.027941 252 253 253
-0.023101 0.246364 0.054641 254 252 254
-0.072401 -0.256217 0.038083 137 144 155
-0.095053 0.205951 0.048266 104 146 226
0.050701 0.229969 0.014795 252 252 254
0.270099 -0.124184 0.051899 254 253 253
-0.083128 0.018166 0.027264 105 150 233
-0.099703 0.067077 0.030019 106 147 225
0.329654 -0.090234 0.012026 253 254 253
0.179233 -0.163914 0.022809 253 254 254
-0.074805 -0.265270 0.038343 108 144 212
-0.094728 -0.065920 -0.036625 106 143 212
-0.072007 -0.275938 -0.039812 107 143 209
-0.100301 0.103188 -0.083673 108 153 235
-0.097007 0.229839 0.011074 109 141 202
-0.076496 -0.039389 -0.022737 104 148 226
0.040615 -0.213893 0.013788 255 255 255
0.188845 0.164913 0.061520 254 254 255
-0.101870 0.162410 -0.072159 107 144 212
-0.077161 -0.157028 0.000481 104 146 227
0.338269 -0.087672 0.038579 253 253 253
-0.097033 0.064946 -0.067291 128 134 139
0.217001 0.156616 0.047691 254 253 254
-0.094980 -0.207245 0.057569 106 148 221
-0.074923 0.144618 -0.042767 105 149 230
0.133080 0.198800 0.037478 254 254 255
-0.067144 -0.152090 -0.046399 135 136 142
-0.095978 -0.245843 -0.003351 105 136 190
-0.094523 0.193336 -0.084967 104 141 211
-0.054079 0.257852 0.061180 253 254 254
0.226742 -0.144426 0.065417 253 253 252
-0.081063 0.108225 -0.041584 104 150 233
0.161983 -0.160404 -0.011592 252 253 253
-0.077621 0.061620 -0.011547 106 139 201
-0.095412 -0.072069 0.023044 104 142 211
0.230639 -0.142535 0.049682 254 254 254
-0.009047 -0.237584 0.018559 253 252 254
-0.053411 -0.257326 0.053697 251 251 251
0.188090 0.181065 0.048061 253 253 254
0.109094 0.203289 -0.022022 253 254 255
-0.079267 0.079007 -0.061091 110 135 181
0.064297 0.210233 -0.018208 253 254 255
-0.088962 -0.040864 -0.041743 109 137 190
0.253626 -0.118022 0.029757 253 254 254
0.019799 0.230266 -0.000051 255 254 254
-0.101889 -0.092616 -0.082592 104 150 232
0.278731 0.144480 0.050439 255 254 255
-0.013550 -0.255147 0.019230 253 255 254
0.068308 -0.201407 0.022984 254 253 254
-0.075431 0.163555 -0.058584 115 129 152
-0.094404 0.174620 -0.010954 103 149 232
-0.103322 -0.200385 -0.070801 105 138 200
-0.076552 0.041113 -0.039006 126 130 135
-0.077677 0.109326 -0.046170 107 142 210
0.054082 0.215467 0.011685 254 254 255
-0.092678 0.203029 0.049325 105 144 219
-0.095788 -0.106071 -0.080229 108 150 227
0.120052 -0.189052 0.031827 253 254 254
-0.076409 0.165879 -0.008719 116 131 155
-0.079699 -0.269071 0.002495 254 253 255
-0.083165 -0.276735 -0.019765 254 253 254
0.321292 -0.105955 0.056664 254 255 254
0.029451 0.225947 -0.015347 254 254 255
-0.094258 0.243828 -0.013703 104 149 232
0.161017 0.177021 0.014788 252 255 253
-0.093791 0.208358 0.030173 126 130 139
0.012560 -0.227887 0.028920 255 253 255
-0.105116 0.091820 0.012119 129 133 138
-0.085352 0.148201 -0.084238 109 137 188
-0.096518 -0.166119 -0.086564 108 140 198
-0.099875 -0.198647 -0.044170 131 134 137
0.150085 0.179236 0.012264 252 252 254
0.032037 -0.230848 0.002953 253 254 253
-0.099154 -0.186589 -0.023437 132 132 139
-0.030091 0.249561 0.016551 252 254 253
-0.022067 0.260016 0.048391 255 254 254
-0.034661 -0.248983 0.061360 255 255 255
0.062973 0.225297 0.002121 254 254 252
-0.038661 0.254325 0.004513 255 255 254
0.000542 0.251415 0.031549 253 253 254
-0.074302 -0.238414 0.061161 106 146 217
-0.062462 0.258353 0.006909 251 252 252
-0.095504 0.134644 0.041057 106 150 234
0.328125 0.126397 0.016628 253 252 254
0.257962 0.150875 0.000355 254 253 255
-0.073713 0.017735 0.010429 104 145 226
-0.076685 -0.198116 0.038222 108 150 227
0.168963 0.184895 0.025241 253 255 254
0.113785 -0.192678 0.056886 252 252 253
0.101096 0.213776 0.052218 252 253 252
0.305649 0.134270 0.041530 255 255 253
-0.097392 -0.193806 0.047840 107 149 225
0.214695 -0.148090 0.015010 252 253 253
-0.057386 -0.253294 0.052357 197 198 203
-0.071255 -0.209964 -0.072927 109 141 198
-0.078318 0.188882 -0.050333 106 145 214
0.209898 0.170002 -0.006069 253 253 254
-0.095658 -0.068721 -0.049035 114 137 180
-0.089076 -0.246240 -0.069756 123 129 140
-0.071036 -0.207435 -0.028430 104 140 205
-0.070473 -0.271449 0.035736 106 141 202
0.197738 -0.155375 0.060434 252 255 254
0.167141 0.186258 0.051118 253 254 254
0.250235 0.144432 0.027506 251 251 253
-0.078528 -0.172397 0.019123 104 150 233
-0.018235 -0.255000 -0.026884 253 254 252
0.232120 -0.142678 -0.006195 255 255 255
-0.068005 -0.280394 0.025359 252 255 252
-0.008303 -0.248821 0.055498 252 253 252
-0.098011 0.233713 -0.040620 130 131 139
0.086456 0.204116 0.063448 253 254 254
-0.100842 -0.056200 -0.009437 128 131 135
-0.068939 0.240593 0.049975 135 133 140
0.132350 0.185839 0.049967 255 254 253
-0.096160 -0.045281 -0.049397 104 147 227
-0.075838 -0.168652 0.042463 111 140 189
-0.016780 0.247091 0.062543 253 254 253
-0.096150 -0.055758 -0.067809 107 139 199
0.078873 -0.209285 0.021115 255 255 254
-0.101089 -0.165242 -0.038629 129 132 135
-0.048591 -0.268591 0.067105 252 252 251
-0.099515 0.093123 -0.043749 104 149 227
0.001028 -0.233325 0.002164 253 253 252
0.313930 -0.106128 0.021567 253 255 255
0.013980 0.245937 -0.006050 253 253 253
-0.095009 -0.229247 0.050983 108 144 210
-0.073278 0.239970 0.056796 109 140 196
0.176680 -0.169182 0.000646 255 255 255
-0.032655 0.264232 -0.035922 254 252 253
-0.090526 0.113623 -0.087047 106 150 232
0.223792 -0.132027 0.032075 254 255 255
-0.101072 0.223307 -0.073685 126 128 134
0.080990 0.205048 -0.018921 252 253 253
0.145560 -0.167945 0.031470 255 255 255
-0.074086 -0.265111 0.015103 252 253 253
-0.003163 0.238707 0.012251 255 254 255
0.094025 0.200901 0.042823 254 255 254
0.218576 0.152722 0.054433 255 252 254
-0.049830 -0.272515 -0.031413 252 254 254
0.211210 0.169562 0.010935 253 255 252
-0.078199 -0.162539 -0.039652 104 146 225
-0.102725 0.117367 -0.061920 132 134 138
-0.073247 -0.048694 0.026638 107 151 231
-0.075583 -0.075758 -0.011368 126 130 133
-0.062651 -0.274866 -0.040546 255 255 253
-0.016443 0.243920 -0.015105 254 253 254
-0.019789 0.257996 -0.048732 255 254 255
0.311328 0.132256 0.014071 255 254 255
0.236145 0.146964 0.046117 253 253 254
-0.087936 0.261385 -0.065389 129 133 138
0.082553 0.217879 0.049180 252 252 253
0.313834 0.131180 0.013336 254 254 255
-0.100058 -0.049835 -0.050425 107 151 231
0.135020 0.183286 0.018211 254 254 253
-0.101485 -0.179416 0.041657 109 132 171
-0.095913 0.183006 0.005217 106 150 230
0.170549 0.184642 0.003559 252 253 255
-0.071897 0.246072 -0.035038 104 140 204
-0.025411 -0.257385 0.021302 253 254 253
-0.074735 0.267263 0.040832 109 152 232
-0.025672 -0.254292 -0.018841 253 254 255
-0.079501 0.060133 -0.056373 105 146 223
-0.090418 0.102164 0.046450 104 144 217
-0.064549 -0.262188 0.007663 253 253 253
-0.076894 -0.181403 -0.047484 106 150 231
0.131926 -0.170862 -0.002470 254 253 255
-0.039332 -0.262078 0.023665 254 255 253
-0.072831 0.158872 0.051314 106 148 225
-0.076642 0.053263 -0.067454 106 149 231
-0.095728 -0.180861 0.008257 105 151 232
0.107523 -0.195241 0.056919 253 254 254
-0.019059 -0.253504 0.039301 253 255 254
-0.075861 -0.278613 0.010756 110 142 204
-0.070043 0.273777 0.024282 132 134 137
-0.032978 0.247553 0.042459 252 254 254
-0.094974 0.251110 0.050797 107 133 182
-0.096538 -0.087973 0.002787 105 146 223
-0.011199 0.241625 0.047394 255 255 254
-0.080043 -0.189970 0.059946 106 151 234
-0.100030 -0.113144 -0.084782 106 151 232
0.284483 -0.119133 0.011995 255 254 255
-0.073320 -0.106281 -0.006221 106 141 203
0.298741 -0.101192 0.050073 253 253 255
-0.008945 0.255751 0.031277 253 253 252
0.022004 0.234192 0.001926 254 255 255
0.165579 -0.155018 0.054923 254 255 255
0.103017 0.197700 0.032776 253 252 252
-0.077372 0.188355 -0.024846 130 131 135
0.208274 0.157660 0.058774 251 252 253
-0.073992 0.059104 0.043959 105 138 196
0.001229 -0.245509 0.016371 253 253 253
-0.082312 0.206553 0.053084 135 133 136
-0.090041 -0.276945 -0.045178 105 136 194
-0.072140 0.244104 -0.058238 129 132 137
-0.098902 -0.121952 -0.077443 106 140 202
-0.094739 -0.075187 -0.061593 104 149 226
-0.044164 -0.266762 0.045997 253 253 253
-0.098736 0.041815 -0.020177 107 147 219
-0.095307 0.199764 0.044307 104 150 232
-0.096138 0.280279 -0.006841 129 130 139
-0.097422 0.200349 -0.056300 104 150 233
-0.094465 -0.188122 -0.069652 108 146 217
-0.074365 0.194482 -0.075902 104 148 229
-0.096086 0.173362 0.047985 105 147 230
-0.077085 -0.167138 0.011218 106 151 233
0.265309 -0.125146 0.045868 254 255 253
-0.075923 0.228951 -0.020887 107 143 210
-0.073522 0.265068 -0.018974 108 150 229
0.204212 0.172628 0.028604 254 254 255
0.268190 0.149720 0.009814 254 253 255
-0.093779 -0.097231 -0.055737 106 135 189
-0.069988 0.272414 0.027160 130 133 137
-0.101200 -0.115434 0.007075 133 134 138
-0.076199 0.031394 -0.047113 106 140 199
0.147512 0.180843 -0.001704 251 253 252
-0.097240 -0.189470 -0.074249 105 136 191
-0.035659 -0.249562 0.045444 252 254 252
-0.096126 0.171898 -0.056393 107 140 199
-0.101337 0.075495 -0.084707 105 143 214
0.192182 -0.159803 0.032810 253 253 254
0.045657 -0.222465 0.006468 254 253 254
0.140324 -0.169066 0.000342 253 252 254
-0.078780 0.060074 -0.022773 106 150 232
-0.045434 -0.267371 0.025461 254 254 253
-0.075649 -0.138055 0.004777 132 135 138
-0.103204 0.051045 -0.038803 107 143 210
-0.098931 -0.098570 -0.030737 130 130 134
-0.086822 0.089844 -0.083088 127 129 133
0.231897 -0.131293 0.005169 254 254 253
-0.098442 -0.063509 -0.065632 127 131 139
0.096156 0.214908 0.046009 253 253 254
-0.047720 0.258095 -0.029684 255 255 255
-0.073437 0.155808 0.015851 102 147 233
-0.074375 -0.131349 0.040077 104 147 227
-0.098049 -0.155238 -0.005796 132 131 138
0.243300 -0.123072 0.030262 254 255 255
-0.098228 -0.071424 0.039400 127 132 136
-0.002585 0.248565 0.063499 252 253 254
0.160736 -0.159345 0.035468 255 255 254
-0.064555 0.275396 0.061061 253 253 253
0.046096 0.230855 0.058885 255 255 254
-0.079148 0.064745 -0.075051 104 145 224
0.129617 -0.187160 -0.001433 253 252 254
-0.097016 0.065875 -0.054083 108 146 216
0.056541 -0.219737 0.000546 254 255 254
-0.099447 -0.190482 -0.076512 105 143 210
-0.095367 -0.108176 0.003472 106 148 230
-0.078326 0.021323 -0.025892 107 146 218
0.343335 0.113342 0.028954 253 252 254
-0.075494 -0.153529 0.031019 106 135 190
-0.098906 0.187792 -0.004356 106 146 218
0.116321 0.206808 0.036378 255 253 254
-0.098451 0.251118 0.055531 130 134 140
-0.083521 0.123242 0.046611 104 139 204
-0.076377 -0.180046 0.043821 106 145 221
0.270311 0.144530 0.060493 254 253 255
0.270584 -0.111386 0.041991 253 252 254
0.161888 -0.163543 -0.010525 253 255 253
-0.094817 -0.255617 -0.064869 105 151 232
-0.077381 0.022149 -0.033540 131 137 142
-0.102106 0.080640 0.015111 106 138 195
0.128986 -0.188188 -0.011652 251 252 252
0.299092 0.137356 0.020585 253 254 255
-0.082043 -0.281266 -0.036499 128 131 135
-0.087906 0.029137 -0.058804 131 131 136
-0.077911 0.120476 -0.013098 104 139 204
0.129852 0.201615 0.057937 252 253 254
-0.076477 0.246329 -0.029000 128 130 135
0.012272 0.241653 -0.011239 252 252 253
-0.076651 0.042461 0.036466 110 142 200
-0.053378 -0.269772 0.044840 252 253 252
-0.087583 -0.168087 0.052956 130 131 138
-0.096951 0.275269 -0.041111 130 130 136
0.251108 0.143933 0.036713 253 255 255
0.219370 0.166519 0.041325 255 253 253
-0.077153 0.120860 -0.051450 104 144 219
-0.076390 -0.070115 -0.011369 109 142 204
0.288011 -0.105781 0.009869 252 253 254
0.203337 -0.149015 0.022355 253 253 255
-0.100411 0.094960 0.022999 107 149 228
-0.050517 0.254397 0.046498 252 253 253
-0.076527 -0.184745 0.010608 104 148 228
-0.074821 -0.127135 -0.063781 134 138 143
0.248656 0.143902 0.050433 255 255 254
-0.068891 0.264760 0.055096 255 253 253
-0.077231 0.192670 0.040555 137 145 155
0.130893 -0.185009 -0.008903 254 253 255
-0.096675 -0.177173 0.000040 106 143 212
0.279557 0.144862 0.024920 255 253 254
-0.076054 -0.198286 -0.044597 127 131 135
-0.020103 -0.242669 0.032701 252 254 253
-0.008310 0.241486 0.012404 254 255 255
-0.070761 0.251950 0.046073 104 141 204
-0.096489 0.235994 0.009998 105 138 199
0.111919 -0.188902 -0.018571 254 254 254
-0.101789 0.193976 0.035857 110 144 204
-0.091373 0.280546 -0.037554 130 134 137
0.310034 0.121501 0.036263 251 253 252
-0.047355 -0.254305 -0.032844 253 252 253
0.019050 -0.239656 0.019920 252 254 254
-0.066960 0.262407 0.064569 252 253 253
-0.038479 0.267423 0.033847 254 252 253
0.038481 -0.220148 0.004811 255 255 254
-0.078349 0.174539 0.054630 130 128 133
-0.073063 -0.145359 0.033219 130 131 135
0.319330 -0.093569 0.008066 252 254 254
0.342346 0.121106 0.025636 252 254 254
0.084363 0.206853 -0.027866 246 247 251
-0.067467 0.261548 0.046957 250 248 252
-0.098021 0.046451 -0.012959 109 143 204
0.159679 0.176025 0.007371 253 254 254
-0.094910 -0.138325 -0.011679 103 146 222
0.228539 -0.126594 0.043678 254 253 254
-0.089592 0.101194 0.038045 105 146 225
-0.075048 -0.180409 -0.012838 129 130 135
-0.082411 0.278570 0.023001 125 136 157
0.018248 0.241808 0.054282 198 199 199
-0.068613 0.278951 0.022800 252 254 254
-0.075225 -0.182063 -0.064350 105 143 212
0.093469 0.200571 0.023106 255 255 255
-0.097962 -0.223059 -0.031799 128 128 132
-0.091165 -0.233155 -0.076305 108 133 180
-0.033311 0.249959 0.062379 252 254 255
0.053427 0.230024 0.026555 255 255 255
-0.100374 -0.172935 0.035585 108 140 203
-0.093745 -0.238269 -0.003839 106 138 200
-0.082331 0.198956 0.059479 111 132 171
-0.095024 -0.143585 0.053136 105 133 184
-0.020068 -0.251347 0.062992 253 255 253
0.318867 -0.093565 0.043606 197 203 208
-0.047609 0.262907 0.001024 255 255 255
0.122780 -0.175510 0.040541 252 252 253
-0.087668 -0.197711 -0.077810 104 149 233
-0.042508 -0.253370 0.009626 252 253 252
-0.092313 0.260373 0.046128 107 142 205
-0.096191 0.227644 0.050220 105 138 197
-0.075912 0.235895 -0.008000 105 148 229
-0.092808 -0.180195 -0.079292 134 132 135
-0.075814 -0.168949 -0.074716 126 129 134
-0.086497 -0.040052 -0.040916 107 149 232
-0.083782 -0.276396 0.010477 128 133 136
-0.077151 0.142714 0.003356 105 149 232
0.164628 -0.171610 0.008012 253 253 253
-0.100028 -0.155159 -0.050571 110 133 176
-0.072381 -0.268140 0.035887 253 253 253
-0.104812 0.108947 0.034939 105 142 210
0.117344 -0.189588 -0.020570 253 251 254
-0.044514 0.258533 0.062545 252 253 253
-0.026732 -0.258716 0.024272 252 254 253
0.306269 -0.095722 0.056305 254 254 255
0.190913 -0.161692 -0.001809 254 254 254
-0.073325 -0.200079 0.028908 109 133 180
-0.075092 0.265945 0.046890 252 253 254
0.344849 -0.098517 0.052932 255 255 253
-0.075851 -0.132238 -0.077789 106 137 190
-0.061252 0.275512 0.006525 252 253 252
-0.064975 0.266793 0.064568 254 252 253
0.321666 -0.101131 -0.006549 252 251 254
-0.026886 0.262043 -0.040253 253 255 254
0.332395 -0.089808 0.026633 253 253 254
-0.076596 -0.175987 0.035669 106 148 225
-0.101215 -0.117887 0.037232 106 149 230
0.112935 -0.194281 -0.015631 251 252 251
-0.098875 0.218372 -0.034865 105 147 227
0.207674 -0.136840 0.054738 253 255 253
-0.098146 0.176617 -0.011351 104 150 232
0.195056 -0.145458 0.014821 253 252 253
0.343713 0.121556 0.031134 254 254 255
-0.074901 -0.076208 0.034800 107 136 191
0.292452 0.138975 0.043828 254 255 254
-0.068654 -0.275846 0.036722 255 254 254
0.118921 0.191459 -0.009499 252 252 254
0.342027 0.117176 0.009326 252 253 254
-0.009529 -0.251947 -0.008723 255 253 254
-0.076085 0.122343 -0.085300 104 150 232
0.013245 0.233320 0.037140 255 254 254
-0.093842 0.232030 -0.048449 127 132 136
0.237440 -0.125258 0.057120 254 254 254
-0.092032 -0.187973 0.059694 108 141 201
-0.076203 0.039878 0.014597 111 131 168
0.204393 -0.139545 0.055542 254 253 254
0.213395 0.155962 0.035126 255 254 253
-0.099787 0.197957 0.052887 111 145 206
-0.093996 -0.274852 0.010062 105 142 209
0.329099 0.124454 0.035819 255 255 255
-0.074375 -0.098987 0.033001 104 141 211
-0.097255 -0.191978 0.057593 106 151 231
0.077956 0.217802 0.062273 252 253 252
-0.065111 0.274153 0.047036 253 254 252
-0.066672 -0.277362 0.009199 252 253 254
0.003298 -0.232250 0.037473 255 254 254
-0.097392 -0.165834 -0.016907 111 139 190
0.074059 -0.213025 -0.018366 253 253 253
-0.031615 0.254936 -0.045669 254 253 254
0.031713 0.225774 0.004034 254 255 254
-0.092018 0.162270 0.032104 104 150 233
0.049707 0.231418 -0.006123 254 255 255
0.079508 0.205652 -0.003776 253 254 254
-0.072055 -0.277431 -0.009466 253 253 253
-0.091320 0.203811 0.034794 107 149 229
0.286927 -0.103519 0.061789 253 253 254
-0.100824 -0.166013 -0.030485 110 142 198
0.216361 0.157740 -0.004514 254 253 254
0.313921 -0.106570 0.043172 254 254 253
-0.093418 0.260847 -0.036441 105 147 222
0.004001 0.243164 -0.043496 255 255 255
-0.007862 -0.236074 0.057917 254 252 252
-0.070964 -0.261754 0.046935 110 133 177
-0.009665 0.253962 -0.024608 255 255 253
-0.079053 -0.202830 -0.053324 106 142 207
0.021726 -0.222463 -0.024102 252 252 254
0.120326 0.207915 0.058484 252 251 254
0.288242 -0.118701 -0.007282 253 253 253
0.247019 -0.121445 0.034565 255 255 255
-0.101108 -0.194364 0.035323 110 136 179
0.090987 0.214602 -0.013340 253 253 254
-0.065995 -0.278722 0.038499 253 253 255
-0.093863 -0.084913 -0.031165 106 137 193
-0.099080 -0.258112 -0.007436 105 149 229
-0.073298 -0.161296 -0.042868 105 149 227
0.131202 0.187033 0.012908 255 255 255
0.152096 -0.176286 0.035788 254 254 254
0.293799 -0.112590 0.038454 255 254 254
-0.013817 0.244247 0.020810 255 255 255
-0.102085 0.076553 -0.086420 107 147 221
0.143962 -0.166711 0.012416 251 251 252
-0.076915 -0.070565 -0.001793 107 151 232
-0.001260 -0.240223 -0.021495 254 255 254
-0.077913 -0.155113 0.025300 107 148 229
0.085594 -0.191560 0.056590 253 253 254
0.323322 -0.101501 0.057783 255 255 253
0.225407 -0.132472 0.038409 254 252 253
-0.059125 -0.261744 -0.010015 253 254 253
-0.083431 0.033970 -0.064519 107 142 210
0.308690 -0.095451 0.033658 252 252 253
0.113224 -0.194039 -0.008302 253 253 252
-0.101219 -0.144001 0.042175 105 138 202
-0.094124 -0.133695 0.012298 106 149 231
-0.004434 0.252453 -0.033729 255 254 253
-0.097343 -0.139043 -0.023211 104 142 211
0.160005 0.188978 0.029267 254 255 255
-0.003474 0.252695 -0.036326 252 254 253
-0.074229 -0.207404 0.014779 107 133 178
-0.076076 0.219455 0.043405 103 148 233
-0.074656 -0.128487 0.038688 127 129 133
0.209310 -0.152487 0.027537 254 254 253
0.357649 0.115655 0.025046 253 254 252
-0.099594 0.250831 0.007040 108 152 232
0.047950 -0.223265 -0.000830 254 252 252
-0.077642 0.221771 0.019062 105 147 224
-0.074280 0.047719 0.039362 107 150 233
-0.083642 -0.281926 -0.010714 124 128 135
-0.074431 -0.265660 -0.064296 128 131 135
0.155203 0.190166 0.010706 251 251 252
-0.102511 0.188579 0.023579 109 140 193
0.192877 0.162704 -0.011145 254 254 253
-0.077910 -0.173352 0.037683 107 146 222
-0.076638 0.145571 0.016348 105 135 192
-0.058735 0.261251 0.063882 254 255 253
0.194442 0.171175 0.062826 252 252 254
-0.071560 -0.276040 -0.045729 107 133 178
-0.073405 0.271100 -0.001194 251 252 253
0.001687 -0.230681 -0.000543 252 252 253
0.250541 0.142378 0.059803 253 254 253
0.201388 0.167743 0.039201 254 253 255
0.137154 -0.183827 -0.014068 252 252 253
-0.078490 0.138591 0.013814 116 139 182
0.207209 0.159517 0.053948 253 253 254
0.094979 -0.192120 0.063441 252 253 254
0.257684 0.153403 0.017424 251 253 252
-0.075639 -0.200551 -0.038528 126 133 143
-0.075201 0.184005 0.041293 105 149 231
-0.074063 -0.237620 0.062411 131 134 138
0.006762 0.248110 0.004786 252 252 253
0.176017 0.170472 0.038769 253 254 254
-0.074513 -0.182089 0.047470 112 134 173
-0.097169 0.078411 0.044476 129 128 133
0.185587 0.179819 -0.006102 253 252 253
-0.074879 -0.219363 -0.051643 140 145 150
0.054869 -0.221164 -0.021277 253 252 254
-0.077249 0.111807 -0.018503 104 139 204
0.287822 0.128043 0.064860 255 253 255
-0.074292 0.115752 0.041746 111 139 190
0.268609 0.149201 0.031131 254 254 253
0.149602 -0.164241 -0.009094 252 254 253
0.249921 -0.121184 0.035888 254 254 253
-0.076717 0.082250 -0.003981 103 147 230
-0.075063 -0.147909 -0.090573 105 150 232
-0.034262 0.265643 0.022278 255 254 253
-0.092940 -0.220932 0.040173 128 139 158
-0.101728 -0.243907 0.038290 106 144 213
0.018052 -0.237763 0.062730 253 255 254
-0.097137 -0.176332 0.002648 107 152 234
0.135903 0.196076 -0.018172 254 254 254
0.011799 0.246898 -0.012903 253 253 255
-0.102318 0.167648 -0.024414 104 149 230
0.171735 -0.159648 0.062675 253 253 253
-0.012856 -0.239635 0.035118 253 253 254
0.042569 0.231132 -0.019695 190 197 195
-0.102622 -0.177962 -0.013397 107 140 200
-0.076330 0.148006 -0.069679 104 149 232
-0.078144 0.140780 -0.066819 127 131 134
-0.070766 0.233147 0.054175 129 133 136
0.149251 0.190222 0.061830 254 255 255
-0.073346 0.090480 0.048407 132 131 139
0.055885 -0.206565 0.055388 253 252 253
-0.093203 0.045186 0.007071 106 141 206
-0.073458 -0.177693 0.002140 106 133 183
-0.075646 -0.176596 0.006309 105 150 231
-0.073138 -0.266336 -0.009200 104 149 230
-0.097724 -0.144361 0.002909 129 135 138
-0.033666 -0.263051 -0.005808 253 254 254
-0.079097 0.094573 -0.076030 104 150 232
-0.095840 -0.133986 -0.050483 105 135 186
-0.102682 0.206562 -0.032422 123 133 153
-0.076680 0.102636 -0.069500 105 150 232
-0.071622 -0.264750 0.017102 104 142 213
0.319021 0.128399 0.039992 252 254 253
0.077412 0.222009 -0.028791 251 253 252
0.222459 -0.146105 0.054573 254 253 253
0.278008 -0.121158 0.025769 253 255 253
0.213601 0.156261 0.033507 254 254 255
-0.096246 -0.228673 -0.000161 105 149 229
-0.095845 0.245792 -0.009207 111 136 180
0.297488 -0.099879 0.047261 253 253 255
0.353744 0.118267 0.045689 255 255 254
-0.071139 0.263057 0.042211 128 131 134
-0.078236 0.069436 -0.029044 104 150 232
-0.022247 0.246646 -0.004290 255 254 255
-0.008097 0.253902 -0.005039 253 254 253
0.239927 0.150779 0.059918 251 252 253
0.071979 -0.213030 -0.016645 255 255 255
-0.092766 -0.066064 0.039860 108 136 185
-0.093607 -0.064032 -0.037461 104 149 229
-0.095295 0.052202 -0.047888 105 148 229
-0.095604 -0.164312 0.037689 133 134 139
-0.096512 -0.083203 0.038504 104 147 229
0.144024 -0.164353 0.059330 252 253 252
0.045437 -0.224016 0.014161 252 253 252
0.023684 0.228702 0.002172 255 255 255
-0.081612 0.073992 0.047559 106 149 230
-0.074910 0.200515 -0.006965 106 150 232
-0.075289 -0.105386 -0.012561 106 147 223
-0.101668 0.162824 -0.065141 107 150 227
-0.000695 -0.232712 0.054807 252 254 253
-0.080226 -0.039159 -0.010915 107 149 228
0.288924 -0.111835 -0.003870 253 255 254
-0.097013 0.182182 -0.024877 104 149 231
0.060115 -0.218358 -0.001046 255 255 255
-0.074578 -0.119093 -0.028668 104 150 233
-0.102360 -0.105677 -0.049974 105 149 228
0.025291 -0.229384 0.065426 252 252 252
-0.083358 -0.185648 0.059085 106 150 231
-0.092425 0.278632 0.009507 109 143 206
-0.074114 0.272963 -0.025818 103 141 208
-0.096895 -0.151068 0.029154 109 135 183
0.023137 0.234508 -0.000270 254 253 255
-0.073815 -0.085660 -0.071574 104 144 220
0.101812 0.209450 0.028771 253 254 252
0.025830 -0.233840 0.028408 253 254 254
-0.076868 0.151261 -0.081137 106 151 234
-0.012358 -0.253682 -0.031098 254 252 253
0.243129 -0.133922 0.059735 252 252 254
0.067783 0.208661 0.051303 253 253 254
-0.095149 0.177542 0.016579 107 150 233
0.089189 0.200999 -0.026357 254 254 255
-0.093487 -0.123453 0.023700 104 150 231
0.102735 0.210326 -0.004998 253 254 254
-0.076829 0.025948 -0.016632 105 145 219
-0.095510 0.254894 -0.064435 132 131 136
-0.067615 0.257753 -0.006360 186 192 193
-0.074578 0.046801 0.030947 125 128 133
-0.096924 0.267083 -0.061230 128 129 135
0.173042 -0.166486 0.048313 252 252 254
-0.095917 0.257753 -0.036620 106 150 230
0.000452 0.250517 0.001803 255 253 253
-0.077499 -0.248197 0.010226 104 140 205
-0.086430 0.275692 -0.047331 106 137 196
-0.079179 0.117135 -0.021826 106 144 214
-0.095742 0.156056 -0.053493 129 132 135
-0.078055 0.048006 -0.018763 128 133 144
-0.093650 -0.075154 -0.022977 106 150 229
-0.078337 0.154152 -0.070149 106 136 193
-0.099705 0.177955 -0.013153 108 148 222
0.017824 0.240812 -0.041069 255 254 253
-0.080198 0.146304 0.049507 106 141 206
-0.074689 -0.092103 0.002010 104 142 211
0.092566 -0.195177 -0.019617 253 254 253
-0.101865 0.166936 -0.078444 106 147 219
-0.099348 0.177169 -0.046277 105 144 216
-0.061236 0.262500 -0.006786 252 252 254
0.341228 0.122329 0.019139 253 253 253
-0.013204 -0.251923 0.055372 252 252 253
-0.099050 0.084264 -0.091932 106 150 232
-0.095197 -0.098246 0.043137 107 152 232
0.278821 -0.120747 0.044209 252 253 254
0.057311 0.228720 0.005994 255 254 253
-0.076175 0.143326 -0.017745 132 134 139
-0.028565 -0.244939 -0.021542 252 251 252
-0.087145 -0.041684 0.032974 135 138 143
0.109560 0.202983 0.061292 253 253 253
-0.100389 0.178953 -0.022273 131 131 135
-0.096710 -0.102446 0.038648 105 140 201
0.089103 -0.193204 -0.002527 253 253 253
0.176974 0.182207 0.057625 254 254 253
-0.101052 -0.117767 -0.087139 105 146 221
-0.098461 -0.049501 -0.057015 135 137 140
-0.094547 -0.054465 -0.008066 107 137 192
-0.091599 -0.233600 0.058621 109 140 201
-0.098850 0.089945 0.008960 105 138 199
-0.072075 -0.261561 -0.018395 106 146 222
-0.096049 -0.222565 -0.049655 109 136 184
0.020348 -0.239863 0.008789 254 254 253
0.100070 0.204040 -0.024134 255 253 253
0.266303 0.149590 0.036381 254 253 254
-0.074556 -0.034404 0.011619 105 150 232
0.166943 -0.168919 0.019759 255 254 255
-0.088243 0.273668 -0.014400 108 145 212
-0.080807 -0.120171 -0.090171 109 136 185
0.200152 -0.153225 0.025373 253 253 253
-0.075622 0.112914 -0.085727 103 146 225
-0.099700 -0.121934 -0.021794 105 149 232
0.042001 -0.213434 0.019172 252 252 253
-0.094755 0.148040 -0.017244 106 140 198
0.030773 -0.217460 0.007480 254 253 253
0.111907 -0.182893 0.062549 253 255 254
0.069815 -0.214315 -0.020549 252 254 254
0.131041 -0.172958 -0.015070 252 253 253
0.062442 -0.216729 0.020716 253 253 252
-0.028797 -0.245900 -0.002021 253 254 254
0.098868 -0.188471 0.027046 250 251 252
-0.070624 -0.233108 -0.005254 108 143 210
-0.043060 -0.266778 0.019830 253 253 253
0.098688 -0.187358 0.045413 254 253 254
0.336707 -0.090586 0.036544 255 255 253
-0.098426 -0.130029 -0.079129 131 131 137
0.103251 -0.185468 0.058012 254 253 254
-0.003804 -0.233813 0.004112 253 252 253
0.258385 -0.129443 0.019157 252 254 253
-0.093001 -0.134212 0.022365 107 143 212
-0.067024 0.280697 -0.028646 254 253 253
0.177252 -0.166925 0.027633 255 253 252
0.086614 -0.205121 0.024654 253 254 254
0.288921 -0.101455 0.026342 251 252 254
-0.073130 0.242083 0.048203 131 132 139
-0.029283 -0.246707 0.034959 251 251 253
0.187760 -0.146625 0.053834 255 255 255
-0.060824 -0.278457 -0.029740 253 254 254
0.037262 -0.215223 0.023097 252 252 253
-0.076218 0.238906 0.014328 104 144 219
-0.076655 0.168845 0.017747 135 136 142
-0.079149 0.080651 -0.070726 113 132 167
-0.094776 0.277789 -0.023734 107 148 226
-0.019777 0.259051 0.008153 252 252 253
-0.095956 -0.221709 0.001904 105 141 208
-0.098106 0.215282 -0.019237 108 135 184
-0.093488 -0.241251 -0.044418 107 149 228
0.105917 -0.196540 -0.017567 255 254 254
-0.099361 0.116761 0.038233 109 138 191
-0.010047 -0.238989 0.043177 189 190 194
-0.099923 -0.151974 -0.015143 105 149 230
0.060021 -0.217119 0.036578 253 254 255
0.062142 0.227597 -0.029723 254 254 255
0.161555 -0.171927 0.054315 254 254 253
-0.092910 0.071772 -0.015450 109 140 196
-0.097497 0.126580 -0.036617 104 143 213
-0.020205 -0.242798 0.011176 253 253 254
-0.044289 -0.268068 0.013078 253 253 254
-0.103149 -0.231375 -0.074653 107 143 212
-0.073890 -0.260174 0.036555 125 129 135
0.053629 -0.218266 -0.029314 254 255 254
-0.059185 -0.261501 0.008812 255 254 253
-0.074993 0.180141 -0.007043 109 140 195
0.059330 -0.217310 0.032758 255 253 253
-0.043613 0.256614 -0.030155 253 254 255
0.017147 0.231437 -0.017435 252 253 254
-0.016005 0.244693 0.062581 253 252 253
-0.097439 -0.205889 -0.032571 111 135 171
-0.091824 -0.072414 -0.060395 106 149 230
-0.098558 -0.155375 -0.037029 131 135 140
0.167819 -0.157060 0.017995 254 254 254
-0.077935 0.069160 -0.007969 106 150 232
-0.095141 0.173077 0.023149 104 138 202
0.078636 -0.194917 0.065992 253 254 253
0.287537 0.129867 0.012165 254 254 254
0.144908 -0.178589 0.062954 255 255 254
0.245300 0.157332 0.022679 253 253 253
-0.073728 -0.140028 0.042598 106 146 221
0.204149 -0.152420 0.027664 252 252 254
-0.076495 0.102933 0.040866 111 139 189
0.192969 0.165890 0.026108 254 254 253
-0.085180 -0.098137 0.044394 103 148 234
-0.041599 -0.266352 0.037555 254 254 255
0.089967 -0.204691 0.001131 252 254 253
-0.015122 0.257981 -0.005440 252 251 253
-0.073207 -0.247220 0.023621 109 134 183
-0.071147 -0.277567 -0.009452 137 142 147
0.125311 -0.175198 0.039789 253 255 252
-0.101509 -0.130322 -0.092029 106 144 216
-0.076646 0.068293 -0.051796 134 135 139
-0.033513 -0.262508 0.011894 252 254 252
-0.078333 -0.224689 -0.059974 107 151 231
0.254384 -0.116825 0.045609 253 254 255
-0.070258 -0.238327 0.055940 107 134 182
0.156203 -0.177652 -0.011366 253 253 253
-0.075152 -0.126456 -0.035035 105 148 229
-0.078860 0.072567 0.046260 107 140 202
-0.085152 0.080631 0.041762 133 132 136
0.199138 -0.141987 -0.008267 253 254 252
0.001115 0.249438 0.060822 253 254 253
0.246856 -0.121493 0.011383 253 254 255
0.003152 -0.244002 0.034125 254 253 254
-0.095844 -0.185419 -0.017231 104 141 206
-0.069735 -0.258783 0.044279 134 134 139
-0.092780 -0.268959 0.036743 109 147 219
-0.102104 0.227374 -0.048746 111 135 177
0.062512 0.225250 0.022833 254 255 254
-0.094275 -0.102818 -0.077691 107 139 198
0.200002 0.160714 0.045340 253 253 254
-0.001459 0.252538 0.033903 254 255 255
-0.070971 0.267809 0.028248 105 150 232
0.029042 -0.229900 0.042088 254 255 255
-0.077647 0.203948 0.061371 109 133 181
-0.050539 -0.272828 -0.041682 252 253 253
-0.071824 -0.093565 -0.008449 115 130 158
-0.101167 0.073593 0.005237 106 144 214
0.100662 0.207428 0.060473 253 253 255
0.005582 -0.243375 0.029626 253 254 253
0.227601 -0.134604 0.060421 254 254 254
0.060011 0.212457 0.047182 254 254 255
0.098147 0.200904 -0.023694 252 253 255
0.234046 0.163972 0.054857 255 255 254
0.188719 -0.148291 0.022175 254 255 253
0.322256 0.118067 0.025597 255 253 253
-0.099327 -0.163526 -0.023449 131 135 139
0.125685 -0.186926 0.052219 253 254 254
-0.037023 0.257560 0.039620 255 254 255
0.355234 0.113904 0.015402 255 253 252
0.205785 0.174527 0.005713 254 255 255
0.072544 -0.204802 0.048636 202 204 206
-0.012941 -0.250288 0.052782 255 255 255
-0.035853 0.267072 0.015684 253 253 254
-0.070695 -0.268535 -0.053819 105 149 230
-0.079213 0.157402 0.026826 105 134 188
0.072389 -0.211215 0.052148 255 253 253
-0.097143 0.259165 -0.066181 118 131 153
0.189247 0.178121 0.005004 255 254 253
-0.077176 0.188431 -0.002688 128 129 134
0.199151 0.162226 0.064687 254 255 255
0.350949 -0.097451 0.039209 251 251 251
-0.094785 -0.145529 0.041920 110 132 172
-0.042366 -0.252762 0.039053 254 253 253
-0.096967 0.179903 -0.038094 128 132 135
-0.056590 -0.260306 0.017092 255 254 253
-0.076739 -0.199416 -0.042665 105 150 232
-0.068442 -0.279772 -0.021931 254 252 254
-0.076247 0.146167 -0.062200 103 139 202
-0.035259 0.266156 0.009392 255 253 254
-0.073753 -0.049027 -0.018328 111 151 225
0.181862 0.173675 0.064284 253 252 253
-0.079945 0.040770 -0.039636 105 148 229
0.100617 0.209043 0.059945 255 255 253
-0.004037 0.252403 -0.030108 255 255 254
-0.085377 0.276233 -0.022811 134 135 140
-0.064986 -0.277716 0.011778 254 253 253
0.030144 0.226337 -0.020696 252 252 255
-0.096462 0.170487 -0.002072 107 149 229
-0.075762 0.150384 0.001930 105 149 232
-0.102494 -0.047984 -0.007748 131 132 136
-0.098869 -0.110679 -0.058240 106 150 230
0.174699 -0.155018 -0.010900 252 251 252
-0.076106 -0.086618 0.005603 106 139 198
0.115019 -0.193793 -0.015143 253 254 253
0.111756 -0.185988 -0.007123 251 254 252
0.096382 -0.199666 0.049129 254 254 252
0.035151 -0.231437 -0.004799 253 255 253
-0.095586 0.258991 -0.016992 105 150 230
0.154113 0.192414 0.003240 253 253 254
0.192299 0.165592 0.010326 254 253 253
-0.088588 0.280952 -0.019285 109 136 185
-0.097242 0.084424 -0.019904 105 147 222
0.242985 -0.126575 -0.002608 252 252 254
0.187839 0.166746 0.052046 255 255 254
-0.071547 -0.227533 0.059767 110 134 179
-0.095521 -0.102865 -0.050091 104 139 201
-0.093283 -0.281692 -0.037755 126 129 133
-0.075005 0.235682 -0.004024 103 149 231
-0.078914 0.173501 0.022517 109 140 198
0.271321 -0.122037 0.004527 254 252 252
0.089755 -0.203871 0.024146 253 254 254
0.120299 0.188830 0.040188 254 255 254
-0.074339 0.207145 0.049548 106 151 233
0.118247 0.191429 -0.020016 252 253 253
-0.063983 -0.278574 0.019491 254 255 254
0.130836 -0.172575 0.031326 254 253 255
-0.098865 0.141484 0.030332 129 132 137
0.140870 0.179119 0.001415 253 255 255
-0.094350 -0.217556 -0.038137 105 146 216
0.188960 -0.148463 -0.005780 252 253 252
0.166281 -0.157345 -0.001092 253 254 254
-0.075724 0.232927 0.034361 105 147 230
-0.076202 -0.204509 -0.071082 105 150 232
0.044408 -0.214310 -0.024361 252 253 252
-0.073259 -0.242532 -0.042555 107 145 218
-0.040392 -0.251975 0.038587 254 254 253
-0.099919 0.182428 -0.075207 109 145 210
0.063766 0.224795 0.018966 254 253 254
-0.095550 -0.098713 -0.000465 108 146 215
-0.096364 -0.273978 -0.007062 110 146 208
-0.022487 0.245116 0.056753 254 254 254
-0.070826 -0.234779 0.049170 107 149 226
-0.093356 0.187798 0.006892 104 143 210
-0.095715 -0.197124 -0.065405 107 147 223
-0.072722 -0.064046 0.035943 132 133 136
0.001256 -0.242132 -0.036653 255 255 254
0.112786 0.193997 0.028936 255 254 255
-0.081847 -0.265683 -0.061914 105 142 212
-0.094049 -0.067682 0.002128 106 145 217
-0.086839 0.207891 0.059238 104 146 219
-0.023741 0.261175 0.002634 254 254 253
-0.001854 -0.233887 0.042569 253 255 255
-0.082289 0.250684 0.054163 107 149 230
0.004966 0.247260 0.027989 187 190 196
-0.102979 -0.191614 0.041725 108 138 195
-0.040408 -0.260512 0.056896 252 254 255
-0.001389 -0.250756 -0.023082 252 253 253
-0.095227 -0.073549 -0.018686 106 151 232
0.264199 0.153357 0.040795 255 255 255
-0.094757 -0.277302 -0.016696 105 147 224
-0.076501 0.251653 -0.001054 108 135 186
-0.079304 0.113580 -0.054655 107 149 229
-0.029719 -0.246734 0.031081 254 255 254
-0.096471 0.217706 -0.062364 107 144 213
-0.081406 0.101491 0.011723 130 138 154
-0.100220 0.118145 0.024337 107 140 199
-0.076792 -0.025799 0.014097 129 129 135
0.275126 -0.122755 0.013749 251 252 252
0.119099 -0.192833 0.022930 254 253 254
-0.099790 0.079300 0.024508 112 140 189
0.034639 -0.229576 -0.032425 253 254 253
0.073386 -0.213097 0.001866 252 252 252
-0.090557 0.249445 0.035575 133 132 137
0.105614 -0.198326 0.039617 254 254 255
0.124215 -0.190048 -0.014644 254 254 254
-0.096799 0.249244 -0.061334 132 129 136
-0.040716 0.269106 -0.027356 253 252 253
0.079350 -0.210655 0.059021 254 253 253
-0.095279 0.091595 0.030542 106 143 209
-0.078492 0.275731 -0.018731 104 148 232
-0.074936 -0.209401 -0.062889 108 137 191
0.072566 0.207857 0.012425 253 255 255
-0.067998 -0.273737 0.066124 253 254 254
-0.079102 0.214878 -0.024610 127 128 132
-0.089545 0.196974 0.056374 105 144 215
0.009304 -0.229279 0.008940 252 254 253
-0.073212 -0.274902 0.013875 107 142 203
-0.080855 0.219015 -0.081961 129 132 137
-0.071574 -0.133503 -0.083579 105 147 226
0.258615 0.141096 0.012629 255 254 255
0.243392 0.157586 0.030063 252 252 253
0.041266 0.236819 -0.032741 253 252 253
-0.077152 0.190882 -0.002453 133 140 148
0.086767 0.202483 -0.013399 253 255 253
-0.098707 -0.223873 -0.072704 108 133 177
0.032208 0.225739 0.007199 254 254 253
-0.070135 -0.181428 -0.001004 130 132 137
-0.081419 0.139296 0.017583 108 142 202
-0.068830 0.165821 0.053812 131 128 133
0.088014 -0.192474 0.015003 253 254 254
-0.062592 -0.273604 0.043367 254 254 252
-0.077316 0.038303 -0.022937 104 147 224
-0.098228 0.076592 -0.010881 110 141 197
-0.079094 0.144635 -0.064068 115 133 166
-0.075970 0.056795 -0.058660 104 148 227
-0.077936 0.175021 0.015919 104 141 211
0.019164 0.232112 0.000192 255 255 254
0.349331 0.119775 0.044769 254 254 254
-0.100853 -0.118099 -0.018071 107 146 220
-0.033873 0.251887 0.047240 253 253 253
-0.101213 0.059626 -0.080735 129 129 134
0.112228 -0.181051 0.059280 254 255 255
0.146353 0.189330 0.061592 253 253 253
0.296920 0.127081 0.045635 253 254 252
0.122983 -0.190169 -0.010503 254 254 254
-0.078516 -0.123835 0.049987 104 147 227
0.145851 0.179106 -0.010181 252 252 253
0.227024 0.161299 -0.003047 254 254 254
0.086329 0.202673 0.035881 252 253 254
0.330402 -0.104125 0.004110 253 254 255
-0.098993 0.031529 -0.034092 125 129 137
0.014496 0.245353 0.044449 255 255 254
-0.075568 -0.202610 -0.042453 131 135 139
-0.096136 -0.129064 0.028705 131 133 139
-0.072196 0.264700 0.005875 104 148 226
-0.097847 -0.218146 -0.004337 108 147 218
-0.073084 -0.238162 -0.051416 110 134 176
-0.042456 -0.268081 -0.034354 254 253 253
-0.070477 -0.266217 0.058754 253 253 254
-0.094401 -0.237711 0.052227 104 141 211
0.183570 -0.163359 0.036051 253 255 253
-0.092961 -0.234813 0.042371 108 150 230
0.185828 -0.148559 0.004770 254 255 254
-0.063827 -0.284398 -0.026315 254 254 252
0.207615 -0.150965 0.051238 251 251 254
0.083769 -0.208238 -0.010069 255 255 255
0.239684 0.159323 0.015915 255 255 255
-0.075024 0.086333 0.003015 109 137 187
-0.074468 0.136795 -0.046952 105 150 232
-0.096185 -0.198024 -0.080642 144 151 160
-0.103836 -0.097849 0.013775 105 145 215
-0.071006 0.274795 -0.043255 252 253 253
-0.074304 -0.174563 0.011494 131 133 137
-0.077665 -0.132954 0.007883 103 143 217
-0.075525 0.133960 0.034319 106 148 224
0.071734 -0.201495 0.064387 253 253 253
-0.095529 0.167907 0.035447 106 142 208
-0.089188 -0.112648 0.044376 106 144 211
-0.071359 -0.199120 0.020297 106 147 222
-0.071864 0.121705 0.032014 129 134 137
-0.094624 0.276099 0.011914 137 140 143
-0.078732 0.032577 -0.043825 103 149 232
0.077198 -0.200007 -0.021584 251 253 252
-0.050431 0.256303 -0.039579 255 254 255
0.276728 -0.114817 0.042730 254 254 252
-0.097478 0.125230 0.036727 105 149 231
-0.093367 -0.127948 -0.094647 107 151 231
-0.073531 -0.180041 0.015202 136 139 142
0.090330 0.219051 0.063067 255 253 254
-0.099943 -0.091926 -0.075696 107 139 193
0.191713 -0.158940 0.062965 252 254 253
0.273530 0.134258 0.030079 253 253 253
-0.080591 0.051001 -0.038286 112 132 168
0.153796 -0.162775 0.029205 255 253 253
-0.081174 -0.040349 -0.024213 157 164 167
0.255694 0.141690 0.061893 254 253 253
0.020702 -0.236925 -0.000279 252 252 252
-0.099907 0.084258 -0.083310 108 145 213
0.201312 0.171180 0.042534 255 255 255
0.100126 -0.200217 0.024999 253 253 254
-0.076081 0.189053 -0.074511 105 135 185
-0.062402 -0.209443 -0.045642 175 179 185
0.274317 0.135650 0.037605 253 255 253
-0.098559 0.162453 0.009794 105 138 196
0.190877 -0.160382 0.007210 255 255 253
-0.097303 0.223622 0.014405 106 138 196
0.288867 0.132082 0.003308 252 254 252
0.126520 -0.188527 -0.005719 253 255 255
-0.065751 -0.260203 0.063535 255 255 255
-0.100437 0.073770 -0.080114 107 142 207
-0.094331 0.035544 -0.039233 110 134 179
-0.075569 -0.058957 -0.031816 133 136 140
-0.103536 0.161563 -0.052261 104 149 227
-0.076788 0.069856 -0.010883 134 135 141
-0.078505 0.185290 -0.079961 131 129 136
-0.058725 -0.259966 0.037487 254 255 254
-0.068483 -0.264099 0.060248 253 253 253
-0.097705 0.129794 -0.072513 105 149 232
0.022215 -0.236533 0.050467 252 255 253
0.288459 0.130486 0.040343 254 253 254
0.168510 -0.170777 -0.003378 254 253 254
-0.082924 0.161956 0.055439 131 132 137
-0.009260 -0.241720 0.038845 253 254 254
0.250449 0.155440 0.018819 255 255 253
0.024598 -0.234057 0.027776 253 252 252
-0.022051 -0.241782 -0.006264 251 252 252
-0.094896 -0.063638 -0.077874 106 152 234
-0.095417 -0.034121 -0.011055 132 131 139
-0.035978 0.266967 0.006985 252 252 254
-0.102777 -0.181528 0.054009 107 151 230
0.062683 0.215040 -0.009141 254 255 254
-0.076603 0.023683 -0.042208 134 138 145
0.072741 -0.208948 0.017566 253 255 252
0.004320 0.249015 -0.032888 253 254 254
-0.068679 -0.261872 0.037241 105 146 222
-0.087428 0.269455 0.018365 106 144 213
0.172922 0.183716 0.020868 254 254 255
-0.076409 0.190323 0.040395 108 140 198
-0.076826 -0.197007 0.042540 107 150 230
0.329559 0.125960 0.017742 253 253 253
-0.094425 0.192699 0.049322 105 144 220
0.192712 0.171206 -0.012616 253 253 254
0.152393 -0.174270 0.037454 252 252 253
-0.078321 0.127037 0.033508 104 143 217
-0.034962 -0.249513 -0.020283 254 254 254
-0.071439 0.272950 0.031270 109 138 192
-0.072281 -0.072953 0.040501 113 136 180
-0.066291 -0.281986 -0.008949 253 253 254
-0.076813 0.134648 -0.073911 133 133 137
0.158227 0.188875 -0.007204 252 254 252
-0.082854 -0.282059 -0.017113 105 134 187
-0.083852 0.270493 0.041658 131 132 136
0.125967 0.185397 0.060474 253 253 253
-0.075845 0.218057 0.022229 103 150 233
-0.071650 0.123012 0.043944 132 137 142
-0.076817 -0.073749 -0.011002 104 150 233
0.021377 -0.221359 -0.002851 252 253 253
-0.092570 -0.074559 -0.059351 106 140 200
0.324480 -0.089171 0.051747 252 254 254
0.037019 0.223819 0.009758 255 255 254
-0.075711 0.228206 0.009801 106 133 185
-0.073942 -0.052387 0.014460 129 131 135
-0.076299 0.108610 0.040562 104 145 224
0.292936 -0.102349 0.056163 252 254 253
0.006477 -0.246223 -0.002279 252 252 254
-0.100170 -0.085852 0.010795 107 137 191
-0.081985 0.072084 -0.067605 105 149 229
0.280768 0.135745 0.004130 254 255 253
-0.096293 0.129098 0.015223 132 134 140
-0.089004 -0.249714 0.054549 127 129 135
0.137455 0.181594 0.031585 252 254 254
0.180909 -0.163145 0.035617 253 254 252
0.073545 0.208029 0.019502 253 255 255
0.061875 -0.217124 -0.019932 254 253 254
0.076641 0.219854 0.045480 254 254 253
-0.074778 -0.047090 0.008082 107 137 194
0.286957 0.142061 0.052272 252 252 253
0.038121 -0.217985 0.019427 252 254 252
-0.041273 -0.251535 0.000974 252 254 252
-0.076452 -0.122491 0.034231 107 143 209
-0.076980 0.177509 -0.019104 127 130 134
-0.012040 -0.238743 -0.023646 254 252 252
0.084697 -0.204471 0.064893 255 255 255
-0.078701 0.030467 -0.009219 104 150 233
-0.073990 -0.270413 0.026962 254 254 253
0.281124 -0.119029 0.053013 254 254 252
0.010854 -0.226786 0.064020 254 254 254
0.146321 -0.164622 0.040319 253 255 254
0.077196 -0.207435 0.063184 254 255 254
-0.075785 0.132846 -0.041326 107 146 218
-0.073033 -0.036143 -0.001929 108 150 227
-0.024094 0.256394 -0.046894 253 253 254
-0.094769 0.175786 0.028772 106 138 202
0.124408 0.197006 0.060717 254 255 255
0.322299 0.120117 0.059360 253 253 253
-0.099221 0.074156 -0.077694 132 134 138
0.134852 0.198286 -0.010522 254 255 255
0.127976 0.200616 0.040172 252 253 253
0.118993 0.204585 0.053398 252 252 252
0.152122 0.189536 0.064753 254 253 253
-0.094701 0.274955 -0.040816 106 140 205
-0.098947 -0.102846 0.044786 105 139 202
-0.035713 -0.252255 0.017115 252 253 252
0.060397 0.211750 -0.002441 254 254 254
-0.076627 0.228361 -0.002284 104 149 230
-0.085627 0.212451 0.059588 107 148 226
-0.077944 -0.121643 -0.033300 105 135 190
-0.061417 -0.256771 0.049090 254 254 254
-0.099378 0.230990 0.022084 106 145 214
0.340054 -0.085638 0.047926 252 255 252
0.007727 0.234969 -0.028662 254 254 254
-0.096389 0.173900 -0.044805 105 147 228
-0.072012 -0.080149 -0.033621 139 142 146
0.180987 -0.165242 0.007130 253 253 252
0.355149 0.115783 0.001091 252 253 251
-0.022207 0.247289 -0.008539 255 254 254
-0.074540 -0.039023 0.010078 104 149 232
-0.096142 -0.177444 -0.016579 108 152 232
0.201574 0.168604 0.005264 251 252 254
0.206876 -0.152127 0.042525 252 253 253
-0.076969 0.040947 -0.058945 106 145 215
-0.071073 0.191124 0.054983 104 147 228
-0.095224 0.047578 -0.045981 105 139 200
0.165592 -0.157252 0.046349 253 253 253
-0.086149 -0.037862 0.023971 103 146 225
0.005205 -0.243903 0.010960 254 253 252
0.031515 -0.218145 0.023876 254 253 253
-0.094929 0.260576 0.012330 105 145 218
0.158336 0.176761 0.024862 253 255 255
-0.096169 0.095082 -0.026628 107 151 230
-0.095058 0.219406 0.027611 104 148 227
-0.101440 0.070503 0.024459 128 132 135
-0.078338 -0.266418 0.046170 255 254 255
0.135742 0.201979 -0.009174 254 254 254
-0.098708 0.084420 0.041867 132 138 145
0.187847 -0.148160 0.010074 255 255 255
-0.079559 0.122914 -0.062269 109 146 212
-0.083650 0.211724 -0.080865 104 148 232
-0.017733 -0.252581 0.051064 252 253 254
0.009877 0.242729 -0.041701 252 252 253
-0.074889 0.276923 0.062500 253 252 252
0.072573 -0.200618 0.064795 255 255 253
-0.095240 0.252686 -0.006172 133 135 141
-0.097956 -0.062706 -0.074142 106 149 231
0.273512 -0.124935 0.028626 254 254 255
-0.075598 0.101155 -0.051432 130 135 139
-0.076437 -0.124908 -0.031368 106 143 211
0.108811 -0.194958 0.045975 253 254 254
0.220948 0.165619 0.044454 254 255 254
0.208555 -0.138507 0.020866 254 255 253
0.107315 0.208635 0.016950 254 253 254
-0.080741 -0.215435 0.061027 108 149 224
-0.086489 -0.135937 0.051918 105 149 230
-0.072330 0.243769 -0.011463 137 141 146
-0.097666 0.034467 0.028454 118 129 147
-0.006793 0.241078 -0.019434 253 253 253
-0.006133 0.240891 -0.014414 253 253 253
-0.104035 0.134354 -0.021492 108 149 225
0.143449 0.184306 0.058729 254 254 255
-0.074896 -0.095380 -0.041524 108 144 210
0.030270 0.226048 0.010856 254 253 253
-0.077092 -0.234795 -0.022404 105 135 189
-0.096320 -0.189505 0.016614 110 132 172
-0.098922 -0.085506 0.043719 134 137 147
-0.094903 -0.089861 0.030904 106 147 222
-0.074288 -0.262111 0.023302 104 144 221
0.066220 0.221869 0.037967 185 187 188
0.268729 0.137720 0.009246 255 255 254
0.215734 0.155011 0.048232 252 254 253
0.122553 -0.188798 0.038518 254 253 252
0.221554 -0.148973 -0.001295 255 254 255
0.028872 -0.219018 0.010125 253 254 254
-0.010425 -0.237717 0.006278 253 255 253
-0.075788 0.235774 -0.001186 104 148 231
