ply
format ascii 1.0
element vertex 1179
property float x
property float y
property float z
property uchar red
property uchar green
property uchar blue
end_header
-0.053173 0.244405 0.058310 252 252 253
-0.056333 -0.259883 0.018306 253 253 252
-0.091825 0.225748 0.054866 132 130 136
0.146477 0.009069 0.001412 253 254 252
-0.095572 0.182179 0.051635 133 137 141
-0.025892 0.219162 0.046957 252 253 254
0.156450 0.069144 0.044486 252 252 253
-0.090094 0.151404 0.049198 137 142 148
-0.048604 -0.230317 0.061405 252 253 252
0.084392 0.131608 -0.014548 255 253 253
-0.001111 -0.190780 -0.011321 184 188 188
0.118110 -0.053841 0.013063 252 253 254
-0.089663 -0.149605 0.053979 104 149 233
-0.100682 0.228970 -0.073960 109 152 229
0.022434 0.192157 0.000425 254 252 254
-0.077247 0.185564 0.057647 128 133 136
0.085706 0.133333 0.037095 254 254 254
-0.026959 -0.208243 0.012187 255 254 252
-0.043191 -0.225516 0.026345 253 254 252
-0.079007 0.055517 -0.010588 105 148 231
0.007086 0.189287 0.025965 253 255 252
-0.075467 0.214310 0.014338 127 130 134
-0.075537 -0.162508 -0.035747 106 141 209
-0.077822 0.129652 -0.067361 102 146 225
-0.004990 -0.200041 0.035056 252 254 252
-0.078884 0.033079 -0.024297 105 151 233
-0.031851 0.240387 -0.029581 254 254 252
-0.083668 0.062754 -0.015018 125 132 134
-0.097362 -0.071038 0.015316 105 143 206
-0.096902 0.162849 -0.044279 102 149 234
0.050273 -0.122114 0.014246 253 255 255
-0.096045 -0.216737 -0.057537 104 148 229
-0.094588 -0.096478 -0.012044 103 142 213
0.207386 0.065311 0.012258 255 253 254
-0.064501 -0.265988 -0.045553 254 254 253
-0.099136 -0.099739 -0.061731 106 151 231
-0.076853 0.024110 0.012537 103 135 195
0.040282 -0.144067 0.024236 252 254 252
-0.099135 0.080805 -0.037411 105 149 231
-0.097183 0.044350 -0.015935 129 128 132
-0.097121 0.226942 -0.075967 130 128 135
-0.075002 -0.120926 0.042587 106 149 229
-0.092608 -0.238164 0.033524 105 147 221
-0.095472 -0.142424 0.018775 106 144 209
0.028295 -0.145199 -0.007958 253 253 253
0.217974 0.079954 0.016088 252 254 252
-0.076348 -0.063390 0.001188 104 135 189
0.113909 -0.055672 0.006379 254 253 253
-0.076369 0.207943 -0.024688 102 148 233
0.090056 0.130144 0.024358 254 253 254
0.023379 0.196075 0.032706 253 253 254
-0.076705 0.165201 -0.058218 130 132 137
0.218527 -0.010864 0.031112 255 255 255
0.032925 -0.134319 0.063396 253 253 254
-0.073568 -0.081844 0.029798 103 144 215
0.172252 0.035906 -0.001322 255 254 254
-0.076248 0.278567 0.012457 107 147 222
-0.081883 -0.276624 -0.020734 130 133 137
-0.095348 0.205228 -0.024522 104 140 208
-0.001005 0.212421 -0.013238 255 254 253
-0.096334 -0.164418 0.020179 128 133 137
0.121066 0.100751 0.051292 253 254 252
-0.076128 -0.048170 0.009547 108 143 205
-0.074511 -0.265684 0.000569 254 253 253
-0.092300 0.101643 -0.085322 106 151 233
0.064610 0.144944 -0.027946 255 254 254
0.151185 0.073509 0.023808 253 253 255
-0.088983 -0.253970 0.041943 103 145 224
-0.094616 0.113200 0.016799 103 144 219
-0.031487 0.226506 -0.012354 254 252 253
-0.097890 0.118056 0.004880 105 149 232
-0.075277 -0.091313 0.044715 130 132 139
-0.097761 -0.154732 -0.032327 105 136 194
0.161296 0.019841 0.041877 254 252 253
-0.067928 0.247593 -0.061224 188 189 195
-0.052069 -0.253432 0.010213 254 252 253
-0.097295 -0.081437 -0.059799 104 137 194
0.222872 -0.001139 0.027443 252 252 252
-0.070165 0.166255 0.052832 131 133 139
-0.044434 0.254464 0.059265 253 253 254
0.005574 0.209000 -0.008626 253 254 255
-0.094693 -0.233798 -0.011579 128 129 134
-0.073236 0.238421 0.057542 103 148 225
0.015334 -0.158443 0.048380 254 254 255
-0.067821 -0.253248 -0.015341 254 254 254
-0.097092 0.154576 -0.043000 104 139 203
-0.094562 0.224750 0.046618 110 128 160
-0.097694 0.114490 -0.078145 127 131 136
-0.071799 -0.056849 0.037691 132 135 140
0.209015 0.016037 0.018357 252 254 253
0.079941 0.138919 0.008482 253 253 255
-0.093915 -0.089636 -0.017883 106 152 233
-0.077156 0.027289 0.014973 129 131 136
0.016760 0.180924 0.024480 254 252 252
0.063370 0.155307 0.032710 254 254 255
-0.094288 -0.196176 -0.043236 106 147 222
0.048433 0.150570 -0.025171 255 255 255
-0.097878 0.161025 -0.053545 105 150 230
0.004295 0.210345 -0.004577 251 251 253
0.133944 0.071249 -0.002551 248 249 251
-0.076455 -0.117285 -0.070562 103 148 229
-0.098386 0.154089 -0.070896 104 148 230
-0.079388 0.113451 -0.010303 104 143 211
0.046241 -0.139338 -0.007836 251 251 252
0.206213 0.000159 0.032343 253 252 253
-0.073963 0.269556 0.008103 107 150 229
0.162259 0.020913 -0.000543 251 252 253
-0.086595 0.189785 0.029974 128 132 136
0.102269 0.099134 0.029062 253 253 254
0.014805 -0.175943 -0.003774 252 254 254
-0.057827 0.259391 -0.053820 252 253 254
0.010168 0.185587 -0.024331 252 253 254
-0.072944 -0.233023 -0.026864 103 139 204
-0.074392 -0.192438 0.058707 105 138 196
-0.075721 -0.060274 -0.047506 105 133 185
-0.070981 -0.271426 0.016028 253 253 252
0.042952 0.156559 0.013799 253 254 253
-0.050047 -0.236201 -0.031808 254 254 254
-0.094304 0.221607 0.047475 106 131 176
-0.074106 -0.135205 0.048088 104 147 229
-0.075128 -0.185674 -0.008257 134 136 139
-0.078142 0.244619 -0.066120 180 184 190
-0.098000 -0.157741 -0.050516 103 149 230
0.116069 -0.048709 -0.003796 253 254 253
-0.076572 -0.224883 -0.055403 133 135 139
-0.094950 -0.258667 -0.061053 106 143 214
-0.070531 -0.236436 0.039241 104 148 227
-0.073894 0.153045 0.040930 124 126 131
0.021637 0.176258 0.008900 252 252 253
0.095691 0.123605 0.017079 253 254 254
-0.097768 -0.086136 0.005757 131 134 140
0.068081 0.132792 0.034758 254 254 254
0.017210 -0.174021 -0.008455 255 255 255
-0.092616 -0.271113 -0.014540 106 149 231
0.171075 0.036395 0.030629 254 254 255
-0.025428 -0.204986 -0.033755 252 253 254
-0.094340 -0.157406 0.012561 106 143 214
-0.075456 -0.069604 -0.054898 128 132 134
0.020630 0.177302 0.029461 254 253 255
-0.096211 -0.219565 0.043858 105 149 227
-0.075514 -0.232950 -0.006063 103 149 232
-0.078415 0.082092 -0.011270 107 138 196
0.066821 0.133757 0.015513 253 254 253
-0.084273 -0.047894 -0.054432 108 130 172
0.055718 -0.112203 0.032450 255 254 252
-0.079299 0.158758 -0.083657 104 150 233
-0.056016 -0.256729 -0.006760 254 254 255
-0.074950 -0.187187 0.000779 129 138 152
0.057520 0.160184 0.003007 254 252 253
-0.072845 0.216996 -0.079267 105 135 192
-0.010410 0.221359 0.037469 254 253 254
0.001247 0.209927 -0.020129 252 253 252
-0.096489 0.242712 -0.037098 104 149 231
0.157306 0.017030 0.055688 254 253 253
0.055066 0.145239 0.059921 252 252 254
-0.093565 -0.186162 0.058558 105 150 233
-0.078256 -0.271225 0.006923 103 148 232
-0.094688 -0.197503 0.060957 105 134 186
-0.096714 0.256775 -0.046917 105 151 233
0.081658 -0.069436 0.053175 255 253 254
-0.076382 -0.054668 0.032404 103 139 207
-0.094069 -0.054043 -0.062454 103 150 232
0.142185 -0.016433 0.028788 254 254 254
-0.097027 -0.037560 -0.007294 103 143 215
-0.094429 -0.079713 0.041949 130 130 136
-0.076038 0.057994 0.035639 104 148 230
-0.053011 -0.234429 0.047198 253 252 254
0.197362 0.025467 0.038913 254 253 252
-0.094254 -0.078105 -0.066559 109 134 183
-0.008259 -0.186868 0.039231 253 255 255
-0.095131 -0.154105 -0.033787 105 148 224
0.124914 -0.043313 0.018888 254 254 253
0.029882 0.179273 -0.009688 255 255 254
-0.058121 0.261327 0.020458 253 253 254
-0.087768 0.139522 0.048671 139 143 151
-0.076709 -0.140448 -0.020914 103 148 233
0.036966 -0.134911 -0.000492 253 253 252
0.099744 0.123542 0.058330 252 253 253
-0.075341 0.154971 -0.035328 104 149 232
-0.076470 0.240124 -0.011751 104 142 213
-0.098182 -0.234666 -0.061121 106 146 219
0.025136 0.190321 0.044702 254 253 252
-0.080723 -0.037697 -0.017296 103 147 227
-0.093488 -0.234490 0.024267 103 134 192
0.166925 0.046394 0.018343 253 252 254
0.024572 -0.148707 -0.017913 252 255 253
0.034206 0.164599 0.017543 253 252 253
-0.046877 0.240640 -0.000179 252 254 252
0.013292 -0.178567 0.051607 255 255 255
-0.095618 0.259269 -0.025181 104 149 231
-0.088403 0.049428 0.043012 106 138 199
-0.094157 0.237300 0.021722 103 132 187
-0.074991 -0.119122 0.031814 127 128 132
-0.087128 0.073904 -0.084399 106 144 219
-0.095538 -0.106755 -0.085652 131 131 137
0.137439 0.089836 0.059909 192 195 199
0.016347 0.197556 0.032102 254 254 254
-0.073139 -0.225430 0.041008 102 136 197
0.095253 -0.079231 0.051343 254 253 254
-0.072811 0.195697 -0.081972 108 139 194
0.072712 -0.077723 0.055290 253 251 251
-0.097111 -0.231921 -0.058584 125 127 132
-0.072329 0.240975 0.053202 102 148 231
0.035360 -0.151923 -0.004781 253 252 253
-0.101384 -0.158559 -0.069695 105 150 227
-0.098078 0.102667 -0.030245 105 150 233
-0.098185 -0.178585 0.047992 104 149 226
-0.065401 0.272675 0.054858 253 252 252
-0.097302 0.194964 0.034570 104 137 194
0.132929 -0.011239 0.004878 253 253 253
0.061512 -0.121620 0.002274 251 251 253
0.041754 0.158792 0.057007 253 253 254
-0.095364 -0.141246 0.000342 103 149 231
-0.052566 0.261334 -0.040362 254 253 252
0.095621 -0.064351 0.004675 253 253 253
0.192690 0.030894 0.047659 252 253 254
0.065465 -0.097866 0.044389 254 252 255
-0.041839 0.251601 -0.011440 252 252 253
0.209914 0.015624 0.021976 253 254 254
-0.097142 -0.106262 -0.052956 127 126 130
-0.039770 0.233594 0.045620 254 255 254
-0.049696 -0.248419 0.054032 252 252 253
-0.098999 0.161952 0.013567 104 138 199
-0.076278 -0.075672 -0.062413 104 150 230
-0.029504 -0.226698 0.035879 255 253 252
-0.074351 -0.128247 0.016886 141 145 149
-0.057598 0.246457 -0.036533 253 252 253
0.190491 0.048668 0.054490 253 254 254
0.101286 -0.053270 -0.004504 253 252 254
-0.091303 -0.034667 -0.024734 103 148 232
-0.073631 -0.265977 -0.021480 253 253 253
0.080174 0.126039 -0.019939 254 253 254
-0.026418 -0.206216 -0.021626 252 252 253
-0.099092 0.031786 0.012660 104 145 214
-0.076947 -0.078286 -0.019711 105 150 232
0.003709 0.192645 -0.001548 253 255 253
0.126104 -0.040528 0.003381 253 253 254
-0.077012 0.271547 -0.035744 105 141 207
-0.089201 0.239090 0.055356 105 147 224
0.122580 -0.025714 0.022295 253 253 253
-0.051307 0.245587 0.032837 254 254 254
-0.049004 -0.250863 -0.009442 253 253 252
-0.096981 -0.238628 -0.007205 106 151 232
0.051641 0.146190 -0.018766 252 254 254
-0.083684 -0.156929 -0.082374 104 149 232
-0.095641 0.131635 -0.022715 107 142 202
-0.096932 0.088289 -0.061920 103 146 223
-0.076683 -0.242573 -0.044853 106 149 227
-0.057502 -0.238523 0.056593 251 251 251
0.017715 -0.173858 0.029166 255 255 252
0.008354 0.187853 0.010729 254 252 255
-0.095444 -0.148074 0.011649 105 149 230
-0.077546 0.233033 -0.035360 103 146 228
-0.095628 0.169323 -0.059153 105 143 213
-0.037066 0.235588 -0.040851 252 252 254
0.178393 0.048497 0.019356 254 254 253
-0.053351 -0.238920 -0.005580 253 252 254
0.172618 0.020440 -0.000706 254 253 254
0.003262 0.196544 0.055062 185 189 194
0.146366 0.076611 -0.001764 253 253 252
-0.085274 -0.273284 -0.035477 107 148 224
-0.085324 0.014251 0.001884 106 142 206
-0.037382 0.238591 0.026416 252 253 253
-0.076991 -0.231448 0.058764 105 143 211
-0.075283 -0.230475 -0.040108 126 129 132
-0.017862 -0.212967 0.056475 252 252 254
-0.100643 -0.117953 -0.033572 106 141 208
-0.091464 -0.261125 0.040760 130 132 136
-0.096627 -0.195073 0.038838 105 149 230
-0.097540 -0.056747 -0.042389 107 152 231
0.054088 0.161818 -0.022017 252 252 252
0.026632 0.176901 0.056324 197 201 204
0.148338 0.011571 0.052002 255 254 254
-0.039540 -0.238268 -0.018241 255 253 252
-0.075186 0.130462 -0.084775 105 140 206
-0.096301 0.057741 0.036018 106 146 222
-0.093136 -0.187078 0.019195 104 150 233
-0.072001 0.213522 0.053906 127 130 134
0.126957 -0.017669 0.055933 253 254 254
-0.026668 0.219095 -0.038484 252 253 254
-0.094313 -0.069593 -0.012109 102 144 218
0.172979 0.012420 0.013537 255 255 252
-0.037148 0.228519 0.059369 254 254 255
-0.075299 -0.106316 -0.029616 102 134 192
-0.074866 0.287106 0.003589 127 126 132
0.092716 0.126717 0.026198 252 254 255
-0.095986 0.072298 0.029968 106 150 231
-0.011347 -0.208459 -0.024757 254 253 252
-0.037515 0.246625 -0.023810 252 252 253
-0.098561 0.043200 -0.070948 108 152 233
-0.095503 -0.126934 0.045578 105 142 210
-0.094907 -0.081485 0.005897 104 138 200
-0.078458 0.217737 0.055884 130 133 137
0.226037 -0.003636 0.041078 253 253 254
-0.078978 -0.051347 0.038946 128 131 135
-0.089957 0.056009 0.045015 103 150 231
-0.008061 -0.200227 -0.033304 254 253 254
0.153437 -0.002750 0.026866 253 252 252
0.102515 0.107214 -0.011397 254 254 254
-0.097752 0.023450 -0.035168 127 131 136
-0.077259 0.058946 -0.079397 107 145 215
-0.098982 0.091447 -0.067692 104 144 212
0.207645 -0.000144 0.054213 252 252 253
-0.031813 0.226930 0.062007 252 253 253
0.230482 -0.010213 0.055920 252 254 254
-0.100100 -0.087390 -0.057735 107 152 232
-0.096566 -0.221627 -0.020427 105 147 220
-0.070673 0.167990 0.054276 104 149 233
-0.086222 -0.093634 -0.081352 105 148 227
-0.008265 -0.206321 0.034278 253 254 255
0.119488 0.101154 0.053151 254 255 252
-0.074757 -0.198088 -0.049702 105 137 199
0.041091 0.174894 0.034470 253 254 253
0.143875 0.001280 0.021415 253 254 255
0.042284 0.156385 0.019496 254 255 254
0.030743 -0.157178 -0.007236 253 254 254
-0.096656 0.150994 -0.043191 105 146 226
-0.086326 0.123388 -0.034645 102 147 227
-0.044711 -0.228975 -0.023574 253 253 252
0.103927 0.116009 0.030831 253 254 253
-0.095743 -0.137414 -0.046530 104 147 230
-0.092689 0.039073 0.041160 106 150 232
0.084307 -0.091994 -0.010455 253 252 252
-0.078244 0.144016 -0.012896 107 135 187
-0.096684 -0.192310 0.015767 104 147 225
0.068824 -0.114430 0.006756 252 252 253
0.222435 -0.014866 0.048885 252 252 254
0.084074 -0.078061 0.015808 253 253 254
-0.094693 -0.170098 0.000050 104 149 230
-0.014968 -0.208409 -0.026555 253 253 253
0.040300 0.156541 0.029373 253 253 254
-0.073118 -0.226808 0.055971 132 135 140
-0.075087 -0.082398 0.036884 102 137 203
0.050319 0.149960 0.055227 254 253 253
-0.058723 -0.243301 0.038821 253 254 253
0.092832 -0.063641 0.005891 254 253 254
-0.018847 0.217069 0.008241 253 253 253
0.045410 -0.124070 0.024671 254 254 254
0.070903 0.129351 0.042499 255 255 255
-0.094574 -0.154608 0.020407 106 149 227
-0.078257 0.123314 -0.003943 129 132 135
-0.092754 -0.168932 0.036378 104 148 232
0.074872 0.127065 0.054282 255 254 254
0.102834 -0.069519 0.044819 253 253 253
0.184084 0.024520 0.034649 252 254 253
-0.075390 0.122156 -0.085873 105 148 227
-0.096911 0.040059 -0.050103 102 150 233
-0.077305 0.024312 0.006288 105 142 207
-0.065403 0.274040 0.015997 255 252 254
-0.039096 0.248781 -0.000831 253 253 252
-0.003261 -0.177806 0.058694 254 253 254
-0.086904 -0.255839 0.051656 109 149 219
-0.102437 -0.142263 -0.043158 106 150 233
-0.095227 -0.235290 -0.034765 103 141 208
-0.096291 -0.194678 -0.028335 106 148 225
-0.015813 0.222642 0.061023 251 252 252
-0.088056 0.164310 0.053687 103 149 232
-0.097755 -0.259247 -0.055554 106 145 212
0.004403 -0.176715 0.062603 255 255 254
-0.071987 0.106309 0.047746 128 130 135
-0.075885 -0.184148 0.037389 103 146 223
-0.011987 0.206082 0.034126 252 253 252
0.143836 -0.010418 0.055312 253 254 253
0.125857 0.075810 0.049654 252 253 252
-0.076499 -0.094893 0.017297 105 138 194
-0.094646 0.153376 0.050122 106 150 231
-0.009964 -0.189320 -0.021280 253 252 252
-0.052217 -0.253907 -0.014734 254 253 252
-0.076502 0.238237 -0.042934 102 146 228
0.083370 -0.092050 0.060041 255 254 253
0.030491 -0.141627 0.011875 251 251 253
-0.076981 0.275815 -0.041298 130 129 134
-0.078703 0.090259 0.046633 105 149 231
-0.063797 -0.251712 -0.003462 251 253 252
0.084763 -0.077265 0.013047 252 254 253
0.061287 0.142297 0.039708 252 254 254
-0.078460 0.123696 0.012412 104 147 226
-0.053783 -0.238539 -0.035080 252 253 252
0.070271 0.126057 0.041056 255 254 254
-0.075502 0.238163 -0.004876 103 150 234
0.093700 -0.071124 -0.008631 252 253 254
-0.077269 0.053409 -0.018298 105 151 233
-0.054250 0.247600 0.035515 252 254 252
-0.077744 0.112599 -0.058690 124 127 132
-0.075038 0.027915 -0.033250 122 130 143
0.096934 -0.061317 0.017866 252 254 252
-0.076268 -0.177763 -0.010171 103 148 230
-0.063611 0.273165 -0.047132 255 255 253
-0.074798 0.228193 0.011512 128 132 137
-0.077016 0.104343 0.015814 104 148 230
0.111250 0.093242 0.054431 253 254 253
-0.030504 -0.227526 -0.033547 252 252 253
0.114701 -0.035681 0.033831 253 253 254
-0.095844 -0.171152 -0.024377 103 146 227
-0.075813 -0.154027 -0.002734 133 137 141
-0.095805 0.034982 -0.015203 107 138 196
-0.074412 -0.172410 0.008350 103 137 197
-0.087908 0.238649 -0.074029 104 151 234
-0.047266 0.255754 -0.022760 253 254 252
-0.080872 -0.266001 0.031445 103 143 212
-0.075567 0.215618 0.025616 106 144 212
-0.067192 0.270006 0.023470 254 254 252
0.096001 -0.080384 -0.000032 251 251 252
0.030511 0.166192 0.053697 253 253 252
-0.054740 0.263140 0.062606 254 253 253
0.201371 0.019591 0.035873 253 252 253
-0.086311 -0.034366 -0.003478 104 136 195
-0.075856 0.236870 -0.006803 133 135 140
-0.075946 -0.139390 0.043990 104 140 211
-0.074904 -0.239846 0.036721 104 143 215
-0.023057 0.234080 -0.003596 253 255 253
0.026236 0.171963 0.024714 252 253 252
0.136635 -0.011593 0.058360 254 252 254
0.035454 -0.149822 0.029453 254 253 255
-0.076828 0.078334 -0.081241 103 148 233
0.159685 0.004160 0.040272 252 253 254
0.195251 0.042522 0.052185 252 253 253
0.139338 -0.012859 0.017626 251 252 253
-0.076304 0.272811 -0.003562 106 144 217
-0.098006 -0.270796 0.003421 105 150 229
-0.096849 0.029834 -0.018139 106 141 203
0.013938 -0.177992 -0.013028 253 254 253
-0.095369 0.194893 0.001998 105 150 234
0.012806 -0.179917 -0.020722 253 252 254
-0.004580 -0.199002 0.020595 253 254 253
-0.084472 0.044644 0.040984 102 149 229
-0.074910 -0.258420 0.047684 254 252 252
-0.047493 -0.250300 -0.019527 255 254 255
-0.038043 0.247100 -0.016874 251 252 254
-0.093962 -0.101688 0.014794 103 147 225
-0.000069 0.210468 -0.020407 253 255 254
0.108133 0.111625 0.001767 252 253 253
-0.062113 -0.245636 0.051384 252 254 254
-0.036789 -0.218752 0.028938 252 254 252
-0.011232 0.206218 -0.014890 251 252 252
0.005255 -0.169748 0.043775 252 254 255
-0.074982 0.165551 0.032153 102 146 227
-0.092251 -0.107120 -0.085062 104 149 230
-0.015287 -0.195518 -0.017768 251 251 251
0.071722 -0.087654 0.058312 253 253 253
-0.076955 -0.174251 -0.041521 103 145 224
0.002504 0.206866 -0.027631 255 255 254
-0.094143 0.205138 0.045540 131 134 139
0.085764 0.115159 -0.001493 253 254 253
-0.076366 0.127253 -0.076262 129 134 137
0.024602 -0.158962 0.040916 252 253 252
-0.076574 -0.069447 0.020577 105 148 227
-0.077756 0.102400 -0.018337 134 139 144
0.134841 0.087053 0.027837 255 254 252
0.053108 0.147732 0.009403 253 253 253
-0.096826 0.068490 0.000001 103 150 233
0.186559 0.028445 0.029226 254 252 253
0.013086 0.184495 0.050272 253 253 252
-0.087562 -0.107726 -0.088608 138 142 146
0.057830 -0.126530 0.008222 254 253 255
0.161300 0.002304 0.011739 251 252 252
0.134409 0.088768 0.052903 254 253 254
-0.063309 0.266511 -0.043992 254 253 254
-0.074405 0.225170 0.041358 106 130 174
0.026822 0.172461 -0.033108 255 254 255
0.168983 0.053536 0.027039 252 252 253
-0.012722 0.211570 -0.040960 255 255 252
-0.095590 -0.037696 -0.014586 107 144 211
-0.007052 0.200899 0.017444 251 253 252
-0.095900 -0.059318 -0.002368 106 145 217
-0.002990 0.215606 0.029030 254 253 253
-0.097472 0.231165 -0.027216 105 149 231
0.050971 0.164991 -0.016769 254 254 254
0.091930 -0.085319 -0.009270 251 253 253
0.093113 0.127690 0.031141 255 255 255
0.135785 0.077814 -0.010832 255 255 253
0.134589 0.066847 -0.008171 254 253 252
-0.079507 0.110978 -0.048507 102 143 220
-0.074251 0.233249 0.016995 103 147 231
-0.007016 0.220055 0.033824 253 253 253
0.072040 -0.093305 0.005390 254 254 253
0.025491 0.189435 0.031543 254 254 254
-0.095092 0.102896 0.032199 103 149 233
-0.098294 -0.188073 -0.057954 105 143 213
-0.094128 -0.248552 0.025243 103 137 194
-0.075440 -0.236672 -0.007561 106 144 214
-0.076243 -0.093168 -0.061325 133 132 137
-0.055570 0.266332 0.005978 253 253 254
-0.094467 -0.101291 0.035639 105 149 230
0.121331 0.099114 0.031502 196 200 200
-0.075320 0.250592 -0.048727 107 140 199
-0.096002 0.129001 -0.031410 106 142 207
-0.076648 -0.047842 -0.012951 103 149 231
-0.071463 -0.268404 0.036184 129 137 145
-0.093824 -0.256386 0.023624 103 149 229
0.080666 -0.098368 0.009161 252 250 253
-0.004742 -0.203678 -0.023795 252 252 254
-0.075101 -0.173752 -0.053036 104 147 227
0.081735 -0.096587 0.052974 252 253 252
0.013431 -0.179491 -0.028784 254 253 253
0.058181 0.157919 -0.016915 254 255 254
0.085324 -0.077725 0.060543 254 253 254
0.242971 -0.015021 0.044856 252 251 254
0.036093 0.170076 0.058813 253 255 254
-0.096818 0.154188 -0.072041 105 145 217
-0.077034 -0.273768 -0.008033 133 137 142
-0.096313 0.106264 -0.025523 105 151 234
0.204957 0.072754 0.031436 253 252 253
-0.088077 -0.039478 -0.043428 106 148 232
-0.020613 -0.208827 -0.035029 252 252 253
-0.085509 -0.064348 0.038190 133 135 139
0.255385 -0.046290 0.018570 253 253 253
0.091354 -0.084548 0.044022 253 252 253
0.005051 -0.184638 0.045310 252 253 253
0.037309 -0.135461 -0.027528 252 252 253
0.110165 0.092856 0.013894 254 254 253
-0.093604 -0.056627 0.012462 107 151 230
-0.078848 0.097637 0.046823 103 148 229
0.164608 0.041507 0.019583 254 255 253
-0.073651 -0.204030 0.038541 104 147 224
0.115351 0.102827 0.048464 252 252 252
0.120808 -0.027833 0.030055 254 254 254
-0.080280 0.205102 0.024499 128 129 133
-0.073908 -0.173869 -0.009937 104 139 204
-0.094872 -0.159069 0.001975 105 150 232
-0.077004 -0.206143 -0.065337 112 134 173
-0.011581 -0.199965 -0.034899 253 252 253
-0.059335 -0.263010 0.026687 253 253 253
0.133863 0.073739 -0.006950 251 251 252
0.051384 0.149205 0.022491 253 253 254
-0.092659 -0.228774 0.053437 104 135 190
-0.049233 -0.253378 -0.025103 252 253 253
-0.097557 -0.206352 -0.041207 104 137 199
-0.086741 -0.051321 -0.054080 131 130 135
-0.030364 -0.230579 -0.002806 254 254 254
-0.063842 -0.250071 0.032196 253 252 253
0.011245 -0.162945 0.024421 252 255 254
0.188230 0.054705 0.047684 254 254 254
-0.096150 -0.134653 -0.047760 106 150 228
0.165940 0.020603 0.018391 253 254 252
-0.053300 0.262191 0.010914 253 252 253
-0.096241 0.217922 -0.058176 103 141 212
-0.020484 0.229565 0.018527 253 254 254
-0.073451 0.201260 -0.022457 104 145 222
0.107776 0.112466 -0.008261 254 253 255
0.067684 0.150245 0.032536 254 252 252
0.064771 -0.095555 0.051688 254 254 254
-0.083145 0.185664 0.059064 127 130 137
0.050494 -0.116191 0.061929 254 253 254
0.221129 0.085311 0.046289 254 253 255
0.076895 0.132841 -0.020140 252 254 254
-0.074968 0.270918 -0.022942 255 255 254
-0.044495 -0.242326 0.054388 253 252 252
0.143771 0.074024 0.031459 185 189 189
-0.003437 -0.178517 0.015368 252 252 251
-0.074757 -0.149412 -0.013663 104 145 221
-0.077013 0.161623 -0.004641 126 133 149
-0.017841 -0.196310 -0.018263 253 252 254
-0.069816 0.187282 0.057124 134 137 142
-0.095748 -0.098997 -0.012332 103 150 231
-0.077649 0.154537 -0.012423 109 131 166
0.033559 0.167595 -0.031546 252 253 252
-0.097524 0.176516 -0.078183 126 129 136
0.170135 0.044039 0.059990 254 252 253
0.076059 -0.102751 0.051282 255 253 255
-0.050564 0.121155 0.053476 167 170 175
-0.098228 0.121837 0.010909 107 133 180
-0.034530 -0.213630 0.035298 254 253 254
-0.076232 0.032747 -0.053157 103 148 233
0.026932 -0.162419 0.006142 254 252 253
0.023536 -0.168014 -0.022898 252 252 252
-0.079597 0.054290 0.045459 132 134 138
-0.068270 0.259013 -0.038554 251 251 253
-0.077484 0.058859 -0.026238 103 148 231
0.255196 -0.047763 0.026654 251 252 252
0.088016 0.122844 0.059285 253 253 253
-0.095150 -0.267358 -0.026898 104 149 231
0.106888 -0.064390 0.006670 253 254 253
-0.028185 0.238740 0.061707 253 253 255
-0.078340 0.088831 -0.035886 127 130 134
0.101733 -0.049478 0.059770 255 255 253
-0.098076 0.066460 -0.065805 103 149 230
0.141687 0.003728 0.055069 251 251 252
-0.075908 -0.159015 -0.040171 102 140 208
0.088665 -0.090092 -0.002845 252 252 252
-0.022252 -0.199753 0.061730 254 254 252
-0.099362 0.232432 -0.008881 105 150 229
-0.048034 0.241987 -0.001449 251 252 251
-0.097668 0.087949 -0.063991 106 140 204
-0.094950 -0.180092 0.058894 107 149 228
0.197817 0.023118 0.018169 254 255 253
0.022571 -0.151375 0.052883 255 254 254
-0.083554 0.234057 0.056642 141 146 155
0.015663 0.181249 -0.011612 252 254 253
0.209474 0.062977 0.028279 254 255 255
-0.096941 0.040565 0.021527 106 150 232
-0.084215 0.186006 0.054900 104 149 234
-0.095356 0.022278 -0.008976 107 135 187
0.158946 0.043284 0.014467 254 255 254
0.171377 0.040922 -0.007762 252 252 252
0.110834 -0.040493 0.018510 252 253 253
-0.072493 -0.271352 -0.006062 110 146 206
0.112674 0.107788 -0.006398 252 253 254
0.040148 -0.136048 0.060779 253 253 255
0.037930 -0.130397 0.013723 253 254 254
0.009308 0.203444 0.042138 253 254 252
-0.073621 0.126028 0.049707 132 134 138
0.001139 -0.174889 0.035995 253 252 254
-0.076395 0.047361 0.011918 103 150 232
-0.072597 0.183033 0.003088 131 131 138
-0.051347 -0.254018 -0.006504 252 254 254
-0.093936 -0.261734 0.036995 105 144 211
-0.070941 0.234392 0.056063 188 191 194
-0.076902 0.068255 -0.078396 104 151 233
0.033724 -0.149539 0.060969 254 254 254
-0.033742 0.225661 -0.002594 255 253 255
-0.010086 0.220949 0.009387 253 253 253
-0.012416 -0.189011 0.034869 253 253 252
-0.076435 0.194783 0.015073 105 150 231
-0.095514 -0.240386 0.020878 106 139 200
0.152966 -0.004381 0.021863 255 255 254
-0.072217 -0.194471 -0.012271 103 142 212
0.152506 -0.003969 0.036974 252 252 252
-0.094768 -0.074442 0.033195 104 149 231
-0.078060 0.127350 -0.075161 104 140 205
0.067945 0.133121 0.049951 255 254 253
-0.087550 0.158944 0.048576 102 148 233
-0.078417 0.084049 -0.030319 105 144 210
0.162611 0.062504 0.053586 253 254 255
0.146147 0.060316 0.031816 253 254 255
0.092639 -0.067776 -0.001894 250 251 251
-0.079146 0.248166 0.056528 141 144 150
-0.097322 0.101977 0.006191 104 139 203
0.120301 -0.047617 0.006744 253 254 252
-0.045877 -0.222829 0.053977 252 253 251
0.037843 0.159928 -0.020026 252 253 252
-0.076113 0.271938 -0.055083 124 127 134
0.019028 0.199239 0.049141 254 254 252
-0.077805 0.083690 0.025367 102 148 233
0.064570 0.154295 0.034895 254 255 255
-0.077097 -0.091870 -0.062248 103 147 226
-0.077210 -0.068197 0.007844 103 150 232
-0.096788 0.018022 0.012430 106 145 214
-0.076152 0.188110 -0.075732 103 148 232
-0.002042 0.193635 0.011832 255 254 255
-0.024433 -0.223372 0.032717 252 254 253
-0.015586 -0.192304 0.056813 254 253 254
-0.096885 0.135393 -0.041475 102 145 220
-0.075788 -0.135239 -0.060465 103 149 233
-0.076689 -0.168483 -0.018404 103 148 231
-0.086695 -0.081465 0.047049 103 143 218
0.107579 0.112295 -0.015275 252 252 252
-0.048161 0.241748 -0.024402 251 252 252
0.115399 0.094433 -0.011303 253 252 252
-0.096588 -0.039857 -0.033499 143 148 154
-0.059884 -0.265033 0.007284 254 252 253
-0.061225 -0.265158 0.017364 253 253 253
-0.071006 0.259612 0.020815 114 144 192
-0.095788 0.231208 -0.060986 128 132 136
-0.092515 0.022677 -0.038655 128 133 137
0.042591 0.174975 0.060624 253 253 253
0.080565 -0.083689 -0.003312 252 252 251
0.052345 -0.128513 -0.027029 252 252 254
-0.075401 -0.070188 0.013661 102 149 231
-0.088978 0.252701 0.053306 106 145 216
0.142743 0.080251 0.010486 254 253 254
0.096829 -0.062247 0.000584 253 253 253
0.165228 0.042162 -0.006394 253 254 253
-0.079948 0.138188 -0.053264 105 149 233
-0.006501 0.197845 -0.000174 255 255 254
-0.076351 -0.125202 -0.050507 132 134 137
-0.072530 -0.182926 0.049512 130 132 139
-0.082245 0.006643 0.008436 133 131 137
0.116757 0.104639 0.048186 252 254 253
-0.054400 -0.238152 0.046208 253 255 254
-0.070403 -0.255872 0.058284 252 252 252
-0.004595 -0.197795 0.032401 252 253 253
-0.074269 -0.171034 0.022658 103 132 186
-0.089524 -0.057360 -0.067206 103 148 229
0.146239 0.006102 0.050957 253 252 255
0.202385 0.012918 0.008803 253 254 255
-0.096200 -0.179800 -0.037218 104 147 224
-0.086025 -0.065892 0.038420 107 148 224
-0.076843 -0.089424 -0.019990 103 146 228
0.050902 0.163902 -0.021761 253 253 253
0.041905 0.157552 0.009496 253 253 255
-0.074434 0.224643 -0.047636 103 148 232
0.077513 -0.086135 0.000984 253 253 254
-0.012738 0.223962 0.001815 253 254 252
0.204047 0.008939 -0.006955 253 253 253
0.107830 0.095451 0.032717 253 254 253
-0.038845 0.247820 0.017765 255 255 255
-0.073344 0.249699 0.045210 103 138 204
-0.072523 -0.232090 -0.015202 104 146 223
0.215167 0.007109 -0.004391 255 253 253
-0.076866 0.131672 -0.061436 103 138 198
0.096940 0.105739 0.043666 253 254 254
-0.047977 0.241119 0.021835 252 254 254
-0.035792 -0.216234 0.065568 255 255 255
-0.088996 -0.053668 -0.067479 106 144 213
-0.077651 -0.068663 -0.081061 105 133 183
-0.073878 -0.194887 0.048536 103 146 224
0.041927 0.166107 0.059186 252 253 254
-0.095229 -0.222057 -0.024127 103 149 229
-0.061826 -0.257190 -0.044113 254 255 255
-0.095024 -0.053808 -0.036569 103 144 217
-0.073020 0.192326 0.053645 103 148 230
0.175223 0.039510 0.045272 254 252 253
0.045538 -0.142953 -0.027002 252 252 252
-0.069013 -0.232110 0.059529 168 172 176
-0.097631 -0.099263 0.005547 103 149 231
-0.015559 0.226808 0.016110 253 254 254
-0.097353 -0.179903 -0.003912 103 149 230
0.247463 -0.041917 0.044067 252 253 254
-0.078010 -0.114135 0.022249 127 131 137
-0.095896 -0.177524 -0.065676 103 145 217
-0.098011 0.126988 0.029251 103 144 218
-0.096602 -0.110615 -0.087548 106 142 212
-0.086855 -0.203499 -0.078399 103 149 232
-0.097078 -0.222452 -0.028472 106 143 210
0.158437 0.052878 -0.008089 252 252 252
-0.094492 -0.067027 -0.028061 103 147 230
-0.049792 -0.248212 0.052919 253 252 253
0.092674 -0.065866 -0.000316 252 253 251
0.098798 0.103736 0.031547 253 252 254
-0.072963 0.263958 0.037451 137 140 143
-0.018231 0.212600 0.020587 251 251 253
0.019261 -0.149219 0.045805 254 253 254
0.114593 0.106704 0.048053 255 253 254
0.213224 0.017155 0.056587 255 252 255
-0.009670 -0.187902 0.050482 253 252 253
-0.093836 -0.270171 -0.049414 132 133 137
-0.056031 0.249174 -0.017771 251 251 253
-0.051167 0.259374 -0.013543 252 252 254
-0.075098 0.210367 -0.061331 103 145 222
-0.092878 -0.156603 0.056927 106 138 197
-0.081733 -0.103986 -0.084971 104 148 229
-0.095878 0.263535 0.002933 105 150 232
-0.093149 -0.174658 -0.086034 104 149 232
0.073493 -0.106933 0.020961 253 254 252
-0.094134 -0.240330 0.045776 104 138 198
-0.073753 0.268023 0.020155 104 150 232
-0.029610 0.236843 0.000336 251 251 252
0.052105 -0.135819 0.034182 253 253 254
0.116562 0.104313 0.010523 251 253 253
0.051521 0.166199 0.013934 255 255 253
-0.096725 0.188224 -0.025405 105 145 217
-0.075202 -0.064892 -0.008601 105 131 179
0.026412 -0.153083 0.062657 253 254 254
0.144758 0.006709 0.054412 254 254 253
-0.026840 0.236626 0.055488 253 253 253
-0.071278 -0.185713 -0.039803 106 143 207
-0.093809 -0.098631 0.012727 103 145 221
0.211551 0.014816 0.053195 253 254 253
-0.071446 -0.258869 -0.021434 254 252 253
-0.072887 0.261842 -0.004991 252 252 254
-0.093652 -0.141853 0.027622 106 150 230
-0.036547 -0.216871 0.008997 253 254 254
-0.094702 -0.211339 0.051602 126 133 138
-0.095561 0.223479 -0.034497 105 149 232
0.050864 0.168922 -0.025059 253 252 254
-0.072973 0.138863 0.050421 128 131 135
-0.099486 -0.139250 0.019126 105 150 231
-0.074350 0.186740 0.055029 103 150 232
-0.029422 0.222231 0.026427 252 254 254
-0.065831 -0.252016 0.022390 254 254 254
-0.096017 -0.071275 -0.038798 105 150 231
-0.052210 0.245436 -0.006366 254 255 254
-0.095527 -0.180194 0.030279 105 142 205
-0.075346 -0.103737 -0.015329 104 148 232
-0.008754 0.221177 -0.030074 253 252 252
0.074961 0.137954 0.024964 254 253 254
-0.098165 0.188647 0.001462 107 142 203
-0.019630 -0.199767 0.003519 255 254 252
-0.078539 0.153095 -0.014793 103 149 233
-0.051641 0.242497 -0.032813 252 253 252
-0.016332 -0.203428 -0.032042 254 252 254
-0.001902 -0.197352 -0.024597 251 252 254
-0.076855 0.248484 -0.017642 106 131 177
-0.073236 -0.106584 0.001638 104 142 208
-0.077101 0.146520 0.026870 102 137 200
-0.087502 -0.122155 0.050406 103 140 207
-0.001105 -0.178733 -0.001288 254 253 253
0.026558 -0.145242 -0.007159 251 251 251
0.189981 0.046886 0.041845 254 253 253
0.051430 0.150971 -0.012748 250 251 251
0.170559 0.038639 -0.002140 254 255 254
-0.056007 -0.242363 -0.010509 254 255 253
0.178852 0.038191 0.047018 254 255 254
0.210531 0.000367 0.060369 252 251 253
-0.076010 -0.211109 -0.034351 105 149 229
0.124766 -0.022002 0.036554 254 253 254
0.118797 0.103110 0.054352 252 254 254
0.191994 0.035073 0.019767 252 252 252
0.098558 -0.075883 0.024954 252 254 252
-0.094945 -0.169971 0.045416 108 130 169
0.082513 -0.096013 0.004729 252 252 253
-0.092539 -0.261387 0.014841 131 137 142
0.057038 -0.129257 0.038312 252 254 252
0.003310 0.201788 -0.036823 253 253 255
-0.041062 -0.232601 -0.039325 254 254 253
0.154354 0.051441 0.049154 255 255 255
-0.100920 -0.112590 -0.073190 107 141 202
-0.076457 0.238183 -0.026373 103 148 231
0.164938 0.027587 0.020112 254 254 254
-0.045180 0.239593 0.063510 255 254 255
-0.079580 -0.197359 0.058896 102 147 224
0.160737 0.019355 0.009711 252 254 254
-0.077795 -0.066405 -0.078976 107 149 232
-0.077975 0.174110 -0.062271 102 139 208
-0.098225 0.173088 0.009398 103 148 230
-0.076749 0.129118 0.033178 104 149 234
0.090654 -0.086424 0.025646 250 250 251
0.211441 0.058554 0.047566 252 252 251
-0.009108 -0.189249 -0.010474 253 253 253
-0.076782 0.105074 -0.001846 103 142 215
-0.072892 0.075150 0.013188 107 141 201
-0.096327 -0.184814 -0.003789 105 151 233
-0.056471 -0.258173 0.047436 253 254 252
0.027543 -0.162221 -0.011887 251 252 252
-0.007967 0.203267 0.000821 255 255 255
0.058734 0.158839 0.049108 253 253 254
-0.086099 -0.203236 0.060634 104 146 225
-0.077662 0.159668 -0.013548 104 149 232
-0.007545 -0.182216 0.062785 254 254 252
-0.075259 -0.124932 0.014462 134 137 140
-0.002509 -0.198797 0.020918 252 252 253
-0.075113 -0.173823 0.004175 104 149 230
-0.061869 -0.263497 0.030275 253 253 253
-0.095521 0.218793 -0.044157 128 131 137
0.031051 0.166598 0.011704 253 252 252
-0.094105 0.222952 0.025845 126 130 134
0.059547 0.157476 0.029667 253 254 253
-0.004260 0.216815 0.027079 198 200 205
-0.053393 0.261723 0.031175 252 253 253
-0.074882 0.072047 0.044881 104 148 230
-0.074166 -0.199466 -0.064944 135 135 138
-0.097222 0.029000 -0.040860 107 148 222
-0.061772 -0.258304 -0.043373 252 251 252
-0.088801 -0.268198 0.024593 103 149 228
0.143300 0.065880 0.063465 252 253 254
-0.075514 -0.116467 -0.008452 108 141 198
-0.089999 -0.110571 0.049123 127 136 152
-0.075769 0.052345 0.040980 104 142 216
-0.076486 0.103848 -0.087775 107 151 231
-0.024274 -0.219319 -0.012709 253 253 252
0.146471 -0.009628 0.049583 255 255 254
0.068538 -0.090982 0.040175 252 253 254
-0.088143 -0.185617 0.058606 105 132 183
-0.058747 0.245882 0.063872 254 252 254
-0.089784 0.275228 -0.047716 127 131 139
-0.075318 -0.235433 -0.001498 102 148 230
-0.044282 0.235145 0.063460 251 250 253
-0.082151 0.040560 -0.067727 111 128 158
-0.076547 0.190171 -0.012725 102 148 233
-0.015700 0.226555 0.006137 253 253 252
-0.099840 0.181175 -0.004487 105 151 232
-0.090429 0.272371 0.007687 106 150 230
0.085541 -0.076897 -0.009712 253 253 253
0.048673 -0.128423 0.059692 252 252 254
-0.062959 0.270956 0.032101 255 255 253
-0.095499 -0.180722 0.048968 106 141 203
0.163239 0.041522 0.034805 254 252 254
0.059345 -0.105143 0.013067 254 254 253
-0.096075 0.211133 0.023353 107 151 230
0.228276 -0.002094 0.000259 254 252 253
-0.054889 -0.256829 -0.027866 253 253 253
-0.096016 0.208512 -0.027780 102 146 227
0.103528 -0.048022 0.055052 253 253 253
0.031452 0.181965 -0.011484 253 253 254
-0.019144 -0.197566 -0.020486 254 254 253
0.158749 0.067245 0.036861 252 254 253
0.079010 0.133613 0.006943 253 253 253
-0.071387 -0.270503 -0.033970 254 253 254
-0.074146 0.196403 0.036443 106 132 175
0.068170 -0.113326 0.025552 253 254 254
-0.094249 -0.032624 0.014305 104 150 230
-0.099624 0.204737 -0.021968 104 149 229
0.127031 -0.037250 0.016477 253 254 254
-0.096663 -0.145160 -0.045741 106 134 182
0.066274 0.133663 -0.010887 255 255 255
-0.072858 0.261074 0.035205 107 147 218
-0.076736 -0.210578 -0.057228 106 139 200
-0.072727 0.252428 0.045359 104 149 228
0.043516 -0.126350 0.027401 253 253 254
-0.075116 0.170628 0.036752 108 132 177
-0.075474 0.102927 0.045972 106 149 231
-0.003955 0.206324 -0.040373 252 254 252
-0.082342 0.194712 0.054780 127 129 133
-0.096286 -0.070280 -0.030154 104 144 217
-0.085313 0.066602 0.046530 104 149 231
-0.094328 0.013796 0.021500 109 144 210
0.116523 -0.052797 0.003742 253 253 252
-0.076361 -0.268473 0.021266 253 253 254
0.159220 0.065869 0.021640 254 253 253
-0.096837 -0.196062 -0.003868 105 150 232
0.162104 0.062713 0.058420 255 255 254
-0.076238 0.216239 0.002338 131 129 135
0.034987 0.179046 -0.001413 252 253 255
0.212066 0.009553 0.020941 252 252 252
-0.075697 -0.066584 -0.039840 103 148 229
-0.073786 0.255101 0.038903 183 186 193
-0.075925 -0.257538 -0.038556 106 147 223
-0.098686 -0.082444 -0.069662 128 129 134
-0.052104 0.260579 0.039854 252 254 252
-0.096473 0.022458 0.007415 103 148 227
-0.074843 0.230345 0.023351 104 130 175
0.040095 -0.126467 0.060828 253 254 255
-0.076026 0.236862 -0.039095 125 128 132
0.004495 0.203342 -0.017080 252 254 253
-0.093398 -0.174563 0.021060 102 148 231
-0.019745 -0.199581 -0.024800 254 254 254
-0.076194 0.206449 0.007677 104 148 230
0.000819 0.210170 0.059346 253 252 252
-0.028665 0.219970 -0.005502 254 253 255
-0.083961 0.277895 -0.010615 118 128 147
-0.076303 0.035528 0.026242 103 148 230
-0.029464 -0.226454 0.028816 254 255 253
-0.079463 0.087476 -0.026671 103 134 188
-0.092171 -0.041797 -0.053563 104 148 231
-0.095351 -0.067448 0.042119 130 133 137
-0.098127 0.097080 -0.078796 106 132 178
-0.067071 -0.246165 0.026438 254 254 254
-0.097577 -0.224464 -0.074670 108 141 198
0.141975 -0.016819 0.025639 253 252 254
0.213328 0.073918 0.051106 253 254 254
-0.074341 0.213294 0.058335 106 130 176
-0.079812 0.085810 -0.063910 104 151 232
0.102063 0.115027 -0.015812 252 253 254
-0.076665 0.224412 0.024342 105 150 232
-0.074072 -0.262719 -0.017572 129 134 148
-0.077245 0.168117 -0.025497 106 140 201
-0.075029 -0.096783 -0.045289 106 151 233
-0.091220 -0.245019 0.051130 136 139 145
-0.031405 -0.221064 0.063545 253 255 253
-0.097930 -0.084169 0.043606 105 148 225
-0.099367 0.098517 -0.028872 104 150 230
0.144993 0.062555 0.044604 255 255 255
0.213286 0.080186 0.029972 254 254 253
-0.037298 0.246432 0.044018 255 255 255
-0.035349 0.229378 -0.009580 252 253 254
0.075762 0.125023 0.055921 253 253 254
-0.096345 0.221168 0.008409 105 148 232
-0.095913 0.069381 -0.019191 104 148 228
-0.021492 -0.216348 -0.010307 253 254 253
0.190675 0.021423 0.012249 253 254 254
-0.066612 -0.266525 0.037256 253 255 254
-0.097678 0.220381 -0.047181 105 150 232
-0.075282 -0.264293 0.020953 252 252 252
-0.078440 0.122518 -0.085292 106 150 232
-0.095052 0.157639 0.024375 102 149 233
0.226283 0.082267 0.032648 252 251 253
-0.019003 0.230293 0.010374 254 252 254
-0.083860 -0.193727 -0.077451 108 145 209
0.136617 0.084837 -0.012884 254 253 255
-0.076670 -0.151290 -0.033250 106 140 203
-0.055118 -0.254402 -0.044105 254 254 254
-0.096728 0.031834 -0.053701 106 145 219
-0.039278 -0.244282 0.014062 252 252 253
-0.094776 -0.128084 -0.025961 103 145 220
0.200408 0.061026 0.003436 254 253 254
-0.076407 0.224671 -0.048093 105 144 218
0.022969 0.189816 -0.008014 253 252 253
0.192135 0.023676 0.022162 253 254 253
0.036610 -0.134261 0.029777 254 252 253
-0.093780 -0.264635 0.026646 133 134 139
-0.094193 -0.245388 -0.034269 104 149 232
-0.075771 0.234428 -0.010334 128 130 134
0.131394 -0.027372 0.048888 253 252 254
-0.080498 -0.267141 -0.044469 103 139 207
-0.098400 -0.125800 0.024192 105 150 230
-0.098919 -0.156902 0.003820 103 147 229
0.181144 0.037688 -0.002615 253 254 253
-0.075051 -0.059574 -0.051099 107 147 219
-0.071930 -0.267001 -0.014528 135 137 140
-0.095640 0.193038 -0.035320 106 150 233
-0.094963 0.256449 -0.062924 106 151 234
-0.027294 -0.206503 0.018485 253 254 253
-0.086979 0.234516 -0.077078 125 131 140
0.203125 -0.000836 0.032068 255 253 253
0.152111 0.072523 0.039581 254 252 253
-0.095870 0.066044 -0.034328 105 149 230
0.046423 -0.138537 0.013649 253 253 253
0.002145 0.205899 -0.039775 253 253 254
0.056707 -0.129047 -0.015994 253 253 252
-0.100000 0.096335 -0.056611 104 138 202
0.139649 0.082926 0.002684 252 252 254
-0.079883 0.086238 -0.047281 108 137 188
0.184720 0.022618 0.042266 253 253 254
-0.076132 -0.113765 -0.021911 105 148 228
-0.069374 -0.271674 -0.018628 254 253 252
-0.097830 0.210697 0.004172 106 131 175
-0.020359 0.234899 0.029446 255 255 254
-0.096283 0.148275 -0.002706 103 148 232
-0.038649 0.233089 0.008686 253 252 253
-0.074055 -0.182064 0.047631 103 131 182
0.143221 0.063653 0.035210 252 252 253
0.099497 -0.054108 0.053251 252 252 252
-0.000730 0.205611 0.058742 253 253 254
0.076825 0.124498 0.026407 253 255 255
-0.097634 0.145131 -0.040237 110 137 184
-0.075438 0.221971 -0.071912 107 148 226
-0.004362 -0.182058 -0.018106 254 253 253
0.047218 -0.138391 -0.002321 252 253 253
-0.036472 0.247020 -0.015904 252 252 253
0.209313 0.066894 0.036375 250 251 251
0.045574 0.169797 -0.011473 252 253 252
-0.097295 0.033254 -0.024974 103 144 219
-0.095520 -0.044626 -0.027319 105 142 207
-0.086924 -0.274970 0.011252 106 143 207
-0.025219 0.233816 -0.043260 253 253 252
0.174254 0.021755 0.041195 252 254 254
0.055847 -0.131288 -0.015705 252 254 254
0.146399 0.061425 0.063148 253 254 254
-0.088447 0.019522 -0.027003 105 147 221
-0.061453 0.254857 0.059124 252 252 252
-0.098403 -0.081406 -0.047505 125 133 138
-0.084683 0.201329 0.057596 102 149 233
-0.086362 -0.274882 -0.016801 106 150 228
-0.068837 0.250866 0.055963 165 169 178
0.076188 0.125057 0.050277 251 252 252
0.255341 -0.044039 0.025316 252 254 251
-0.077122 0.097293 0.034741 103 149 233
0.230224 -0.023350 0.035968 255 254 255
-0.094983 -0.142012 -0.024804 109 136 185
0.026852 0.167688 -0.014046 252 251 253
-0.074529 -0.245610 0.005214 105 149 227
0.070891 0.145613 0.060856 253 254 254
0.021451 0.176563 0.055390 252 253 254
0.099204 -0.074745 0.025313 254 252 252
-0.025981 0.218181 -0.031738 252 252 253
-0.069957 -0.270774 0.020058 253 254 255
-0.086290 -0.178445 -0.081346 128 135 139
-0.072702 0.273133 0.028592 124 128 132
-0.046027 0.255849 0.056400 252 253 255
-0.097472 -0.200928 -0.032356 103 150 232
0.192108 0.045147 0.029751 252 253 252
-0.097238 0.253828 -0.006905 104 148 223
-0.092417 0.177473 -0.079612 105 150 232
0.013398 0.192227 -0.025200 254 252 254
-0.075941 -0.145261 -0.086264 105 136 190
0.224007 0.075120 0.035330 254 253 252
-0.099687 0.134157 -0.062184 106 134 184
0.085294 -0.094330 -0.006965 251 252 252
-0.077385 0.108665 -0.033929 132 134 140
-0.096393 0.210270 -0.008058 103 151 233
-0.074642 -0.235857 0.022557 105 150 232
-0.094589 0.252294 -0.046055 105 138 197
0.042716 0.156412 0.049607 252 252 254
0.074193 -0.105916 0.030411 254 254 254
-0.073097 -0.185856 0.028979 108 139 193
-0.055628 -0.260978 -0.043806 254 255 254
-0.073167 -0.242184 0.044096 106 145 222
0.092487 -0.061212 0.061038 252 253 253
-0.097647 0.101658 -0.061345 103 150 233
-0.092200 -0.254348 0.010245 132 135 140
0.043117 0.172382 -0.003256 252 253 254
-0.074903 -0.044593 -0.057007 106 136 191
-0.099098 -0.088809 -0.056042 106 151 230
-0.001527 0.211064 -0.021381 187 190 193
-0.095145 0.063292 0.012198 104 142 212
-0.094866 -0.210500 0.043807 126 129 134
-0.098813 0.068725 -0.077897 104 151 233
-0.081369 -0.218659 0.061508 105 142 213
-0.096627 0.200318 -0.066306 105 149 232
0.107146 -0.047199 0.013685 252 252 253
0.098163 -0.057551 0.024659 249 249 251
0.133073 -0.011239 0.012240 252 252 252
0.145350 0.079219 -0.004472 252 253 254
-0.097246 -0.187629 -0.012639 133 137 146
-0.095410 -0.119007 -0.088577 105 146 220
-0.075951 0.191440 -0.034544 125 128 132
0.221179 0.076540 0.014875 254 254 253
-0.032063 0.242121 0.028478 252 254 254
-0.032482 0.229498 0.057296 251 252 253
0.047769 -0.122436 0.010371 253 254 252
-0.058150 0.264484 -0.049141 253 254 254
-0.097842 -0.136521 -0.011470 124 130 132
-0.078495 0.092440 0.003023 104 131 180
-0.052901 0.261600 0.002586 252 251 252
-0.075921 -0.045037 0.003700 104 149 229
0.031464 0.183637 0.026042 253 254 253
-0.096189 -0.271160 -0.015377 105 147 222
-0.094658 -0.253340 -0.052156 109 134 178
0.182212 0.043926 0.010889 254 253 253
-0.006652 -0.180857 0.034821 255 255 252
-0.077062 0.094417 0.043830 106 151 233
0.100208 0.121004 0.016153 254 254 253
-0.023370 -0.204516 -0.002845 255 255 254
-0.063778 -0.266711 0.029269 254 255 254
-0.077835 -0.153679 -0.055056 105 150 231
-0.096288 0.262130 -0.049404 103 149 230
-0.095004 0.206966 -0.000809 104 135 191
-0.097727 0.035146 -0.056499 130 130 136
-0.071531 0.196260 0.052432 131 132 138
0.126732 0.078460 0.043900 250 251 251
0.004522 -0.167145 -0.001794 171 174 178
-0.076643 -0.168992 -0.026300 103 146 221
-0.075331 -0.124123 -0.082200 103 141 211
-0.006899 0.216611 -0.036772 253 254 253
-0.083338 0.020400 -0.027431 130 135 141
-0.096645 0.039058 -0.001557 103 147 231
-0.094227 0.238924 0.033361 103 147 226
0.087691 -0.073239 0.021160 255 253 255
-0.094550 -0.218681 0.051675 107 139 195
0.121622 -0.028878 0.000671 253 253 252
0.158593 0.058641 0.036692 253 253 254
-0.072632 -0.232901 0.030417 103 148 228
0.188457 0.053272 0.036280 252 252 253
-0.005232 -0.201452 -0.020971 251 250 252
-0.074565 -0.223658 0.062452 130 131 136
0.126046 0.079023 0.042165 254 253 253
-0.098821 -0.232484 -0.026739 125 133 139
0.088131 -0.080208 0.056788 200 200 204
0.207727 0.016428 0.052442 253 254 253
-0.042973 -0.225829 0.017904 252 254 253
0.088057 -0.092030 -0.005381 251 251 252
-0.097779 0.101879 0.039134 104 147 225
0.004585 -0.190899 -0.029168 252 252 252
0.215637 0.065581 0.052534 253 253 253
-0.096969 0.255959 -0.030567 106 147 221
-0.013850 0.207546 0.033564 254 255 254
-0.095045 0.041294 0.023790 103 148 230
-0.013661 -0.209956 0.048166 254 254 254
-0.074277 0.211937 -0.018382 123 127 130
0.035548 -0.151620 0.030814 252 253 253
0.070711 -0.096707 -0.001586 253 254 253
-0.051688 -0.254309 0.028825 253 255 253
-0.077029 -0.224372 0.059479 104 138 204
0.015437 0.197941 0.027403 253 253 255
-0.093556 -0.259938 -0.001594 107 142 203
0.049421 0.145238 0.058715 254 253 254
-0.094403 0.223296 0.046501 106 151 234
-0.096969 0.070965 0.015900 106 151 232
-0.066714 -0.254577 -0.007489 252 253 252
-0.073138 -0.261389 -0.013995 106 149 225
-0.079224 -0.123042 -0.090260 105 149 231
-0.077784 0.052544 -0.032518 103 142 212
0.016681 -0.155526 0.024881 253 252 253
0.111481 -0.058172 0.037724 251 252 252
-0.073674 -0.266494 0.010228 252 254 254
0.119588 0.088064 -0.010548 254 254 252
0.056060 0.144228 0.027517 255 253 255
0.255173 -0.045776 0.038367 255 254 255
-0.084689 -0.221248 0.040083 131 136 141
-0.074129 0.204771 0.023407 102 146 228
-0.097929 -0.060282 -0.038936 130 134 139
-0.079949 0.108822 -0.017911 105 151 234
-0.002294 0.214042 0.022524 255 254 252
0.067471 0.133420 0.023509 253 253 254
0.089004 0.113009 -0.002039 253 254 255
-0.097295 -0.070340 -0.071408 126 131 137
-0.068585 -0.271802 0.023730 254 254 254
0.014806 0.198151 0.015750 255 255 252
-0.078591 -0.137585 0.041624 132 131 138
-0.034371 -0.235280 0.015609 254 253 252
-0.100695 -0.143758 -0.007764 105 148 224
-0.068017 0.186902 0.048689 166 172 173
-0.009775 -0.190662 0.062108 253 253 252
0.119908 0.085239 0.016528 255 253 253
0.083163 -0.095306 0.016875 251 251 253
-0.019092 0.230172 0.010714 254 254 254
0.215614 0.012580 0.017874 252 252 252
0.190370 0.047594 0.059698 253 253 254
-0.090536 0.274011 -0.037287 129 132 137
-0.050636 0.242902 0.042242 251 252 252
-0.097499 0.093414 -0.084662 107 151 230
-0.076654 -0.161477 -0.032098 103 149 230
0.052058 -0.131620 0.004079 251 253 252
-0.079089 0.130458 -0.000637 105 147 221
0.084534 -0.092862 0.051548 252 254 254
0.026132 -0.163049 0.038625 252 253 253
-0.073909 -0.038243 0.017399 106 148 222
-0.095338 0.055985 0.014510 106 134 185
0.022813 -0.158650 -0.025509 254 255 254
0.055538 0.151426 -0.025231 254 253 254
0.170171 0.030200 0.046823 252 253 254
0.177939 0.038063 -0.009254 254 255 255
-0.074240 -0.122071 0.046820 102 138 201
0.086340 0.116010 0.051212 254 255 255
0.138424 0.066466 0.040765 252 253 254
0.049776 -0.132288 -0.027655 252 251 253
-0.058856 -0.244127 -0.037139 253 253 252
0.175419 0.042934 0.059267 252 253 252
