ply
format ascii 1.0
element vertex 1179
property float x
property float y
property float z
property uchar red
property uchar green
property uchar blue
end_header
0.112974 -0.029456 0.003493 254 255 255
-0.095441 0.055614 -0.079604 103 151 237
0.219598 0.105003 0.028584 255 255 255
0.053405 -0.088771 0.013836 255 255 254
-0.093590 0.219481 -0.061595 100 149 238
0.010860 0.187019 0.033936 255 255 255
-0.093532 -0.223277 -0.021819 101 150 236
-0.027348 0.208520 -0.021664 254 255 255
-0.006640 0.204968 0.055516 255 255 255
-0.086715 0.127906 0.037788 101 150 238
-0.103256 0.143726 0.047009 102 149 238
-0.089662 0.267350 0.046984 255 255 255
0.074002 -0.081852 -0.000113 255 255 255
-0.094833 -0.276464 0.036731 255 255 255
0.278493 -0.080805 0.008702 255 255 254
-0.106641 -0.215307 0.026604 102 149 238
-0.109315 0.177561 -0.054820 101 148 235
0.212801 -0.009643 0.033759 255 255 254
-0.115189 -0.053152 -0.047058 102 151 237
0.129587 -0.005680 0.051036 255 254 255
-0.103716 -0.136916 -0.095857 100 149 237
0.270671 -0.062510 0.051825 254 255 255
0.179917 0.063243 0.048707 255 254 254
-0.031746 -0.213748 0.051066 255 255 253
-0.066741 -0.242135 0.047593 255 254 255
0.159684 0.046459 0.058017 255 255 255
-0.081751 -0.280555 -0.027300 255 255 255
-0.095138 0.166294 0.047919 101 150 238
-0.108282 -0.262924 0.043989 103 150 237
-0.091841 0.273858 0.033397 102 150 235
0.140851 0.070333 0.025040 255 255 255
-0.091195 0.044350 -0.011532 103 150 237
-0.093301 -0.111405 -0.044370 103 150 239
-0.106842 -0.117228 -0.077496 100 149 238
0.189057 0.060390 0.058375 255 254 255
-0.092689 -0.098928 -0.005371 100 150 238
-0.097106 0.268039 -0.065159 100 149 237
0.153905 0.054024 0.005299 255 254 254
0.004175 -0.156471 0.029855 255 255 255
-0.062590 -0.239115 -0.002981 255 255 255
0.075613 0.122938 -0.015230 255 255 254
-0.086457 0.203429 0.054994 102 149 237
-0.092171 -0.100042 -0.041627 100 149 239
-0.108329 -0.128008 -0.086119 100 148 236
-0.058396 0.240928 0.035763 254 254 255
0.064299 0.123357 -0.006426 254 255 255
0.073907 0.126222 0.050016 255 255 255
0.188006 0.000942 0.056703 254 254 255
-0.111930 -0.126669 -0.041480 102 150 237
0.067974 -0.067291 0.057059 255 255 254
-0.094834 0.166957 -0.064061 102 149 239
0.038110 0.158566 0.033449 255 255 255
-0.091716 -0.044799 -0.045279 100 148 237
-0.030435 0.214273 -0.010973 255 255 255
-0.021151 -0.201906 0.027550 254 255 254
-0.090930 -0.268969 0.036574 100 150 237
-0.056013 -0.245797 0.006061 222 220 223
-0.111379 -0.137579 -0.022910 101 149 238
-0.004980 0.200476 0.053608 255 254 254
-0.093860 -0.226333 -0.002502 100 149 238
-0.110360 0.272930 0.026410 102 149 236
-0.108138 0.032686 -0.043940 102 150 239
0.144358 0.063044 0.008707 254 255 254
-0.098142 -0.077972 0.031296 101 149 237
-0.036779 0.220922 0.007137 254 255 255
0.245506 -0.043110 0.004854 255 254 254
0.137572 0.070246 0.018107 254 255 255
-0.088101 0.258643 0.025659 101 149 236
0.002097 0.195134 -0.007498 255 255 255
-0.116292 0.045120 -0.071599 100 151 237
-0.073398 -0.255713 -0.024214 255 255 255
-0.057786 -0.232643 0.012753 255 255 255
0.103019 -0.021494 0.021943 254 255 254
-0.108689 -0.094614 -0.097751 100 149 238
-0.116585 0.106900 -0.086553 101 150 238
0.013064 -0.141184 -0.012006 255 255 255
-0.107844 -0.183677 0.027984 101 150 237
-0.118917 0.157590 -0.072106 102 149 237
-0.079670 0.262693 0.030109 255 255 254
0.194918 0.075600 0.011648 254 254 254
-0.088432 0.270713 -0.061567 101 149 236
-0.106328 0.115503 0.010346 102 150 239
-0.108888 -0.188976 0.011068 102 149 238
-0.073924 0.258193 0.058984 254 254 255
0.004386 0.192576 0.022437 255 255 255
0.132889 -0.003643 0.039426 255 255 254
-0.093883 -0.286621 0.007516 102 149 238
-0.075769 0.258470 -0.009289 254 255 254
-0.094273 0.071103 0.038966 104 151 237
-0.093476 -0.225753 0.043855 101 149 236
-0.085586 -0.150693 -0.062113 101 151 239
0.053204 -0.089408 0.024484 254 255 255
-0.042264 0.226676 0.026364 255 255 255
0.006661 -0.169152 0.062357 255 255 255
-0.107276 0.193304 -0.071579 103 150 239
-0.040458 -0.210144 -0.000733 255 255 254
-0.109294 -0.067791 -0.000817 102 149 236
0.162295 0.034310 0.012602 255 255 254
0.153080 0.056416 0.041510 255 255 255
-0.108258 -0.029587 0.015408 100 148 239
0.060877 0.136554 -0.018174 255 255 255
0.169825 0.041386 0.017641 255 255 255
0.101404 -0.023877 0.003422 254 254 255
-0.054107 -0.249171 -0.018787 255 255 255
0.137989 0.002798 0.020596 255 254 255
0.044366 -0.119851 0.008619 255 255 254
0.235188 -0.047453 0.060138 255 254 255
-0.087776 -0.271892 0.056332 254 254 255
-0.090939 0.149223 0.001071 103 150 236
-0.092711 -0.270971 0.039810 101 150 236
-0.071048 0.269124 0.058545 254 255 254
-0.025399 0.221736 0.031294 255 255 255
0.013965 -0.157320 0.024787 254 255 255
-0.102658 -0.049409 -0.076404 101 150 239
-0.091470 0.154023 0.047417 102 150 239
-0.107599 0.098344 -0.003348 101 150 237
-0.090915 -0.168154 -0.093687 100 150 237
-0.090152 0.104369 -0.009914 102 151 236
0.093218 0.089959 0.048017 255 255 255
-0.105015 -0.286556 0.009453 101 150 239
-0.042503 -0.230794 0.056933 255 255 255
0.036113 0.147306 -0.006789 255 255 255
-0.095551 -0.282367 -0.015043 101 150 237
-0.093698 0.234083 0.056080 103 150 237
-0.111274 -0.252216 0.017237 103 150 238
-0.087383 0.173750 -0.050341 129 140 155
-0.082579 0.172032 -0.071772 102 150 238
-0.019763 -0.197574 -0.018484 255 255 255
-0.106973 -0.219029 -0.003157 102 149 238
-0.089248 0.152359 -0.060041 102 151 239
0.279396 -0.074243 0.027276 255 255 255
-0.063429 0.241873 -0.025734 255 255 255
-0.080686 0.271301 0.059718 255 255 255
-0.112049 -0.274963 0.030972 102 150 239
-0.112251 -0.212428 0.050166 102 149 236
-0.106614 -0.065016 -0.016620 102 149 236
0.128204 0.066402 0.057715 255 254 255
0.174064 0.040105 0.057156 254 254 254
-0.096816 -0.083950 0.033888 145 149 158
-0.113304 0.155566 -0.054003 101 149 238
-0.004974 -0.181647 0.040410 254 255 255
0.218705 -0.035535 0.035940 255 254 254
-0.107989 0.038181 -0.006353 101 148 235
-0.092743 -0.169173 0.007818 102 149 238
-0.029273 0.226094 -0.028452 255 255 255
0.110686 -0.029944 -0.007465 255 255 255
-0.094148 -0.142283 -0.041621 102 150 237
-0.090084 0.077294 -0.014545 103 150 237
0.053829 -0.085788 -0.007268 255 255 255
-0.094249 -0.273938 -0.033610 101 148 237
-0.089942 -0.086944 -0.062766 100 148 234
-0.086447 -0.267167 -0.025054 254 255 255
0.008029 -0.167162 -0.000178 254 254 254
-0.063786 -0.237688 0.021945 254 255 255
-0.025012 -0.187578 0.046421 255 255 255
0.268395 -0.085056 0.016380 254 255 255
-0.029631 0.215658 0.016586 255 255 255
0.070130 -0.086772 -0.006623 255 255 254
0.195143 0.074377 0.006510 255 255 255
-0.089963 0.182671 -0.033126 101 149 238
-0.037262 0.233334 -0.016803 255 255 255
-0.090482 0.144570 -0.010158 103 149 237
0.219044 0.102983 0.060116 255 255 255
-0.058266 -0.250979 -0.011125 255 255 255
-0.109561 -0.244790 0.051003 102 149 238
-0.086622 -0.143179 -0.071380 101 149 238
0.106678 0.088527 0.058482 255 255 255
0.031214 -0.135417 -0.010398 255 255 254
0.014347 0.172822 -0.024369 255 255 255
0.126654 0.006041 0.040973 254 255 255
-0.109754 -0.189404 -0.015661 103 149 235
0.143385 0.032598 0.062604 255 255 255
-0.086271 0.101197 -0.047995 101 150 238
0.056430 -0.082470 0.062841 255 255 255
-0.089473 0.137426 -0.091875 101 148 235
0.069330 0.116084 0.048820 255 254 255
0.044356 -0.100680 0.023128 255 255 255
-0.091994 -0.275624 -0.015737 101 149 235
0.068495 0.117558 0.045522 255 255 254
-0.108340 -0.179662 0.044985 102 149 236
-0.106926 0.254760 -0.069791 99 148 239
-0.090047 0.093090 0.010916 102 150 238
-0.095483 0.125628 -0.078725 101 149 237
-0.027899 0.221230 -0.031728 255 255 255
-0.109583 0.152628 -0.070017 101 150 238
0.126515 0.008908 0.036881 254 255 255
0.037694 0.147883 0.015262 255 254 255
-0.112771 0.087289 0.039665 102 151 239
-0.092943 0.223355 -0.069219 100 150 237
-0.062788 -0.264228 0.001582 254 255 254
-0.068781 0.252951 0.019028 255 254 254
0.062149 -0.076172 0.000749 254 255 255
0.176965 0.041766 0.012937 254 255 254
-0.052187 0.232896 -0.018905 255 255 255
0.011683 -0.163071 0.020589 254 255 254
0.193664 0.008029 0.063533 255 255 255
0.078491 -0.075888 0.016261 255 255 255
0.242519 -0.043806 0.005724 255 255 255
-0.071056 -0.252051 0.058458 255 255 255
-0.093175 -0.200447 -0.042107 102 151 238
0.259244 0.124157 0.034342 253 254 254
-0.115370 0.061016 -0.097409 101 149 239
-0.089949 0.231741 0.028337 101 150 238
-0.037780 -0.207427 -0.011159 255 255 255
0.197196 -0.012892 0.000565 254 255 255
0.002273 0.182865 0.032128 255 255 254
0.195394 -0.009522 0.014709 255 255 255
-0.091547 -0.108349 0.017362 101 150 237
-0.106259 0.052286 -0.077154 102 150 238
-0.092661 -0.125259 -0.038403 103 151 238
-0.033012 0.216113 0.047326 255 255 255
-0.110931 -0.034612 -0.042632 100 150 238
-0.108597 -0.277356 -0.036835 100 149 237
-0.105782 -0.116846 -0.068037 101 149 237
0.026340 0.159298 0.025663 255 255 255
0.121430 -0.004282 0.008217 254 254 255
-0.111080 0.273909 -0.003579 100 149 238
0.226713 -0.043760 0.048351 255 254 255
0.241295 0.124466 0.050407 255 254 254
-0.095187 -0.276762 0.035210 254 255 255
-0.112885 0.028189 -0.062554 101 149 235
-0.004424 -0.177352 0.058851 255 255 254
-0.038578 0.220295 0.047337 255 255 255
-0.108906 -0.100098 -0.080044 101 149 236
-0.109743 -0.096075 -0.061641 102 149 238
0.227724 -0.025593 0.057499 254 255 254
-0.081723 -0.258184 -0.005638 255 255 255
0.059984 -0.099051 0.024240 255 255 255
0.045525 0.140425 0.056256 255 255 255
0.222277 -0.030042 0.061790 255 255 255
0.062437 0.118489 0.022283 255 255 255
-0.003211 -0.163487 0.004639 255 254 255
0.004987 0.180831 0.007806 254 255 255
-0.088173 0.037641 -0.035445 102 151 238
-0.049091 -0.219832 0.000548 255 255 255
-0.087722 0.172658 0.019662 100 148 236
0.245275 -0.043351 0.010690 255 255 255
0.241776 0.113148 0.020818 255 254 255
-0.090846 0.167493 -0.017179 102 149 237
-0.090797 -0.285432 -0.005110 255 255 255
-0.059905 -0.233226 0.008816 254 255 255
-0.097140 0.263051 0.053656 102 150 239
-0.102452 0.079639 0.040253 102 151 237
0.215418 -0.012149 0.015865 254 255 255
0.225466 -0.040714 0.039316 254 255 255
0.192477 0.012185 0.026532 255 254 254
-0.091872 -0.056669 -0.007318 102 148 239
0.064243 -0.091661 0.006440 255 253 255
0.017941 0.164976 -0.015890 255 255 254
-0.048947 0.239916 0.042952 255 254 255
0.056471 -0.080455 0.040552 255 255 255
-0.086685 0.043842 -0.045265 102 150 237
0.000542 -0.160910 0.018207 255 254 255
0.265928 -0.078969 0.023847 255 255 255
-0.105875 0.280027 0.027487 101 149 238
0.184141 0.066830 0.021162 254 254 255
-0.103691 0.187056 -0.085301 100 149 238
-0.024251 -0.187629 0.009260 255 255 255
0.130938 0.059469 0.027425 255 254 255
-0.106922 0.088991 0.041563 102 150 239
-0.093245 0.236462 -0.005646 101 149 236
0.124480 0.079054 0.027979 255 255 255
-0.033831 0.229420 -0.016120 254 255 254
-0.013932 -0.182039 0.061563 254 255 255
-0.052121 0.246161 0.033826 254 254 254
-0.019752 0.213839 0.027919 255 254 255
0.046457 -0.098902 0.017613 255 255 255
-0.112403 -0.175063 0.047881 101 149 238
-0.092088 -0.067950 0.015933 100 149 237
-0.095554 -0.195384 0.027657 102 150 237
-0.031924 0.215132 0.014885 255 255 255
-0.088155 -0.058901 -0.069163 101 150 239
-0.106472 0.193601 0.057283 100 149 239
-0.104068 0.170008 -0.087453 101 150 236
-0.090518 0.159656 0.000385 102 151 237
-0.089318 -0.195655 -0.026486 102 149 237
-0.092439 -0.183507 -0.063615 103 151 238
-0.076099 0.268769 -0.032542 255 255 255
0.163010 0.046883 0.027329 255 254 255
0.066419 -0.074903 0.063746 255 255 255
0.150740 0.022404 0.014656 253 254 255
0.119091 -0.000928 0.030816 254 255 255
-0.107776 -0.096635 -0.025756 101 150 238
0.036284 -0.127482 0.042122 255 255 254
0.208872 0.076588 0.032013 255 255 255
0.145320 0.010562 0.053145 255 254 255
0.097223 0.105148 0.012531 255 255 255
-0.060880 -0.233351 0.048466 255 255 255
-0.108267 0.284638 -0.010223 101 149 236
0.100618 0.102888 0.007854 255 255 255
0.142036 0.005525 0.033469 254 255 255
-0.108902 0.059740 -0.082523 101 149 238
0.068508 -0.068761 -0.004231 253 255 254
-0.089148 -0.077929 -0.078273 100 150 237
0.056329 -0.106792 -0.013964 255 254 255
-0.022027 0.217296 0.015520 254 254 255
-0.108067 -0.211714 0.021866 102 151 238
-0.015726 -0.177514 0.055975 255 255 255
-0.093956 -0.206677 -0.047052 102 151 239
0.064482 -0.094140 -0.000575 255 255 255
-0.013781 -0.188490 0.031157 254 255 255
-0.059781 -0.231293 -0.020005 254 255 255
-0.115194 -0.073970 -0.067291 102 149 236
0.140519 0.049310 0.001092 255 255 254
0.202955 -0.016038 0.033928 255 255 255
-0.097046 0.024989 -0.063287 103 151 237
-0.090567 0.057817 -0.097369 102 150 238
-0.106040 0.151002 -0.071020 101 149 236
0.156109 0.027932 0.023370 255 254 254
-0.109914 -0.262838 -0.009391 103 151 236
-0.108096 0.168573 0.005667 102 150 237
-0.091067 -0.136971 0.003451 101 150 237
-0.048143 -0.237367 0.001557 255 255 255
0.026129 -0.129578 -0.013515 254 255 255
-0.090961 0.266569 -0.001974 103 151 238
-0.103323 -0.117567 -0.096467 102 150 238
-0.088095 0.070370 0.028747 103 152 239
0.250592 -0.046960 0.003568 254 255 254
-0.018307 -0.187871 -0.021100 255 255 255
-0.092138 0.018015 -0.019661 103 151 239
-0.090802 0.256078 -0.066490 100 150 237
-0.109434 0.262389 0.017294 102 150 237
0.002901 -0.173714 -0.002155 255 255 255
0.106825 -0.025562 0.061639 255 255 255
0.106072 -0.035760 0.056920 255 255 255
-0.111087 -0.154811 -0.009424 103 151 237
-0.058211 -0.228322 0.059563 254 254 254
-0.107630 -0.141284 0.027038 103 151 236
0.032210 -0.117357 -0.008408 255 255 255
-0.110553 -0.223149 -0.059334 102 149 238
-0.101540 -0.278414 0.034208 103 150 237
0.033770 0.148380 -0.020419 255 255 255
-0.088644 0.165876 -0.081101 100 150 238
0.209387 -0.009013 0.065998 255 255 255
0.222861 -0.021593 0.040058 254 255 255
-0.091312 -0.224497 0.005819 100 149 239
-0.090012 -0.163563 -0.078972 100 150 239
-0.050960 -0.220853 0.003913 254 255 255
0.027331 0.170222 -0.013167 254 254 255
0.032427 -0.116767 0.009433 254 255 255
-0.001179 0.201127 -0.020697 216 219 224
-0.048375 -0.216422 0.045983 255 255 255
-0.093239 -0.055319 0.025970 101 150 239
-0.096035 0.243760 -0.078691 102 149 237
-0.108195 -0.127493 -0.021340 102 151 238
-0.107677 -0.103078 0.019612 100 148 239
0.218590 0.086347 0.027107 255 255 255
-0.113120 -0.086321 -0.029153 102 150 238
-0.093245 0.210248 -0.065869 101 150 239
-0.092723 0.234336 -0.069086 102 149 238
-0.100057 0.216527 0.055859 103 151 237
0.232957 -0.045097 0.026341 254 255 255
-0.109082 0.249786 -0.036766 102 151 238
-0.112962 0.043396 -0.089882 102 150 236
0.145395 0.025732 0.056558 255 255 255
-0.010659 -0.188950 0.044837 255 255 255
-0.111676 -0.235117 -0.071988 100 150 238
-0.092947 -0.170840 -0.080362 103 151 236
0.105754 0.093238 -0.009647 255 255 255
-0.092029 -0.058602 -0.035185 102 149 238
0.047886 -0.108452 0.061004 254 255 254
0.223960 0.108554 0.042877 254 254 254
-0.098009 -0.182352 -0.091509 100 150 236
-0.088720 0.271582 -0.028725 102 148 235
-0.091739 0.207216 0.010977 101 150 237
-0.021209 0.217409 0.015192 255 254 254
-0.088156 -0.054971 0.030777 103 151 239
-0.095003 0.012123 0.013804 101 149 238
0.137385 0.000189 0.055461 255 255 255
0.052571 0.147195 0.035975 255 255 255
-0.113198 -0.267087 -0.026091 100 150 239
0.129651 -0.007572 0.007535 255 255 255
-0.097980 -0.032659 -0.009073 101 150 237
-0.118855 -0.176642 -0.087986 100 148 238
-0.086708 0.106077 -0.080504 100 148 237
-0.106247 0.020824 -0.048893 102 149 238
-0.091721 0.134826 -0.061637 102 150 236
-0.092624 0.060184 -0.039192 103 151 237
0.040097 -0.105896 0.023646 254 254 255
-0.112913 0.163499 0.043328 102 150 238
0.199283 0.008184 0.035016 254 255 255
-0.109449 0.051456 -0.038151 100 150 238
0.246785 -0.063579 0.007889 254 254 255
0.171632 0.018692 -0.004453 255 255 255
-0.109178 -0.075998 -0.095535 100 149 239
-0.002427 0.193602 -0.030215 255 255 255
-0.090816 0.272581 0.004156 255 254 254
0.160021 0.049004 0.031763 255 254 255
0.118585 -0.022183 0.016270 255 254 255
0.259237 -0.070581 0.053105 255 255 255
-0.092851 -0.103298 -0.020594 102 151 238
0.193254 0.011820 0.047245 255 255 255
-0.113073 0.213010 -0.074623 101 149 237
-0.036140 -0.200879 0.054802 255 255 255
-0.091018 0.230047 0.017382 102 150 237
-0.095980 -0.134120 -0.093846 101 150 238
-0.093660 -0.276000 0.014748 101 149 238
-0.053246 0.247368 0.015496 255 255 255
-0.110344 -0.205462 0.048271 102 150 237
0.048798 -0.094636 0.047773 255 254 254
-0.084936 -0.155459 -0.065776 100 143 217
-0.110870 -0.124169 0.002293 101 150 238
0.056284 0.144034 -0.002611 254 255 255
-0.112886 -0.049619 0.010183 101 149 237
0.064806 -0.073772 0.035637 255 255 255
-0.107832 0.258680 0.012407 101 149 238
-0.115710 0.257652 -0.076058 101 149 238
-0.099767 -0.137884 0.043613 101 149 239
-0.102857 0.278769 -0.022321 102 151 238
0.200509 0.068056 0.008416 254 255 254
-0.066621 -0.246860 0.009548 255 255 254
0.104974 -0.017848 0.049355 255 255 255
-0.093440 -0.165908 -0.029384 101 149 236
0.150200 0.013153 0.035298 255 255 255
-0.047677 -0.216424 0.051349 254 255 254
0.104068 0.098004 0.032259 255 255 254
0.018503 -0.149655 -0.004024 200 197 197
-0.089992 -0.085616 -0.075597 100 150 239
0.271406 -0.066528 0.050879 253 254 254
0.146717 0.020831 0.062983 255 255 255
-0.075298 0.269535 -0.021436 255 255 254
-0.119159 0.048869 -0.067224 101 149 238
-0.115141 -0.098682 -0.027617 103 151 238
0.079533 -0.071473 0.019995 254 255 255
0.094278 0.107276 0.039589 255 255 255
0.195176 0.057221 0.041212 255 255 255
0.118972 -0.000763 0.032311 255 255 255
0.041273 -0.104858 0.025478 255 255 254
0.094813 0.107513 -0.000828 254 255 255
-0.089567 -0.089477 0.005597 101 151 239
0.089151 0.105688 0.061035 255 255 255
-0.100523 -0.292793 -0.045306 101 150 237
0.217044 -0.013910 0.020087 255 254 255
-0.096754 -0.095812 -0.097592 101 149 237
-0.113458 -0.211083 0.053593 102 149 237
-0.073804 0.267831 0.005436 255 255 255
0.132090 -0.009060 0.033280 255 255 254
-0.091898 -0.053675 -0.000996 101 150 238
-0.085584 0.271909 0.050549 254 255 254
-0.113311 -0.123592 0.041088 102 151 239
-0.006548 -0.182444 0.056792 255 255 254
0.044688 0.148665 -0.019961 254 255 255
0.113596 0.090932 0.004950 254 255 255
0.146403 0.032403 0.048454 255 255 255
0.146469 0.034552 0.059051 255 255 255
0.105568 0.091286 -0.013279 254 255 255
-0.096300 -0.285055 0.025680 102 149 239
-0.086451 0.192646 0.052720 100 150 238
-0.108535 0.194785 0.024118 100 148 238
-0.069068 -0.241037 0.016042 255 254 255
-0.057413 0.255926 -0.034315 255 254 254
0.169232 0.028980 0.063274 255 255 255
-0.091459 -0.122840 -0.040617 100 150 236
0.208353 0.098156 0.022722 253 255 253
0.079820 -0.074199 0.043691 254 254 254
-0.088253 -0.070407 -0.046667 103 150 236
-0.036190 -0.203609 0.023248 255 255 255
0.092993 -0.035462 0.026103 255 255 254
0.234786 0.104805 0.045531 255 254 254
-0.082096 0.274920 -0.011639 255 255 255
-0.066379 0.265034 0.036776 255 255 255
-0.091519 -0.094173 0.025741 102 149 237
-0.089093 -0.233434 -0.035399 100 149 238
-0.111152 0.062106 -0.066594 101 150 238
0.103632 -0.042676 0.025836 255 254 255
-0.105666 0.223713 -0.080467 102 151 239
-0.105477 -0.134812 -0.036389 101 150 238
0.138722 0.054408 -0.005321 255 254 255
-0.056802 -0.231333 -0.010061 254 255 254
0.091432 0.093780 0.032298 255 255 255
-0.098426 -0.064864 -0.088201 103 150 239
0.176285 0.060615 0.047429 255 255 254
0.094429 -0.051704 0.009244 255 255 254
-0.024698 0.213501 0.063080 255 254 254
-0.096160 0.067999 0.041000 101 150 238
0.067175 0.121639 -0.001167 255 255 255
0.103952 -0.024994 -0.002927 254 254 254
-0.092154 -0.148098 0.032599 103 151 239
0.224196 -0.018094 0.061496 255 254 255
0.271256 -0.088321 0.022197 255 255 255
0.122330 0.004276 0.049806 254 255 254
0.278466 -0.076166 0.012710 255 255 254
-0.091166 0.280023 -0.023757 101 150 236
0.253295 -0.051462 0.015026 254 255 255
-0.087761 0.017035 -0.043958 101 149 238
-0.103512 -0.163726 -0.090980 101 150 239
0.086136 -0.061495 0.044182 255 255 255
-0.091715 0.246875 0.036052 101 149 237
-0.002477 0.179892 0.045228 254 254 255
-0.042991 -0.231792 -0.004606 255 255 255
-0.088569 0.193800 -0.049474 101 149 237
-0.012265 -0.183845 -0.020185 255 255 254
-0.093681 -0.235259 0.008560 101 151 238
-0.089645 -0.065986 -0.045822 102 149 237
0.211743 -0.021988 0.034891 255 255 255
-0.087672 0.130528 -0.031248 102 151 238
0.021458 0.173897 0.012521 254 255 254
-0.093515 -0.162262 -0.023064 100 150 238
-0.112505 0.178778 -0.039074 101 150 237
0.204411 0.090042 0.015949 254 255 254
-0.046780 -0.218102 -0.023819 255 254 254
-0.056558 -0.244010 0.031459 255 255 255
-0.090653 -0.140814 -0.067285 103 151 237
0.045175 -0.100802 -0.014700 254 255 255
0.121115 0.066575 0.051331 255 255 255
0.100532 0.098090 0.059426 255 255 254
-0.091228 -0.219296 -0.044384 101 151 237
-0.113240 0.235344 -0.041483 103 150 237
0.055341 0.139882 -0.018214 254 254 254
-0.093420 -0.265199 0.012623 100 149 237
-0.105665 0.196865 0.000711 103 149 235
-0.093483 -0.268866 -0.059717 100 148 235
-0.069430 -0.247053 0.025798 255 254 255
0.140179 0.021096 0.063041 255 255 255
-0.107976 -0.217183 -0.041517 101 150 237
-0.019319 -0.197050 -0.000716 254 254 255
0.157745 0.042612 -0.003433 254 255 254
0.049312 0.149592 0.036024 255 254 255
-0.052429 -0.246965 -0.024937 255 254 255
-0.112730 0.075155 -0.092302 100 149 236
0.159318 0.037322 0.044842 255 254 254
-0.111951 -0.072081 -0.033997 101 149 238
0.034230 -0.131715 -0.011640 255 255 255
0.096275 -0.047520 0.052850 255 254 255
-0.089276 0.044469 -0.087541 101 149 238
-0.093953 -0.184312 -0.005103 103 151 239
-0.108495 0.193502 -0.084760 101 149 236
-0.107560 -0.239701 -0.050440 101 150 238
-0.099118 0.108832 -0.093523 101 150 238
0.052279 0.130914 0.022415 254 254 255
-0.057200 0.255459 0.057530 254 255 255
0.001867 -0.160307 0.059088 255 254 255
-0.025653 0.223296 0.014576 255 255 255
-0.006206 -0.171613 0.061057 255 254 255
-0.111959 -0.097150 0.025387 101 149 238
-0.106852 0.124684 -0.091867 100 150 239
0.026072 -0.125119 -0.006612 255 255 254
-0.094299 -0.078113 -0.053325 102 150 237
-0.115740 -0.215081 -0.073038 100 149 237
-0.109728 -0.221873 0.045574 102 149 237
0.149976 0.025844 0.054024 254 255 254
-0.092901 0.210382 -0.028437 101 149 236
-0.112654 -0.035376 0.013228 102 149 238
-0.046662 -0.235511 -0.007421 255 255 255
-0.089882 0.166561 0.007616 102 150 237
-0.037820 -0.207005 0.021990 255 255 255
0.139282 0.051521 0.016422 255 255 255
-0.091798 0.201542 0.013730 103 149 236
0.261622 -0.070633 0.061643 254 254 255
-0.090571 -0.279343 0.028285 102 150 238
-0.091955 -0.119617 -0.073585 101 151 237
-0.101756 -0.292619 -0.001496 101 149 239
-0.017216 0.212226 0.032050 255 255 255
-0.105611 0.192056 -0.029555 103 150 238
0.177358 0.025202 0.025688 255 255 255
0.169485 0.024119 0.000955 254 255 254
0.142524 0.004526 0.009829 255 255 254
0.178822 0.020463 0.053938 254 254 255
0.009880 -0.162787 0.057572 255 254 255
-0.006360 -0.184144 -0.009428 255 255 255
-0.040003 0.221063 0.055580 254 255 255
-0.069616 0.262777 0.039020 255 255 255
-0.111402 -0.183947 0.052160 103 149 239
-0.017197 -0.192398 -0.022408 254 254 255
-0.094145 0.183992 -0.049480 100 148 239
-0.114042 0.086474 0.017361 101 149 237
-0.085917 0.150970 -0.038521 103 151 238
0.044426 0.143824 0.025278 255 255 255
-0.112970 0.174710 -0.080361 101 150 237
-0.101361 0.279566 -0.010607 101 150 237
0.038888 -0.124111 0.030197 254 255 255
-0.117608 -0.065801 -0.059777 100 149 237
-0.111306 -0.073154 -0.050198 102 149 236
-0.085878 -0.126988 -0.096616 100 149 237
-0.105432 -0.119290 -0.053708 102 151 239
-0.001100 -0.176509 0.043516 255 255 255
-0.107502 0.169085 0.030056 103 150 239
-0.095454 0.078134 -0.060090 100 150 239
-0.085028 -0.283686 0.027425 255 255 255
-0.111478 0.265269 -0.063585 100 150 238
-0.110894 0.174433 0.041649 102 150 238
0.061964 -0.084337 0.063300 255 255 255
0.201850 0.086184 0.017840 254 255 255
0.013155 -0.139902 0.021939 254 254 255
0.107254 -0.012400 0.034733 255 255 255
-0.090592 0.079882 0.028808 102 150 236
0.195552 0.062543 0.063005 255 255 254
0.005116 -0.151941 0.001182 254 255 255
-0.088519 -0.197645 -0.059316 100 149 238
-0.030716 -0.206695 0.058079 255 255 255
0.039292 -0.107999 0.006090 254 254 255
-0.097633 -0.279958 0.031611 254 253 254
-0.108470 -0.244600 0.054494 101 149 237
0.203210 -0.001679 0.018827 255 255 255
0.183652 0.049890 0.003510 255 255 254
0.056409 -0.084834 0.046896 255 255 255
0.118948 -0.000652 0.016129 254 255 255
-0.027709 0.211481 0.013806 255 255 255
0.131143 0.075359 -0.002174 254 255 255
-0.093476 0.094215 -0.082104 102 150 238
-0.094553 0.057343 -0.081626 101 150 238
-0.080075 -0.261123 0.006741 255 254 255
-0.092093 -0.254583 0.046711 101 150 237
-0.065215 0.248013 0.053026 255 255 255
-0.104729 -0.052325 -0.079159 102 150 236
0.194842 0.003652 0.004021 255 254 255
-0.095886 -0.044311 0.024778 101 149 237
0.195791 0.063574 0.016542 255 255 255
-0.034652 -0.224758 -0.021255 255 255 255
-0.089028 0.246744 0.050999 102 151 239
0.026616 -0.122504 -0.014272 255 254 255
0.178572 0.048425 0.030826 255 255 255
-0.094235 0.112110 -0.070863 100 149 239
0.005172 -0.171869 0.044450 255 255 255
-0.112883 -0.106541 -0.003575 101 149 236
0.146966 0.018376 0.040312 254 255 255
-0.092666 -0.064696 -0.008157 102 149 237
0.103535 0.093292 -0.010653 255 255 255
0.176538 0.021092 0.052482 255 254 255
0.027562 0.171646 0.001073 254 255 255
0.206948 0.090402 0.033156 254 255 255
-0.111498 0.033586 0.005348 101 149 239
0.008932 -0.149586 0.037347 253 255 254
-0.092476 -0.126912 -0.051474 101 149 239
-0.113922 0.121785 -0.005723 103 151 238
-0.052851 0.248668 -0.034374 255 255 255
-0.053026 -0.225110 -0.027249 254 255 254
-0.106289 0.050056 -0.090483 103 151 236
-0.110894 -0.239397 0.023146 103 150 236
-0.013887 -0.169646 0.060859 254 253 254
-0.096988 -0.206110 -0.089172 100 149 237
-0.109992 -0.266099 0.005142 101 150 238
-0.029708 0.213213 0.026968 255 255 255
-0.107513 -0.135722 -0.061415 103 151 238
-0.090642 -0.147898 -0.040459 103 152 237
-0.091301 -0.251050 0.052178 100 148 237
-0.090518 0.172754 0.037372 103 149 237
-0.105718 0.050738 -0.066775 101 150 236
-0.097666 -0.072629 0.030783 102 151 239
-0.091447 0.125966 -0.041549 101 149 237
0.001993 -0.172995 0.024166 254 255 254
-0.069405 0.264912 -0.015765 255 255 255
-0.041370 -0.210999 0.041001 254 255 254
0.113586 -0.005781 0.010202 253 255 254
-0.089592 0.067426 0.035027 102 151 239
0.056925 0.141825 -0.019633 254 255 254
-0.103405 0.068686 -0.093408 100 148 237
-0.097754 0.181160 0.047870 100 149 238
-0.092453 -0.103073 -0.051905 102 151 239
0.095035 0.090827 0.029276 254 254 255
-0.108043 0.254274 -0.021160 103 150 239
-0.091928 0.281890 -0.018820 100 148 238
0.086883 0.118311 -0.011579 255 254 254
-0.085632 0.276574 0.000554 255 254 255
-0.092991 -0.045493 -0.029393 101 150 239
-0.106920 0.141151 0.027913 100 149 238
-0.090043 0.174184 0.006405 100 150 236
0.060249 -0.077135 -0.009859 253 255 255
-0.090040 0.051640 0.027542 100 149 239
-0.069619 0.262563 0.037142 255 255 255
-0.048762 -0.226300 -0.024835 254 255 255
-0.090718 0.181210 0.042729 103 150 236
-0.090486 -0.048990 -0.049286 100 149 237
0.021784 0.163655 0.010519 254 254 255
0.079849 -0.051241 0.033717 254 255 255
-0.112915 -0.175871 -0.008045 100 148 236
-0.091919 -0.059948 -0.050529 101 148 236
-0.111128 0.033234 -0.068603 101 150 236
-0.113579 0.241628 -0.001199 102 149 238
-0.088375 -0.285247 0.001005 255 254 255
0.243804 -0.058439 0.008143 255 255 255
-0.044152 -0.216655 -0.022701 255 254 255
0.122684 0.067695 0.032213 255 255 255
-0.090180 0.101303 0.032994 102 149 238
0.008805 -0.162916 -0.017156 255 255 255
0.003549 -0.147632 0.059232 255 254 255
-0.096071 0.036985 0.030952 103 150 236
0.221614 0.107357 0.052957 255 255 255
0.240251 -0.052287 0.030965 255 254 255
-0.090753 -0.173829 -0.076451 103 151 237
0.196239 -0.007356 0.006629 255 255 255
-0.089045 0.121437 -0.072936 100 149 237
-0.091863 -0.053969 -0.003455 102 150 238
0.147637 0.041804 -0.004078 254 255 255
-0.093342 -0.133532 -0.005150 100 150 237
-0.108857 0.167673 -0.028224 103 149 239
-0.112344 -0.049140 -0.003759 100 150 236
-0.090115 0.258237 0.046591 101 149 237
-0.099967 -0.034034 -0.019564 100 149 239
-0.044253 0.238224 0.047268 255 254 255
0.032400 0.159082 0.060130 255 255 254
-0.113965 -0.199531 -0.025974 100 150 239
0.001772 -0.157719 0.021031 254 255 255
-0.092280 0.200044 0.020938 102 149 239
-0.112136 0.033068 -0.026582 101 149 238
-0.074570 -0.251466 0.047419 255 255 255
0.181484 0.030970 0.041618 255 255 254
-0.100263 0.134639 0.044222 103 151 238
-0.071299 -0.259848 -0.025642 255 255 255
-0.025984 -0.188991 0.041755 255 255 255
-0.110973 0.175890 0.007848 100 149 239
-0.106581 -0.065926 -0.010885 101 150 237
0.255125 -0.069908 0.010415 255 255 254
0.255088 -0.054733 0.044206 253 254 255
0.113196 -0.008875 0.024095 255 255 254
0.047441 -0.115112 -0.013686 255 255 255
0.141932 0.065107 0.006537 254 255 255
-0.092260 -0.061761 0.015679 102 150 237
-0.090820 0.223439 0.004094 99 147 234
0.220232 -0.019050 0.053738 255 254 255
-0.074066 0.270625 0.052656 254 253 255
-0.019748 -0.197653 0.053356 254 255 254
0.241065 0.125566 0.038137 255 254 255
0.156612 0.032408 0.015044 254 255 255
-0.095139 0.064300 -0.095528 100 148 237
0.107598 -0.033924 0.032302 255 255 255
-0.111272 -0.288078 -0.010650 100 150 238
0.138239 0.024067 0.036654 254 255 255
-0.071493 -0.256923 0.059217 255 255 255
-0.013455 -0.174956 -0.001760 255 254 254
0.092894 -0.033057 -0.000641 255 255 255
-0.048490 -0.216630 0.037657 255 254 255
-0.106182 0.066464 -0.081468 103 150 238
0.149547 0.057656 0.020730 255 255 254
-0.007159 -0.184617 0.011322 255 255 255
0.053693 -0.087849 0.026429 254 255 255
-0.093965 0.197202 -0.082437 101 148 236
-0.048531 -0.229890 -0.026651 255 255 255
-0.112981 0.091060 -0.098067 101 150 237
0.008508 -0.150194 0.007194 255 255 255
-0.093830 -0.185968 -0.008073 101 151 239
-0.087521 0.185532 -0.072882 102 149 237
0.240532 0.109027 0.016099 255 255 255
-0.089669 -0.143401 -0.028804 103 150 237
-0.105116 -0.242417 -0.015885 102 150 236
-0.102574 -0.289680 -0.004816 103 151 238
-0.109204 -0.195686 -0.004691 101 150 238
-0.015056 0.212833 -0.021450 255 254 255
-0.110494 -0.057203 0.004491 102 151 236
0.104100 -0.035412 0.055882 255 255 255
0.195566 -0.006181 0.037969 254 254 255
-0.091503 -0.077287 0.025468 102 149 237
-0.109977 0.187077 0.034015 101 150 236
0.208466 -0.004399 0.019790 255 254 254
0.213942 0.099268 0.019601 255 255 255
-0.101216 0.218053 0.045366 101 150 238
-0.094727 0.200249 -0.084100 101 149 238
0.040112 -0.121573 0.054576 254 255 255
-0.091896 0.133795 0.007752 101 151 237
-0.093284 -0.180609 -0.007486 103 151 238
-0.110354 -0.126194 -0.098436 101 149 239
-0.083357 -0.281148 0.003643 255 254 255
0.066020 0.120027 0.018689 254 255 255
0.129694 0.012272 0.020971 255 255 255
0.049271 0.145788 0.038472 255 255 255
-0.062964 -0.239865 0.058089 255 254 254
0.057423 -0.084628 0.025779 254 255 255
0.117816 -0.025023 -0.001787 255 255 255
0.158427 0.043066 0.060992 255 255 255
-0.093736 -0.214755 -0.037048 103 150 237
0.100498 -0.022160 0.062127 255 254 255
0.041865 -0.121757 0.022987 254 255 254
0.062520 -0.078167 0.015947 254 254 255
0.085175 0.107030 0.000605 255 255 255
-0.010071 -0.181093 0.047616 255 255 255
0.081208 -0.051005 0.004331 255 255 255
-0.091273 -0.055864 -0.062650 100 150 239
-0.108927 0.169466 0.040245 101 149 238
0.248763 -0.064383 0.012707 255 254 255
-0.112365 0.269303 0.034682 102 151 237
-0.047827 -0.238368 -0.024548 255 255 255
-0.113532 -0.153196 -0.015184 100 150 239
-0.109634 0.273471 0.013256 101 150 237
0.004678 0.178616 -0.013810 255 255 255
-0.094995 -0.258654 -0.020978 102 149 235
0.054468 -0.109886 0.014306 255 255 255
-0.093731 -0.195666 -0.032026 103 151 238
-0.112835 -0.207309 -0.015156 101 149 239
0.153233 0.021911 0.048843 255 255 255
-0.088794 0.216934 -0.063005 101 149 237
0.197607 0.072005 0.066949 255 255 255
-0.093328 -0.098911 -0.009319 102 151 238
-0.082642 -0.261756 0.000312 255 254 255
-0.115774 -0.103813 -0.066768 101 150 238
0.150422 0.053913 0.005660 255 255 255
0.169247 0.030599 0.063920 255 255 255
0.022504 0.176303 0.050594 255 255 255
-0.105848 -0.222032 -0.085604 102 150 238
-0.078941 -0.259115 0.014122 255 254 254
-0.110066 -0.213263 -0.017019 101 150 238
-0.109579 -0.197832 -0.028400 100 150 236
0.095300 0.090762 0.044459 254 255 255
0.185013 0.068957 0.044206 244 242 247
-0.036527 0.220507 0.033502 255 255 255
-0.086511 -0.059776 -0.048655 103 151 238
0.013151 0.183629 0.050468 254 255 255
0.080613 -0.071425 0.000434 255 255 255
-0.089552 -0.285736 0.012829 102 150 234
-0.090228 -0.065466 0.029769 101 149 237
0.211688 -0.001621 0.053438 255 254 254
-0.111395 -0.286805 -0.025672 100 150 237
-0.093910 -0.256691 0.003911 102 151 239
0.173833 0.040217 0.050893 255 255 254
0.009861 0.179642 -0.025167 254 254 255
-0.090412 0.156144 0.027728 103 152 239
0.137444 0.059645 0.034641 254 254 255
0.073937 -0.082376 -0.009302 255 254 255
-0.092952 0.205486 -0.060974 101 150 237
-0.091704 -0.046204 -0.032763 101 149 237
-0.095336 0.229987 -0.063842 100 148 238
-0.110705 0.045407 -0.000113 102 151 239
-0.093671 -0.181658 -0.058190 103 151 237
0.024075 0.171446 -0.022377 255 255 254
0.220205 -0.032591 0.026180 255 255 255
-0.078199 -0.274676 0.022618 255 255 255
-0.093614 -0.161102 -0.026535 100 149 237
-0.088246 -0.040142 0.021376 102 150 237
-0.111794 -0.242237 -0.007104 102 151 238
-0.099349 -0.274750 0.032864 103 150 238
-0.115666 -0.073121 -0.023759 102 151 237
-0.094324 -0.192434 0.033382 100 149 237
0.094331 0.106436 0.054888 255 255 255
0.024308 0.173158 -0.004311 255 255 255
-0.029071 0.213309 0.059115 255 255 255
-0.092134 -0.064506 -0.058369 100 150 238
0.203683 -0.000396 0.028605 255 255 255
0.008142 -0.165991 0.036734 254 254 255
-0.109325 0.127036 0.034519 102 150 238
-0.062013 0.244411 -0.001650 255 255 255
-0.094317 0.125362 -0.067568 101 149 238
-0.016422 -0.199069 -0.022061 255 255 255
-0.117466 -0.224959 -0.008443 101 151 239
0.172352 0.056778 0.043010 255 255 255
0.217582 -0.011936 0.056701 253 254 253
0.062261 -0.095060 0.033307 255 255 255
-0.088816 0.199048 -0.080045 99 148 238
-0.088652 0.244558 0.053367 103 149 238
-0.093484 -0.065634 -0.031411 102 150 237
-0.089074 0.171077 0.052399 101 150 236
0.072269 -0.068665 0.063616 254 255 255
-0.050877 -0.220785 -0.004382 255 255 255
-0.108700 -0.172126 0.011087 100 150 237
0.089855 -0.051768 -0.000220 255 255 255
-0.113696 -0.213622 -0.006382 103 151 238
-0.093130 -0.240241 -0.058680 100 149 237
-0.091887 -0.086159 -0.083742 102 149 239
0.261375 -0.077005 0.035512 254 255 255
0.045414 0.151291 0.057676 255 255 255
0.079277 0.106448 -0.008279 253 255 255
-0.110296 -0.169889 -0.007984 100 149 238
-0.090540 0.271713 0.025194 100 149 237
-0.095603 0.013150 -0.013109 140 138 146
-0.113324 0.203094 -0.081808 100 150 236
0.009140 -0.164626 0.056042 255 255 255
-0.023091 0.204197 0.059710 255 255 255
0.011098 0.187327 0.004723 255 255 254
-0.023712 0.208228 0.001423 255 255 255
-0.032134 -0.213265 -0.007498 254 255 255
-0.110908 -0.134011 0.037634 102 151 239
0.030949 -0.137436 0.051805 255 255 255
0.120887 0.070514 0.003051 255 255 255
-0.091832 -0.164917 -0.009001 102 150 238
0.063232 -0.094221 0.014591 254 254 254
0.040703 -0.105502 -0.010096 255 254 255
-0.032606 -0.199339 0.043467 254 255 255
-0.092646 0.263289 0.019396 101 150 238
0.138509 0.007568 0.000751 255 255 255
0.147183 0.056778 -0.011496 254 255 255
-0.060295 -0.252428 0.033105 255 255 254
0.014457 -0.157039 -0.002441 254 255 255
-0.090129 -0.168201 -0.080177 102 151 239
0.002530 0.195813 -0.028524 255 254 255
-0.111267 -0.189573 -0.055919 101 150 237
-0.088873 0.135216 0.038961 102 150 238
-0.088202 -0.243608 0.054359 102 149 238
-0.089564 -0.202549 -0.088303 103 150 237
-0.066816 -0.265143 -0.004974 255 255 255
-0.089787 -0.221325 -0.067205 102 150 239
0.003978 -0.171443 0.014959 254 255 255
-0.089666 0.209091 0.043954 102 150 239
-0.111433 0.216337 0.007158 100 149 237
-0.118100 -0.257073 -0.044634 103 149 236
0.007094 0.189513 0.023753 254 254 255
0.040570 0.143665 -0.001199 255 255 255
0.250661 -0.050212 0.018149 253 255 255
-0.110078 0.228625 0.021586 103 149 238
-0.068986 -0.259081 0.045934 255 255 255
0.054948 0.129681 -0.009044 255 255 255
0.178776 0.063830 0.017412 255 255 255
-0.054009 0.239287 0.049053 255 255 255
-0.008235 -0.167520 0.006032 254 255 255
0.010908 -0.157586 0.062684 255 254 255
-0.113230 -0.053807 -0.071806 103 151 235
-0.024102 0.217981 0.041294 255 255 255
0.076524 -0.055798 0.043403 254 255 255
-0.082258 -0.279830 0.015729 255 255 255
0.067948 0.132257 0.020137 255 255 255
-0.073162 -0.248752 -0.006262 255 255 255
-0.091477 -0.176531 -0.085507 100 149 239
-0.074505 0.267081 0.027405 253 255 255
-0.104451 0.056644 -0.094110 103 148 236
0.110488 -0.033041 0.024168 255 255 255
0.083994 0.116616 0.053730 255 254 255
0.040768 -0.118799 -0.015326 253 254 255
-0.092639 0.038538 0.020680 102 150 238
-0.107761 -0.273963 0.035930 101 150 237
-0.090217 -0.253411 -0.050972 100 148 236
-0.107143 0.192060 0.032228 102 150 236
-0.010361 0.206035 0.038919 255 253 255
-0.102479 -0.109209 0.037245 102 150 237
-0.108119 -0.214299 0.058002 103 149 236
-0.119479 0.115796 -0.080162 101 148 238
-0.086891 0.050319 0.002573 101 151 239
0.062545 0.140049 -0.004077 254 255 254
0.063864 0.124561 0.006180 254 255 254
0.153343 0.050615 0.047839 255 255 255
0.077420 -0.075785 0.007735 210 214 216
0.156659 0.029896 0.013712 253 254 254
-0.035969 0.219467 0.020872 255 255 255
-0.035207 0.219798 0.059798 255 255 255
-0.110906 -0.287290 -0.020387 102 150 237
0.194747 0.077686 0.066587 255 254 255
0.172493 0.035052 0.044401 255 255 255
0.134914 0.057349 -0.004825 255 254 255
-0.091868 -0.142464 0.037955 102 152 239
-0.093147 -0.171045 0.007256 101 150 238
0.226663 -0.025254 0.018418 253 255 255
0.007178 0.175835 -0.027922 255 255 254
-0.071857 -0.263310 0.034732 254 255 255
0.050748 0.150632 -0.015929 254 254 255
-0.110769 0.163212 0.022303 103 150 236
-0.076587 0.259700 0.030849 255 255 255
-0.078728 0.260186 0.031670 255 254 254
-0.090854 0.152597 0.025062 103 149 233
-0.101758 0.101988 -0.094676 101 149 236
0.009718 0.173744 0.036765 255 255 255
-0.089171 -0.249142 -0.039583 100 149 237
0.062313 -0.076958 0.041882 254 255 254
-0.088909 0.117460 -0.070648 101 150 239
-0.037754 0.221020 0.047795 255 255 255
-0.089996 0.269885 0.006787 254 255 255
0.171692 0.031407 -0.000427 254 255 255
-0.089364 0.204088 0.013160 101 151 236
0.208140 -0.001331 0.043014 254 254 255
-0.108685 -0.136527 -0.016096 103 150 237
-0.090800 0.098274 0.007302 102 151 237
-0.037816 0.234225 0.004284 255 255 255
0.057504 0.129276 0.012214 255 254 255
0.048667 0.150343 -0.010661 255 254 255
0.071180 -0.063978 0.029381 255 255 255
-0.092758 -0.139307 0.006326 100 148 236
0.248693 0.109768 0.020301 255 255 254
-0.088812 -0.095102 -0.071853 102 150 236
-0.025539 0.219972 -0.026095 255 254 255
-0.115222 -0.115838 -0.076452 102 150 236
0.010607 -0.162739 0.023137 255 255 255
-0.107728 0.057846 0.001267 101 150 239
-0.110770 0.225696 -0.080868 101 149 236
0.053505 -0.090339 -0.003320 255 255 255
-0.114577 -0.098727 -0.049946 100 150 236
-0.048841 0.251887 -0.002332 255 255 255
0.196033 -0.012912 0.016763 255 255 255
-0.093901 -0.205580 0.027409 103 150 238
-0.110311 0.175341 -0.076268 101 151 238
-0.074847 -0.257822 -0.030230 255 255 255
-0.081009 0.263858 0.020713 255 255 255
-0.091937 -0.057283 -0.042207 101 149 238
-0.106529 0.123906 -0.008670 102 150 237
0.228379 -0.032412 0.005308 254 254 255
0.145954 0.031514 0.028880 255 254 255
-0.108155 0.251614 -0.037926 102 149 237
0.100642 0.101254 0.025069 254 255 255
0.268803 -0.064173 0.048266 255 255 255
0.054810 -0.088104 0.011279 255 255 255
0.153981 0.049460 0.061574 255 254 254
-0.072907 -0.251789 -0.012861 255 255 255
0.118645 -0.020121 0.020707 255 255 255
0.048086 0.135485 0.026038 254 255 254
-0.091274 -0.241244 -0.000127 102 150 237
0.008987 -0.149705 0.047341 255 255 255
0.034778 -0.109697 -0.015504 254 255 255
-0.106031 0.207552 -0.038772 102 150 238
-0.113967 -0.260241 -0.039044 102 149 239
-0.089584 0.237394 -0.077288 100 149 238
-0.111410 0.017756 -0.036540 101 149 237
-0.083953 0.274119 -0.029983 254 255 255
-0.106742 0.101976 -0.009837 103 150 237
-0.107960 -0.170623 -0.049220 101 149 237
0.060425 -0.095551 0.045425 255 255 255
-0.109958 -0.244695 0.026793 100 148 238
0.193041 0.069917 0.068741 255 255 255
-0.060776 -0.232068 0.049563 254 254 255
-0.108413 -0.216215 -0.074072 100 148 238
-0.087868 -0.079636 0.029330 103 149 235
-0.113664 0.282390 -0.018522 101 149 237
0.157527 0.031583 0.006290 255 255 254
-0.109172 -0.168315 -0.066071 100 149 237
0.067056 0.118615 0.034567 254 254 254
-0.094377 0.101794 -0.096743 101 149 238
-0.089156 0.096267 -0.018736 102 149 238
0.087711 0.113887 0.049721 254 255 255
-0.086821 0.268888 -0.033684 102 150 237
-0.086234 0.169034 0.016555 106 139 195
0.144130 0.029509 0.054072 254 255 255
-0.013468 0.209084 -0.018467 255 254 254
-0.115362 -0.240500 -0.041975 103 149 235
-0.091326 -0.184910 -0.012106 103 150 237
0.025465 -0.124297 -0.014203 255 255 255
0.008376 -0.148950 -0.007066 254 255 255
-0.091002 -0.103562 -0.082177 101 149 237
-0.090864 0.167289 -0.027236 102 149 237
0.009923 0.175413 0.059105 255 255 255
0.087242 0.109212 0.060537 255 254 254
-0.092222 -0.072654 -0.057449 100 148 236
-0.100998 -0.284119 0.012484 102 150 238
-0.099949 0.145648 -0.070991 102 151 238
-0.113002 0.014054 -0.020106 103 150 238
0.135877 0.055903 0.026256 255 255 254
0.106028 0.097103 0.029481 254 255 254
-0.091525 -0.195778 0.002918 100 149 237
0.033268 -0.114946 -0.012132 254 255 255
0.044842 -0.110498 0.061211 255 255 255
-0.082160 0.273249 -0.030718 255 255 255
-0.079190 0.260377 0.012966 255 255 254
0.015640 -0.138259 0.046332 255 255 254
-0.091056 -0.160634 -0.023746 102 149 237
-0.091267 0.021401 -0.027431 103 150 239
0.037519 -0.125621 0.017302 254 255 255
-0.092731 -0.202328 -0.058335 112 137 175
-0.093936 -0.098742 -0.030282 101 149 236
0.082285 -0.046645 0.060742 255 255 254
-0.110204 0.245624 -0.080775 101 149 239
-0.018281 -0.195698 0.016115 255 255 255
0.271294 -0.068076 0.040677 255 255 255
-0.036153 -0.218993 0.005181 255 255 255
-0.091194 -0.252663 0.053531 102 150 237
0.211433 -0.007120 0.044581 255 255 255
0.180493 0.021335 0.044680 253 255 254
-0.091980 0.269164 -0.047298 101 148 235
-0.092131 -0.097576 -0.038396 100 150 236
-0.055243 0.238303 0.041185 254 254 255
-0.093058 -0.230295 -0.074056 102 150 239
0.009839 0.174668 -0.012694 255 255 255
0.023736 0.165992 -0.020714 254 255 255
-0.039125 -0.208727 0.003340 255 255 255
0.125280 -0.007416 0.053969 255 255 255
0.146561 0.017392 0.022496 254 255 254
-0.094179 0.042795 -0.003253 103 151 237
-0.089809 -0.139519 -0.077516 102 150 237
-0.083369 -0.280756 0.050567 255 255 255
0.124252 -0.011261 0.007413 255 255 255
0.051374 -0.102336 -0.000929 255 255 255
-0.085074 0.201495 -0.041332 103 151 237
-0.027266 0.210895 0.036458 255 255 255
0.224866 0.092357 0.033219 255 255 255
-0.027009 -0.209249 -0.010454 254 255 254
0.081145 0.116366 0.059632 255 255 255
-0.110117 -0.161276 -0.048727 102 149 238
-0.107674 -0.112645 0.019841 100 149 237
-0.087480 0.109893 -0.002582 100 149 238
-0.100122 0.085065 -0.095903 101 149 237
-0.028143 -0.190286 0.010973 254 255 254
-0.109111 0.116564 0.035209 103 150 236
-0.107313 -0.112378 -0.030398 102 151 236
0.017996 0.170270 -0.023760 255 253 255
-0.030787 0.213576 -0.022123 255 254 254
-0.032448 0.214949 0.037177 255 255 255
-0.075068 -0.256200 -0.012655 255 255 254
0.090500 0.111592 0.008830 254 255 255
-0.033241 0.216650 0.013880 255 255 255
-0.111135 -0.085458 0.007337 103 149 237
0.134800 0.026736 0.060893 255 255 255
0.000181 -0.179320 -0.014468 254 255 254
-0.099770 -0.280399 0.020709 103 151 237
0.175740 0.016677 0.008220 255 255 255
-0.090986 -0.109994 -0.037617 103 152 240
-0.112326 -0.062672 0.005500 102 151 237
0.048212 0.153444 0.056162 255 255 255
0.256016 -0.058457 0.063684 253 254 254
-0.117160 0.236044 -0.002057 101 150 237
-0.107964 -0.242403 0.019265 101 150 238
0.195246 0.008952 0.011375 254 255 254
-0.112304 -0.201077 -0.057926 102 150 236
-0.093050 -0.181609 0.003352 102 150 236
0.252341 -0.066541 0.032777 254 254 255
-0.093209 0.037014 0.009437 101 150 236
-0.049473 -0.220362 0.047309 255 254 255
0.196891 -0.003260 0.061413 255 255 255
-0.110761 0.083847 -0.068654 101 150 236
-0.113740 0.052545 -0.031175 103 151 238
-0.110903 -0.215985 0.025022 100 150 238
-0.092109 -0.068726 0.025500 100 149 237
0.124900 -0.012278 0.023275 255 255 255
-0.090257 -0.105192 0.037902 104 142 205
-0.109467 0.256807 -0.036693 102 150 236
-0.113462 -0.148585 -0.035330 101 150 238
0.047125 0.152096 -0.011133 254 255 254
-0.092975 -0.044876 0.019029 101 149 238
-0.110546 0.263543 -0.033745 101 150 238
0.105471 -0.017185 0.046701 255 255 255
0.011278 -0.163917 0.001454 255 254 255
-0.091007 -0.276896 -0.020551 254 255 254
-0.107364 0.090286 0.020124 102 149 236
0.083690 0.110579 0.025969 255 254 255
0.020552 0.163101 0.032878 255 255 255
-0.009263 -0.168455 0.049045 254 255 255
-0.012536 -0.173811 -0.016555 254 255 255
0.087410 -0.041294 0.020981 255 255 255
-0.068082 0.265663 -0.031293 255 255 255
-0.111379 -0.041451 -0.054322 101 149 237
-0.009246 -0.169997 -0.009773 254 255 255
-0.076735 0.256105 0.055997 255 255 255
-0.018883 -0.181755 0.023313 255 255 254
0.003114 0.193385 0.032537 255 255 254
0.070432 -0.079107 -0.014277 253 253 255
0.252685 -0.069271 0.028473 255 255 255
-0.087712 -0.135226 -0.094492 100 149 238
-0.040600 -0.224288 0.035217 253 254 255
-0.090192 -0.179828 -0.087573 100 149 238
-0.106330 0.206051 0.030676 101 151 237
-0.109314 -0.263305 0.034250 101 151 237
0.055308 -0.105947 -0.007447 255 255 255
-0.022287 0.207132 0.002702 254 255 255
0.189528 -0.001066 0.001610 255 255 255
-0.089123 0.083241 0.024805 103 151 237
0.060753 -0.088442 0.036583 255 254 255
0.049698 -0.094299 0.044121 255 255 255
0.121739 0.003263 0.048747 255 255 255
0.106307 0.081812 -0.006741 254 254 255
-0.113042 -0.159954 0.048146 101 149 239
0.101105 -0.039743 0.028035 255 255 255
-0.106808 -0.061037 0.028195 100 150 237
-0.092720 -0.283122 -0.013196 255 255 254
0.209200 -0.001728 0.065111 255 255 255
-0.093658 -0.277927 0.006904 101 151 237
-0.089745 -0.221138 -0.002745 102 151 238
0.084516 -0.064132 0.055915 254 255 255
0.143434 0.043742 0.051127 254 255 255
0.018385 0.165193 0.058710 255 255 255
0.126648 -0.012351 0.008020 255 255 255
-0.105625 -0.205532 -0.087838 100 150 239
-0.110452 -0.073793 -0.043299 101 150 236
-0.095047 0.098000 -0.097688 102 149 238
-0.085476 0.055906 -0.026603 103 150 239
-0.072948 0.260332 -0.031047 255 255 255
-0.091731 -0.096771 0.036730 102 151 239
0.075331 0.125402 0.061434 254 255 255
-0.034119 -0.200347 0.010905 254 255 255
0.160362 0.032922 0.028672 255 255 255
0.209860 -0.007223 0.017847 255 255 254
-0.046005 0.222646 0.027968 255 255 255
-0.037285 -0.202950 0.041185 255 255 254
-0.109341 -0.282554 -0.010554 102 148 234
0.129067 0.075550 0.030439 255 254 255
-0.102018 -0.033523 0.000986 100 150 238
-0.090464 -0.088947 0.017795 100 149 236
-0.025972 0.220109 0.035309 255 255 255
0.101573 -0.040918 0.030569 254 255 254
-0.107042 0.045700 -0.094074 101 150 239
0.016870 0.180298 -0.007246 255 254 255
-0.111393 -0.277453 -0.061083 101 150 236
0.196444 0.082587 0.056664 253 254 255
-0.097835 -0.276534 -0.066464 102 151 236
0.088223 0.109697 -0.013193 254 254 254
0.031027 -0.131625 0.060253 255 255 254
0.080784 -0.068115 0.030421 254 255 255
0.187869 0.017893 0.021273 254 254 254
-0.107152 0.017751 -0.054614 101 149 237
-0.090280 -0.109235 -0.049551 100 149 239
-0.094519 -0.136217 -0.098348 102 150 238
-0.105078 -0.066230 -0.053994 101 149 236
-0.091873 -0.075302 0.013702 103 149 236
-0.069376 -0.261038 0.036027 255 254 254
-0.110387 -0.200586 0.025284 102 151 238
-0.091467 0.020913 0.000863 100 150 238
-0.088734 -0.135139 -0.095976 102 150 238
-0.095894 -0.217717 0.056796 103 149 236
-0.011272 0.208940 0.011194 254 255 254
-0.057686 -0.244496 -0.027588 255 255 254
