ply
format ascii 1.0
element vertex 1179
property float x
property float y
property float z
property uchar red
property uchar green
property uchar blue
end_header
0.030507 -0.151359 0.006182 253 254 254
-0.107856 -0.183733 -0.073133 106 133 183
0.049948 0.163635 -0.011065 253 254 253
-0.046556 -0.218206 0.054754 252 254 253
-0.081023 -0.101441 0.000407 103 147 225
0.018668 -0.146971 0.045461 253 253 254
-0.101877 -0.130246 0.028744 105 149 235
-0.090858 -0.137769 0.053797 101 148 232
-0.080392 0.153656 0.020223 104 149 233
-0.077409 0.271197 -0.054226 103 132 187
-0.100057 -0.176695 0.034287 105 147 222
-0.095651 -0.172130 -0.080554 105 150 235
0.001046 0.205494 -0.000817 196 198 202
0.033299 0.162499 0.012074 254 253 254
0.078176 -0.077893 0.010674 253 253 253
-0.023400 -0.198812 0.027308 255 254 254
0.042505 -0.137871 -0.005608 253 253 253
0.031422 -0.150426 0.010623 253 255 255
-0.101596 0.174094 0.021507 102 149 232
0.111005 -0.028224 0.060161 255 253 253
0.113459 0.105926 0.032299 253 254 253
-0.078727 0.191894 0.014984 101 146 226
-0.101343 -0.057643 0.021816 104 150 233
0.206912 0.010760 -0.004363 254 255 253
0.004200 -0.187672 -0.015779 253 254 255
0.193400 0.070899 0.057092 253 253 253
-0.076094 0.265430 0.056440 252 253 254
-0.104589 -0.198863 -0.081779 105 151 235
-0.104284 -0.171109 -0.023155 104 138 204
0.019230 0.178657 0.062104 253 254 255
0.080636 0.120694 -0.011142 254 253 253
0.161490 0.021968 0.010672 255 255 255
-0.055830 -0.237831 -0.004030 253 255 254
-0.083087 -0.135280 0.020070 102 142 213
-0.077576 -0.222694 0.021649 129 131 135
0.268314 -0.044142 0.019696 253 252 254
-0.091086 -0.174519 0.054097 102 149 232
-0.080394 -0.160328 -0.074537 104 151 234
-0.101058 0.026894 -0.014032 134 136 141
0.055158 -0.119892 -0.000445 254 255 254
-0.067168 -0.251349 0.030132 254 255 253
0.163162 0.052421 -0.005798 252 253 253
-0.078236 -0.165064 -0.072152 104 150 234
0.074115 0.127704 0.060728 255 255 253
-0.083157 0.012760 -0.003903 102 140 212
-0.102298 -0.163714 -0.038705 102 149 235
0.222343 0.092374 0.058770 255 254 254
-0.010805 -0.175631 0.042006 252 252 253
-0.094748 -0.091477 0.044483 132 137 141
0.188223 0.050837 0.026374 253 254 254
0.242561 -0.029248 0.053535 253 255 253
0.253746 -0.044719 0.037086 254 253 253
0.034314 -0.153109 -0.019349 252 254 253
-0.048817 0.239664 -0.023695 253 253 254
0.218613 -0.009767 0.019086 254 254 254
0.219498 0.082344 0.022181 253 253 253
-0.048093 -0.252015 -0.028148 253 254 253
0.088963 -0.059164 -0.004338 255 253 253
-0.080145 -0.197015 0.046245 102 150 235
-0.080020 0.251922 0.004700 103 148 234
-0.038342 0.229274 -0.001765 253 254 254
-0.080009 -0.265357 -0.042416 253 253 253
0.184195 0.042055 0.045497 253 254 252
0.176073 0.034092 0.049152 255 255 254
-0.076770 0.050320 0.019266 131 132 137
-0.098274 0.133229 -0.034396 101 138 205
0.193418 0.055035 0.013667 253 253 254
-0.080440 -0.254084 -0.069041 104 149 233
-0.000624 -0.171859 0.055952 255 254 254
-0.043757 0.251073 0.004333 254 253 254
-0.084175 0.180150 0.056550 102 148 230
-0.074517 0.258791 0.060793 255 255 255
0.169446 0.035442 0.061276 253 254 253
-0.096875 -0.102425 -0.045535 101 150 235
0.004864 -0.188302 -0.027798 255 253 255
0.065121 -0.099627 -0.020481 254 254 255
0.045044 -0.115713 0.039383 254 254 254
0.246334 -0.026204 0.018039 255 255 253
0.029388 -0.133174 0.061636 254 253 254
-0.096099 0.192883 -0.079334 104 150 235
-0.102341 0.219556 -0.061389 102 148 233
-0.095740 -0.193455 0.002507 103 149 234
0.200156 0.058881 0.050196 254 254 254
-0.082282 -0.248856 -0.048797 105 147 225
-0.044927 -0.243757 0.031033 252 254 252
0.064270 -0.089142 0.052512 253 255 255
0.120992 -0.016638 0.051666 254 255 254
-0.104118 -0.093693 -0.084734 102 149 233
0.078512 0.120340 -0.014045 252 254 253
-0.094480 -0.198680 0.018286 103 150 234
-0.082992 0.231870 -0.077910 101 149 233
-0.100092 -0.097286 -0.065101 105 144 214
0.166739 0.028440 0.028949 252 255 254
0.076129 -0.076155 0.037517 253 253 255
-0.077001 -0.130168 -0.012292 102 148 235
-0.078816 0.074717 -0.058173 101 149 236
0.042049 0.165375 -0.028936 253 253 253
-0.098910 0.134075 -0.060694 101 148 235
0.198532 0.064174 0.062227 253 253 254
0.258263 -0.035230 0.039336 253 255 255
-0.095096 0.137736 -0.082161 134 133 138
-0.083767 -0.235062 -0.052841 102 141 209
-0.089764 -0.169753 0.055252 135 140 145
-0.098118 -0.169310 0.052158 103 148 232
-0.081172 0.089737 -0.049992 102 132 188
0.193451 0.052025 0.001078 253 255 255
-0.008154 0.199973 0.049554 254 254 255
-0.025079 -0.219351 -0.030951 254 253 252
-0.002941 0.210450 -0.032101 255 254 253
0.254835 -0.044358 0.047123 253 254 254
0.151586 0.067722 0.037492 253 253 255
-0.074736 -0.218653 -0.027649 103 147 229
0.032505 -0.133479 0.005586 252 255 253
-0.081103 -0.098367 -0.030483 101 145 222
0.114248 0.088351 -0.012395 254 254 254
0.154724 0.011335 0.050101 254 254 254
0.042109 0.153754 0.012030 254 255 254
-0.060280 -0.242734 0.002628 255 255 253
-0.079514 -0.130223 -0.049599 104 148 234
-0.103347 -0.208933 -0.029443 103 142 215
-0.098503 -0.158652 -0.004921 102 149 235
0.054367 0.159731 0.031727 253 252 253
0.082955 -0.087456 0.006082 253 254 254
0.035991 -0.144833 0.013121 255 255 254
-0.101742 0.092715 -0.075794 102 145 224
0.128883 0.075673 0.007808 252 251 253
-0.047862 -0.243685 0.013165 254 255 255
-0.101462 0.130113 -0.060474 129 132 138
-0.083014 0.136388 -0.014458 102 150 235
-0.082254 0.221619 -0.009652 104 149 234
0.021305 -0.141297 0.027851 253 253 255
-0.106349 0.058383 -0.017636 102 150 234
-0.081940 0.127089 -0.026584 102 148 233
-0.082643 0.254021 -0.072492 103 148 230
-0.098401 0.253120 0.014807 102 149 235
0.217100 0.005830 0.052039 252 253 253
-0.039847 0.243617 0.054958 253 255 255
0.013902 0.197663 0.057344 254 255 254
0.053599 0.160844 0.037827 255 255 254
-0.070971 0.275746 -0.033935 254 253 254
-0.080572 -0.186481 0.056666 102 145 228
0.173908 0.033286 0.008505 254 255 253
-0.104273 -0.237880 -0.066904 104 150 234
-0.103755 -0.133299 -0.079612 135 139 144
-0.094429 0.161309 0.020199 102 149 231
0.096826 -0.064465 0.051964 254 254 254
0.098103 -0.064318 0.044749 253 253 255
0.086448 -0.081914 0.013645 252 253 255
-0.053188 0.242483 0.062264 254 254 255
-0.078752 0.103475 -0.084106 128 132 138
0.037660 -0.145515 0.046633 253 254 252
-0.062580 -0.262479 0.037165 252 251 252
-0.097704 0.239164 -0.062965 104 151 235
-0.062929 0.268252 0.014130 253 252 253
-0.082420 -0.245111 -0.057196 102 150 235
-0.061182 0.265538 -0.021727 254 254 255
0.200557 0.003947 0.052845 253 253 254
0.062365 0.134614 0.007830 255 255 255
0.062837 -0.111345 0.017043 253 253 254
-0.003164 -0.174831 -0.028449 254 255 253
0.105460 0.112446 0.045804 253 253 255
-0.036642 -0.231629 0.010778 252 253 252
-0.104174 0.082629 -0.016730 133 132 137
-0.100564 -0.221757 -0.027764 102 142 217
0.168943 0.042691 0.064498 253 253 253
0.211548 0.089660 0.040122 254 253 253
-0.099814 0.274809 -0.002879 103 149 230
-0.097919 -0.165583 -0.063470 103 149 234
0.118462 -0.043869 -0.004416 254 254 254
-0.098030 0.041420 -0.015916 104 149 233
-0.103942 0.097390 -0.026798 104 151 235
-0.072671 0.275615 0.031305 253 254 254
0.062669 0.136115 0.024905 254 254 253
0.162273 0.031943 0.046477 255 255 253
0.019554 -0.143382 0.054175 252 252 252
-0.001603 -0.189215 -0.013942 253 253 252
-0.098038 0.230854 0.000663 102 149 235
-0.104452 -0.073509 0.011361 130 134 141
0.042464 -0.134269 -0.000397 253 252 252
0.205213 0.000519 0.041303 253 254 254
-0.098370 0.244153 0.031861 102 150 235
0.239138 -0.030602 0.021672 253 254 255
0.032723 -0.131770 0.043100 254 253 253
-0.098903 0.104394 -0.090350 126 131 137
-0.086113 -0.139498 -0.071440 103 149 232
-0.083271 -0.164937 0.012465 103 148 233
-0.095423 -0.040959 0.025191 136 135 140
0.073789 0.129926 -0.018000 254 254 254
0.254425 -0.044329 0.018559 255 255 255
-0.099618 0.180631 0.015389 102 148 235
-0.008270 0.200086 -0.035975 254 254 254
-0.087284 0.163069 -0.080848 105 136 197
-0.082524 0.100859 0.038833 102 148 234
-0.079116 -0.130538 -0.025398 104 141 210
-0.043923 -0.224064 -0.021196 254 255 253
0.197130 0.071399 0.031765 254 254 253
0.032202 0.162811 -0.017818 254 254 253
-0.074042 -0.070628 0.028834 134 136 142
-0.078333 0.081947 0.040847 102 150 236
-0.081690 -0.274006 -0.040191 103 148 233
0.179753 0.052425 0.048209 254 254 253
-0.077154 -0.125754 0.045101 101 149 235
-0.067568 0.272139 0.055683 254 254 254
-0.080943 0.227092 0.061242 101 150 235
-0.081958 -0.273770 0.005310 103 147 228
-0.019867 -0.196798 0.018056 254 254 254
-0.047825 0.252062 -0.025918 254 254 253
0.119190 -0.038257 0.029301 252 253 253
0.257413 -0.047272 0.026267 254 254 254
-0.055341 -0.236646 -0.013839 253 253 253
-0.064156 -0.241884 0.041462 255 255 255
0.225508 0.102261 0.042978 253 254 252
-0.079920 -0.212011 -0.083899 104 147 230
-0.066831 0.262799 -0.045456 253 253 253
-0.059997 -0.257796 0.060587 254 254 252
0.180829 0.028623 0.006681 254 255 253
-0.102024 -0.221992 0.009779 102 150 235
-0.102813 0.123928 -0.077338 103 148 231
-0.075772 0.239873 -0.054554 104 150 234
-0.003396 -0.177586 0.010683 253 253 252
0.051162 -0.108099 0.028074 253 254 253
0.155630 0.043796 0.030748 254 254 254
-0.000080 0.199438 -0.031506 253 255 254
-0.101963 0.097282 0.033907 104 142 215
-0.080776 0.179062 -0.007487 102 149 235
0.081207 -0.091491 0.001201 254 253 254
0.093786 -0.075959 -0.016245 255 253 255
-0.080103 -0.160535 -0.054402 127 131 135
0.181478 0.026334 0.004050 255 254 254
-0.080958 0.242848 0.013676 135 137 143
-0.102062 0.074778 -0.001542 104 150 235
-0.092878 0.055449 -0.004552 102 143 218
0.092683 0.119384 0.021461 255 255 254
-0.025769 -0.200679 0.002798 252 252 253
-0.072520 0.257047 0.042634 255 254 254
-0.096844 0.242878 -0.055647 102 150 236
0.196330 0.068865 0.044228 253 254 254
-0.061923 -0.243925 0.033182 254 255 253
-0.095852 0.247008 -0.002850 101 145 226
0.017177 0.188816 -0.020346 254 255 255
-0.101531 -0.119225 0.046729 131 136 141
-0.103093 -0.157002 -0.074459 105 151 235
0.061243 -0.095193 0.044549 255 255 255
0.198007 0.008192 0.024165 253 253 254
0.009531 0.184748 0.052002 255 255 254
-0.056677 0.263953 0.035906 253 253 253
-0.100048 0.153208 0.050088 104 150 235
-0.046123 0.247683 0.058032 255 255 255
-0.102368 0.090810 0.023621 127 132 138
-0.081100 0.020664 0.024935 124 129 134
0.141996 -0.007051 0.019013 253 253 253
-0.098742 0.074755 -0.027061 102 146 227
-0.079979 -0.231586 -0.074501 105 150 231
-0.098127 0.115148 -0.031940 105 145 217
-0.101276 -0.186250 0.054136 102 148 229
-0.102564 0.098780 0.019932 130 133 139
-0.101041 0.262894 -0.027680 103 146 224
-0.079908 0.241338 -0.076080 104 148 231
0.021012 -0.162804 0.048911 253 255 255
-0.101138 -0.051097 -0.056767 105 147 226
0.073018 0.125826 0.054774 253 254 254
-0.104029 -0.235772 -0.038506 107 130 171
-0.100300 0.122068 -0.086601 105 148 232
-0.084964 0.071099 -0.038922 103 150 233
-0.088362 0.184205 0.057622 103 149 235
-0.084316 0.240499 -0.025995 102 150 236
-0.082804 0.095905 -0.003966 102 147 231
-0.097863 -0.263755 -0.003333 103 150 234
0.027055 -0.136432 0.060593 253 254 252
-0.021600 -0.215126 0.000487 254 254 253
0.088624 -0.078980 0.029961 254 254 253
0.000823 0.207069 0.039525 253 253 253
-0.097084 -0.092257 0.048246 118 137 171
-0.098330 0.028869 -0.006230 103 149 235
-0.083718 0.105892 0.036333 102 149 236
0.120224 0.099185 0.004600 252 253 253
-0.101212 0.130968 -0.065734 129 132 138
-0.079004 0.048991 -0.018594 102 147 232
0.039329 -0.133403 0.063942 254 253 253
0.053255 0.159396 -0.016910 253 253 253
-0.077663 -0.041059 0.006376 103 149 233
-0.102762 -0.252159 -0.037238 103 141 211
-0.078923 -0.266078 0.039178 255 254 255
-0.081041 -0.147456 -0.007438 101 143 219
-0.102580 0.198544 0.049067 104 145 218
0.069454 -0.085409 0.051534 253 254 254
-0.081564 0.205297 0.056941 104 149 231
0.070110 0.143505 0.057825 253 255 253
0.194178 0.054415 0.006522 254 254 255
0.078228 0.137128 0.012384 253 254 255
0.061231 0.136856 0.038871 255 253 253
-0.062722 -0.245339 -0.002443 252 253 254
-0.100583 0.081413 -0.086032 103 146 229
-0.073373 0.273528 0.032998 254 255 255
0.127839 -0.008445 0.046211 254 254 255
-0.082856 0.252044 0.001046 103 150 234
-0.083153 -0.136629 0.033478 103 149 233
0.058505 0.140862 0.058692 253 253 254
-0.075665 0.173842 0.052445 105 143 212
-0.100516 -0.102869 0.002145 102 150 234
-0.022297 -0.218115 -0.020004 253 254 254
0.037953 0.173305 -0.022458 253 254 254
0.145009 -0.003838 0.027884 253 253 253
-0.019867 0.210579 0.052888 254 253 254
-0.079562 -0.250001 0.037525 105 146 221
-0.099286 0.203566 0.048035 102 148 235
0.023504 0.188453 0.014287 252 253 254
0.225796 -0.017132 0.050125 254 254 254
-0.087193 0.016826 0.026552 103 149 235
-0.101629 0.064582 0.030064 103 149 234
0.227175 -0.004978 0.007510 254 255 254
0.081205 -0.087704 0.021339 253 254 254
-0.080367 -0.261728 0.039919 104 149 231
-0.100005 -0.064910 -0.037130 103 148 233
-0.078851 -0.270966 -0.041062 103 148 230
-0.103835 0.086463 -0.084946 103 150 236
-0.100468 0.226442 0.012595 104 148 232
-0.081215 -0.039586 -0.022479 101 149 234
0.027242 -0.139556 0.015245 255 255 255
0.150033 0.054254 0.060754 255 254 255
-0.102433 0.159699 -0.072483 103 149 232
-0.081438 -0.155680 -0.000016 102 148 234
0.245057 -0.021890 0.040875 254 253 253
-0.099601 0.066073 -0.067854 102 143 214
0.161768 0.050610 0.048218 255 253 254
-0.098398 -0.204602 0.058348 103 150 233
-0.078013 0.141354 -0.043780 103 149 234
0.058212 0.155265 0.037608 254 254 255
-0.072901 -0.143176 -0.046814 107 138 196
-0.098709 -0.242113 -0.003719 101 143 217
-0.097395 0.189529 -0.083726 102 147 233
-0.043932 0.231332 0.058463 253 254 254
0.032258 -0.155755 0.062976 253 253 251
-0.083540 0.106680 -0.041957 102 150 236
0.117210 -0.031170 -0.005527 253 253 253
-0.082013 0.061364 -0.012476 103 147 232
-0.098321 -0.072032 0.022138 101 148 232
0.140294 -0.011036 0.048395 254 254 254
-0.015364 -0.191402 0.019187 253 252 254
-0.049589 -0.230330 0.052317 252 252 252
0.053640 0.166384 0.047069 254 253 254
0.063656 0.146765 -0.022478 253 253 255
-0.084196 0.078591 -0.061295 103 144 219
0.091828 0.107002 -0.007327 253 254 254
-0.092671 -0.041976 -0.042045 104 146 227
0.162307 0.022530 0.029677 254 254 254
0.016487 0.177030 0.002185 255 254 254
-0.104166 -0.092295 -0.083236 102 149 235
0.209284 0.086642 0.049608 255 254 254
-0.064120 -0.266804 0.018492 253 255 254
0.059570 -0.098278 0.024932 255 253 255
-0.079943 0.161443 -0.056291 101 135 198
-0.096530 0.173530 -0.010944 101 149 235
-0.106836 -0.199855 -0.070444 102 147 229
-0.080592 0.041119 -0.040516 102 135 192
-0.081380 0.108529 -0.046838 104 148 233
0.060815 0.138555 0.015012 254 254 255
-0.098242 0.200947 0.049226 103 148 234
-0.097689 -0.103152 -0.079829 105 150 234
0.044450 -0.132263 0.031143 253 254 255
-0.079884 0.165613 -0.009324 101 141 212
-0.080208 -0.261242 0.003885 254 253 255
-0.084846 -0.272223 -0.019653 254 253 254
0.254147 -0.036569 0.052966 254 255 254
0.058698 0.139188 -0.007603 254 254 255
-0.096971 0.242248 -0.013483 102 149 235
0.123925 0.096014 0.016609 253 255 253
-0.097478 0.202642 0.024893 102 136 200
0.007328 -0.164371 0.029025 255 253 255
-0.107400 0.087401 0.006301 104 141 206
-0.090040 0.144809 -0.084161 103 144 220
-0.099775 -0.162231 -0.085895 104 146 224
-0.104261 -0.198043 -0.042611 133 137 141
0.138038 0.063659 0.016570 253 253 254
-0.006797 -0.194185 0.002955 254 254 253
-0.102434 -0.183305 -0.024111 115 134 170
0.001325 0.189599 0.018572 253 255 254
-0.038645 0.244297 0.048396 255 254 254
-0.031617 -0.205758 0.058962 255 255 255
0.024396 0.186222 0.000982 254 254 253
-0.025396 0.215767 0.006625 255 255 254
-0.031764 0.236006 0.030793 253 253 254
-0.080769 -0.235351 0.061624 103 149 232
-0.079615 -0.019473 0.016333 252 253 252
-0.099898 0.124629 0.039145 103 149 236
0.207293 0.066859 0.018118 254 252 254
0.185519 0.061369 0.003342 254 253 255
-0.077587 0.015619 0.009773 101 147 234
-0.083245 -0.192290 0.037442 104 150 234
0.119652 0.099318 0.026904 253 255 254
0.010325 -0.175648 0.057393 253 253 253
-0.011516 0.222453 0.050528 253 254 252
0.199559 0.058146 0.041029 255 255 253
-0.103163 -0.190933 0.047792 103 150 233
-0.075586 -0.183061 -0.029119 104 151 234
-0.031327 -0.206295 0.057115 216 216 218
-0.075110 -0.201077 -0.076451 104 148 229
-0.083574 0.185611 -0.050218 103 149 233
0.130627 0.091730 -0.007462 253 253 254
-0.100638 -0.065089 -0.050183 105 147 227
-0.100641 -0.243024 -0.063469 103 134 189
-0.072486 -0.203879 -0.031288 101 147 231
-0.076861 -0.269140 0.036719 103 146 225
0.100576 -0.059982 0.058510 253 255 254
0.085827 0.128487 0.051771 254 254 254
0.174143 0.048055 0.027663 252 252 253
-0.084811 -0.171210 0.018808 101 149 236
-0.035440 -0.234051 -0.026086 254 254 252
0.099632 -0.073758 -0.014033 255 255 255
-0.076424 -0.278034 0.025317 253 255 253
-0.043420 -0.238418 0.054098 252 253 252
-0.101588 0.227092 -0.042402 105 136 195
0.091217 0.110580 0.062677 253 254 254
-0.104004 -0.057750 -0.009115 128 132 138
-0.073202 0.233262 0.048803 136 135 144
0.121871 0.082864 0.050649 255 254 253
-0.099691 -0.046397 -0.049873 101 148 234
-0.081471 -0.162633 0.040042 104 147 223
-0.018559 0.208886 0.059427 253 254 253
-0.098216 -0.056541 -0.067429 103 146 226
0.024127 -0.159797 0.021382 255 255 254
-0.093885 -0.163470 -0.036369 129 133 137
-0.093283 -0.251598 0.056848 106 143 208
-0.102457 0.092574 -0.044185 101 150 234
-0.005663 -0.179970 0.003838 253 253 253
0.247572 -0.039399 0.023247 253 255 255
-0.038491 0.246627 -0.008242 254 253 253
-0.100854 -0.224262 0.050491 104 149 230
-0.079057 0.235897 0.057616 104 146 223
0.013614 -0.178598 -0.009547 255 255 255
-0.045980 0.248648 -0.035631 254 253 253
-0.103658 0.111122 -0.080548 103 149 235
0.152401 0.005732 0.032287 254 255 255
-0.101070 0.221394 -0.073472 126 129 136
0.081711 0.117817 -0.011741 253 253 253
0.091408 -0.078680 0.031612 255 255 255
-0.065919 -0.245459 0.016002 252 253 253
0.036605 0.155568 0.015131 255 254 255
0.103787 0.098142 0.043466 254 255 254
0.162964 0.054593 0.053747 255 253 254
-0.067908 -0.268394 -0.030708 253 255 254
0.148595 0.072213 0.012527 253 255 252
-0.082994 -0.161238 -0.040040 102 148 234
-0.103070 0.113324 -0.060665 134 137 143
-0.075940 -0.045690 0.024795 103 150 235
-0.081112 -0.074113 -0.012204 125 130 134
-0.073224 -0.265316 -0.039100 255 255 253
0.015545 0.174582 -0.009404 254 253 254
-0.041450 0.243113 -0.046639 255 254 255
0.198348 0.058176 0.013958 255 254 255
0.163242 0.033352 0.045652 253 253 254
-0.096533 0.254455 -0.068721 104 138 200
0.010539 0.199362 0.048897 253 253 253
0.197928 0.057601 0.013372 254 254 255
-0.103656 -0.050655 -0.051197 103 151 235
0.131903 -0.002463 0.023873 254 254 253
-0.105338 -0.177695 0.039772 102 140 207
-0.100625 0.178634 0.005078 104 150 235
0.095757 0.120199 0.001285 252 253 255
-0.074791 0.243033 -0.035037 101 147 229
-0.039998 -0.239962 0.021562 253 254 253
-0.082685 0.264792 0.041000 103 150 235
-0.040283 -0.221718 -0.016645 253 254 254
-0.084460 0.059360 -0.057149 102 148 234
-0.093539 0.100598 0.048658 102 149 233
-0.054388 -0.234079 0.009347 254 253 253
-0.083342 -0.177632 -0.047759 103 149 235
0.114639 -0.026898 0.003901 255 254 255
-0.052090 -0.234084 0.023593 254 255 253
-0.078916 0.154839 0.053804 103 150 234
-0.082441 0.051361 -0.068130 103 149 235
-0.098271 -0.179384 0.007848 102 150 235
0.031109 -0.147577 0.056397 254 254 255
-0.042671 -0.239161 0.039268 254 255 254
-0.081316 -0.276278 0.010678 105 148 231
-0.076524 0.271215 0.024043 133 136 140
0.066942 -0.079101 0.041357 253 254 254
-0.099306 0.248026 0.050542 102 141 212
-0.100445 -0.086241 0.001798 102 149 233
0.012957 0.181245 0.046536 255 255 254
-0.086671 -0.179843 0.059873 103 149 236
-0.102943 -0.111036 -0.085415 104 150 235
0.242121 -0.032536 0.013929 255 254 255
-0.079670 -0.102809 -0.008834 103 148 229
0.191336 0.017253 0.050711 254 254 255
-0.050553 0.256659 0.030900 253 254 253
0.005279 0.188758 0.002790 254 255 255
0.125389 -0.010735 0.052932 254 255 255
0.083800 0.116382 0.034239 254 253 253
-0.080546 0.182789 -0.024276 130 133 138
0.157739 0.046895 0.057394 252 252 254
-0.079478 0.062183 0.044211 102 145 223
-0.019736 -0.214175 0.016738 253 253 253
-0.084183 0.199834 0.058326 137 134 139
-0.093882 -0.271804 -0.045623 101 145 224
-0.076821 0.234741 -0.059030 102 138 202
-0.100451 -0.120213 -0.077341 102 147 227
-0.099189 -0.074297 -0.061618 102 150 233
-0.066731 -0.266580 0.044835 254 253 253
-0.102207 0.039472 -0.020122 104 149 233
-0.099118 0.198283 0.043983 102 150 235
-0.102024 0.277031 -0.010071 106 135 189
-0.099851 0.198770 -0.056642 102 150 236
-0.097814 -0.184191 -0.069929 104 149 233
-0.078046 0.193879 -0.076562 102 149 235
-0.100373 0.171835 0.047231 103 148 235
-0.082936 -0.163347 0.010672 103 150 235
0.234802 -0.025866 0.044878 254 255 254
-0.080280 0.223639 -0.020887 103 149 233
-0.077922 0.260298 -0.019808 104 150 235
0.087969 0.129684 0.026486 254 254 255
0.205234 0.082236 0.014498 254 253 254
-0.097380 -0.095221 -0.056005 102 146 227
-0.076686 0.270618 0.025905 130 135 139
-0.105708 -0.116750 0.011705 135 138 143
-0.079433 0.030056 -0.048358 102 148 228
0.130168 0.074227 0.002774 251 253 252
-0.099873 -0.186069 -0.073567 101 145 223
-0.037942 -0.214820 0.044981 253 254 252
-0.100526 0.167732 -0.056074 103 147 228
-0.103321 0.072956 -0.086865 102 148 233
0.111937 -0.046043 0.032221 254 253 254
0.013996 -0.161314 0.007757 254 253 254
0.093250 -0.074184 0.002318 254 253 254
-0.083792 0.058205 -0.023002 104 149 235
-0.064622 -0.246724 0.025781 254 254 254
-0.081269 -0.137309 0.005192 133 138 142
-0.105363 0.048269 -0.038727 103 149 231
-0.100101 -0.089235 -0.028749 130 131 137
-0.089422 0.087123 -0.087115 127 130 135
0.151694 0.000484 0.008013 254 254 254
-0.105067 -0.062790 -0.067904 103 138 202
-0.012914 0.222971 0.044425 253 253 254
-0.042378 0.234127 -0.028128 255 255 255
-0.077333 0.153436 0.016091 101 147 236
-0.078828 -0.131109 0.040019 102 148 234
-0.102436 -0.153554 -0.005850 132 133 144
0.159633 0.017014 0.030369 254 255 255
-0.101395 -0.073451 0.035676 104 135 186
-0.027904 0.228629 0.062084 252 253 254
0.110205 -0.052364 0.035585 255 255 254
-0.073473 0.267979 0.058107 253 253 253
0.010339 0.199701 0.058081 255 255 254
-0.083719 0.063792 -0.075447 102 148 234
0.025078 -0.159867 -0.006054 253 252 254
-0.100368 0.064341 -0.054512 105 150 233
-0.021358 -0.215659 -0.001121 254 255 254
-0.099820 -0.187999 -0.075687 102 148 231
-0.098235 -0.107537 0.003352 104 148 235
-0.082643 0.021086 -0.026864 104 149 233
0.216100 0.006465 0.029540 254 253 254
-0.080363 -0.150548 0.028554 102 145 227
-0.104305 0.185055 -0.004059 103 150 233
0.010174 0.201453 0.035218 255 254 255
-0.102242 0.248598 0.054075 128 135 145
-0.088177 0.122578 0.047497 102 147 232
-0.082822 -0.178407 0.043491 103 148 234
0.187122 0.060690 0.056210 254 253 255
0.174762 0.026150 0.042823 254 253 254
0.104612 -0.054074 -0.008338 254 255 253
-0.098303 -0.252867 -0.065341 103 150 235
-0.083860 0.022535 -0.038970 104 145 218
-0.103339 0.079725 0.015035 102 146 222
-0.078778 -0.253526 -0.058331 105 148 227
0.203215 0.072007 0.021151 253 254 255
-0.085954 -0.276422 -0.034055 129 133 137
-0.090681 0.025783 -0.056636 132 133 138
-0.082648 0.119874 -0.013237 101 147 231
0.046059 0.171769 0.058240 253 254 254
-0.081643 0.237661 -0.031682 102 135 196
0.000796 0.207297 -0.010257 252 253 253
-0.078716 0.042261 0.035575 104 149 230
-0.070112 -0.254780 0.043940 252 253 252
-0.095009 -0.166186 0.053661 104 135 195
-0.102342 0.272417 -0.040184 129 131 138
0.173337 0.048867 0.036715 253 255 254
0.134133 0.088884 0.042550 255 253 253
-0.079867 0.119439 -0.051639 102 148 234
-0.081092 -0.066862 -0.012906 104 149 231
0.198074 0.008239 0.009853 253 253 255
0.121074 -0.032889 0.021583 253 254 255
-0.102758 0.091413 0.023273 104 149 234
0.031412 0.156857 0.046355 253 254 254
-0.082607 -0.182994 0.010395 102 149 234
-0.082028 -0.120008 -0.064973 106 143 208
0.168274 0.042207 0.050505 255 255 254
-0.068950 0.254119 0.053364 255 254 254
-0.093591 0.181521 0.030844 105 147 223
0.067358 -0.109782 -0.007170 254 253 255
-0.100001 -0.175297 -0.000715 103 148 233
0.188765 0.062251 0.024869 254 253 254
-0.082413 -0.197001 -0.042939 127 132 137
-0.012633 -0.186131 0.032585 253 254 253
0.002419 0.191144 0.014043 254 255 255
-0.073021 0.249119 0.047647 101 147 227
-0.099753 0.233832 0.011704 102 146 227
0.062225 -0.108537 -0.018390 254 254 254
-0.105424 0.189054 0.036099 105 149 228
-0.094328 0.277941 -0.037305 130 135 139
0.193119 0.050102 0.035373 252 253 252
-0.026028 -0.199419 -0.025332 253 253 253
-0.051233 -0.252491 0.019080 253 254 254
-0.059261 0.243049 0.063863 252 254 253
-0.053494 0.257417 0.033672 254 253 253
0.007421 -0.161527 0.005841 255 255 254
-0.080469 0.171871 0.055789 130 128 133
-0.078180 -0.144404 0.032591 132 132 137
0.211532 0.008813 0.005958 253 255 254
0.206835 0.063465 0.026561 253 254 254
-0.088121 0.095194 -0.088975 103 149 236
-0.077456 0.233327 0.053070 191 196 209
-0.101333 0.044878 -0.013222 104 149 229
0.137407 0.065981 0.011761 253 254 254
-0.097205 -0.137102 -0.012249 101 149 233
0.148225 0.017535 0.043317 254 253 254
-0.092038 0.097690 0.036987 102 148 235
-0.078656 -0.178359 -0.014729 107 132 178
-0.088178 0.274448 0.022891 105 142 210
0.000685 0.198975 0.060726 255 254 253
-0.076117 0.272811 0.023133 253 255 254
-0.078156 -0.179048 -0.065441 102 149 232
0.071012 0.127259 0.024882 255 255 254
-0.086555 -0.219400 -0.030311 128 129 134
-0.095736 -0.227765 -0.081078 102 141 212
-0.103448 0.112260 0.043555 102 150 235
-0.021058 0.228740 0.024819 255 255 255
-0.104171 -0.170424 0.034891 104 147 231
-0.097387 -0.234384 -0.004499 103 147 230
-0.087262 0.196856 0.059775 102 140 210
-0.099492 -0.142980 0.052817 101 142 219
-0.041903 -0.228263 0.061775 253 255 253
-0.078001 -0.075407 0.022507 102 150 235
-0.051703 0.241767 0.001400 255 255 255
0.079463 -0.092673 0.040476 253 253 253
-0.091141 -0.197312 -0.080124 102 148 235
-0.042818 -0.223272 0.010428 253 253 253
-0.096969 0.256079 0.047511 103 147 228
-0.099902 0.224768 0.050667 102 145 225
-0.080080 0.232124 -0.007941 103 149 235
-0.095260 -0.179698 -0.082088 136 134 138
-0.078065 -0.167659 -0.076153 102 135 196
-0.090130 -0.040889 -0.040573 104 149 236
-0.087040 -0.273456 0.010819 128 134 139
-0.080118 0.139976 0.002909 103 149 235
0.040293 -0.140514 0.002143 254 253 253
-0.103997 -0.151486 -0.050212 103 142 214
-0.073508 -0.258625 0.036142 253 253 253
-0.106661 0.106519 0.034661 102 148 231
0.035982 -0.143766 -0.019687 200 202 206
-0.047367 0.235100 0.059304 253 253 254
-0.057004 -0.254709 0.024173 252 255 253
0.185967 0.028174 0.059780 254 254 255
0.047162 -0.134478 -0.012465 254 254 254
-0.077873 -0.195803 0.025361 102 143 219
-0.073051 0.255878 0.045621 253 254 255
0.269846 -0.047913 0.049685 255 255 253
-0.079967 -0.128842 -0.078297 102 145 221
-0.072270 0.261327 0.007339 252 253 252
-0.067568 0.253619 0.063823 255 253 254
0.243625 -0.023756 -0.012136 252 251 254
-0.054972 0.258982 -0.039662 253 255 254
0.240019 -0.017747 0.026901 253 254 254
-0.082998 -0.172135 0.035046 103 149 234
-0.105266 -0.116412 0.037336 103 149 234
0.037636 -0.143049 -0.016725 251 252 252
-0.102305 0.216532 -0.034623 102 148 235
0.139048 0.008306 0.053297 254 255 253
-0.102176 0.175116 -0.011450 102 149 235
0.131603 -0.004724 0.015731 254 253 253
0.225082 0.088922 0.032474 254 254 255
-0.076986 -0.073051 0.032832 103 145 227
0.211262 0.088804 0.043339 254 255 254
-0.078357 -0.267238 0.036549 255 254 254
0.106035 0.095341 -0.004668 252 253 254
0.214136 0.009561 0.010108 253 254 254
-0.037233 -0.214393 -0.007531 255 253 254
-0.079770 0.121716 -0.086878 102 150 235
0.006200 0.187306 0.037541 255 253 254
-0.096041 0.226081 -0.048765 103 137 195
0.156416 0.014563 0.056074 254 254 254
-0.096803 -0.184158 0.059729 104 147 227
-0.082024 0.041042 0.012613 102 140 211
0.136440 0.004030 0.054407 255 254 254
0.155015 0.024943 0.036277 255 254 253
-0.103057 0.193198 0.053009 105 149 229
-0.098215 -0.270589 0.009723 103 148 230
0.209304 0.070987 0.036208 255 255 255
-0.080086 -0.097221 0.031938 102 147 233
-0.100336 -0.188371 0.058183 103 150 235
0.029746 0.180193 0.061634 252 253 252
-0.074081 0.261717 0.047199 253 254 253
-0.077872 -0.268344 0.009262 252 253 254
-0.000477 -0.174215 0.037308 255 254 254
-0.099876 -0.160001 -0.018828 105 148 227
-0.017623 -0.215049 -0.025504 253 253 253
-0.034376 0.225979 -0.039989 254 253 254
0.038113 0.158462 0.007071 254 254 253
-0.095022 0.159994 0.032236 102 150 235
-0.007370 0.215557 -0.008462 254 255 255
0.097022 0.101906 0.003475 253 254 254
-0.078431 -0.266366 -0.008564 253 253 253
-0.094176 0.199766 0.035394 104 149 235
0.175500 0.031768 0.062379 253 253 254
-0.104893 -0.160510 -0.031261 104 148 226
0.159608 0.054360 -0.004224 255 253 254
0.254936 -0.046515 0.042492 254 254 253
-0.097916 0.258101 -0.035945 103 150 234
-0.007884 0.206518 -0.041029 255 255 255
-0.007280 -0.181828 0.056562 254 253 253
-0.077989 -0.259231 0.048305 103 141 212
-0.025649 0.214904 -0.023611 255 255 253
-0.086521 -0.199344 -0.053784 102 148 230
0.046566 -0.112777 -0.013464 253 252 255
-0.077061 0.263387 0.043561 104 149 236
0.251177 -0.040971 -0.001329 253 253 253
0.160963 0.019273 0.035150 255 255 255
-0.104442 -0.191121 0.033736 103 145 217
0.031542 0.178549 -0.016071 253 253 254
-0.075681 -0.277770 0.037721 253 254 255
-0.097917 -0.082892 -0.032454 102 147 229
-0.100639 -0.256451 -0.007821 103 150 234
-0.076581 -0.159021 -0.043930 102 150 234
0.118390 0.086993 0.016168 255 255 255
0.045507 -0.133132 0.034432 254 254 254
0.213093 -0.006390 0.038515 255 254 254
0.009576 0.184490 0.021886 255 255 255
-0.103564 0.072877 -0.087660 104 149 233
0.116332 -0.028237 0.015375 252 252 252
-0.078993 -0.066914 -0.002877 104 150 235
-0.024621 -0.199219 -0.019472 254 255 254
-0.083476 -0.154175 0.024900 104 149 235
0.082073 -0.069193 0.055238 254 254 254
0.244843 -0.025871 0.055417 255 255 253
0.141369 -0.007721 0.037602 255 253 254
-0.054440 -0.235299 -0.007390 253 254 253
-0.087369 0.034228 -0.064562 104 149 233
0.187701 0.026730 0.035350 253 253 253
0.042938 -0.134730 -0.008711 254 253 252
-0.105811 -0.145267 0.042364 102 146 230
-0.082720 -0.131693 0.010740 103 149 235
-0.044005 0.250339 -0.034795 255 254 253
-0.100506 -0.137751 -0.023934 102 148 232
0.083386 0.132030 0.029477 254 255 255
-0.024031 0.231047 -0.036138 252 254 253
-0.078785 -0.204001 0.011918 101 140 210
-0.081088 0.217994 0.044136 101 148 236
-0.080973 -0.127587 0.036207 127 130 135
0.050557 -0.129820 0.023207 254 255 253
0.229262 0.092175 0.030846 253 254 252
-0.104879 0.247053 0.007600 105 151 235
-0.019841 -0.212276 -0.002530 254 253 253
-0.083015 0.218774 0.019893 102 149 234
-0.081356 0.043735 0.039733 104 149 236
-0.088713 -0.279116 -0.011778 102 133 189
-0.079927 -0.262468 -0.062078 129 133 139
0.099753 0.116088 0.010111 252 252 253
-0.106892 0.185239 0.024197 104 146 221
0.154897 0.045965 -0.008884 254 255 253
-0.083956 -0.171308 0.037184 104 149 234
-0.080765 0.143473 0.015285 101 145 227
-0.051990 0.238714 0.063151 254 255 253
0.139230 0.080595 0.061762 252 253 254
-0.078488 -0.270829 -0.046405 101 141 212
-0.076298 0.264983 -0.000652 252 252 254
0.029706 -0.132083 0.004839 252 252 254
0.164954 0.035803 0.059220 254 254 253
0.146470 0.074993 0.040204 254 253 255
0.043341 -0.136369 -0.017974 252 252 253
0.062620 0.152664 0.035419 201 203 204
0.156649 0.048592 0.053512 254 253 254
0.053684 -0.113102 0.062782 253 253 254
-0.075700 0.226212 -0.029765 103 145 220
-0.080713 -0.196497 -0.041322 102 143 215
-0.079893 0.179817 0.041178 103 149 235
-0.079898 -0.235672 0.060444 133 137 141
-0.014152 0.222778 0.004440 253 253 254
0.151767 0.048999 0.040235 254 254 254
-0.082036 -0.176711 0.044774 103 142 212
-0.099444 0.075551 0.043654 130 128 134
0.116632 0.101483 -0.006525 253 253 253
-0.081947 -0.205087 -0.057909 106 145 213
-0.028511 -0.228469 -0.026685 253 252 254
-0.081531 0.110953 -0.019014 102 147 233
0.173844 0.034988 0.063060 255 253 255
-0.078866 0.112886 0.041171 104 146 225
0.213732 0.093206 0.032780 254 254 252
0.106068 -0.045240 -0.006701 253 254 253
0.183551 0.015715 0.036443 254 254 253
-0.079618 0.081724 -0.004187 101 148 235
-0.080490 -0.146431 -0.089891 102 150 235
-0.050159 0.255165 0.022257 255 254 253
-0.093994 -0.212250 0.035248 105 145 221
-0.106028 -0.241117 0.038928 103 148 232
-0.030473 -0.223358 0.060780 253 255 254
-0.103857 -0.160693 -0.003691 103 150 235
0.071721 0.142829 -0.020960 254 254 254
-0.007678 0.216287 -0.012805 253 253 255
-0.104945 0.166254 -0.024545 102 149 235
0.104387 -0.051371 0.063525 254 253 253
-0.013062 -0.187384 0.034780 253 253 254
0.058450 0.154320 -0.011194 198 205 202
-0.106028 -0.175448 -0.013973 103 148 230
-0.079163 0.145902 -0.069515 102 149 235
-0.077551 0.137878 -0.068152 127 132 136
-0.076323 0.230542 0.053389 130 134 137
0.095469 0.120229 0.062064 254 255 255
-0.077793 0.090818 0.046080 131 133 145
0.024805 -0.141686 0.054907 253 253 254
-0.097538 0.044706 0.007236 102 148 232
-0.077357 -0.174322 -0.000678 101 143 221
-0.079442 -0.173216 0.005823 103 150 235
-0.078910 -0.263824 -0.009703 102 149 235
-0.099949 -0.141726 -0.002876 103 142 209
-0.048063 -0.248818 -0.005012 253 254 254
-0.081663 0.093398 -0.075354 102 149 235
-0.098766 -0.131638 -0.050425 101 143 215
-0.105800 0.201335 -0.033979 104 141 208
-0.079362 0.101478 -0.069705 102 150 235
-0.078013 -0.261384 0.016378 101 148 232
0.208253 0.068798 0.039838 252 254 252
-0.009626 0.220747 -0.039879 252 253 252
0.118232 -0.038747 0.053093 254 253 254
0.229080 -0.019513 0.026600 253 255 253
0.158087 0.028941 0.034714 254 254 255
-0.100160 -0.227051 -0.000403 102 149 234
-0.099359 0.240351 -0.009148 103 145 221
0.178552 0.029201 0.048616 253 253 255
0.230880 0.096836 0.044737 255 255 254
-0.076884 0.261601 0.040840 127 131 135
-0.082831 0.068284 -0.029471 102 150 235
0.001144 0.191284 -0.000805 255 254 255
-0.040936 0.246311 -0.006247 253 254 253
0.171802 0.051377 0.055461 252 252 253
0.001087 -0.185822 -0.018701 255 255 255
-0.096614 -0.065819 0.038599 103 144 218
-0.099666 -0.063166 -0.037656 102 150 234
-0.100054 0.051154 -0.048067 103 149 234
-0.103031 -0.162697 0.042854 135 136 142
-0.100554 -0.083650 0.036895 102 147 235
0.114051 -0.026793 0.057308 253 254 253
-0.025789 -0.219758 0.012660 253 253 253
0.020478 0.173677 0.004068 255 255 255
-0.086448 0.069971 0.046491 104 149 235
-0.078630 0.193411 -0.007999 104 150 235
-0.080555 -0.102804 -0.013683 103 149 234
-0.102267 0.159384 -0.065453 104 150 234
-0.003113 -0.177756 0.053647 253 255 253
-0.084568 -0.039328 -0.010949 104 149 234
0.213080 -0.003206 -0.001567 254 255 255
-0.099736 0.179996 -0.025064 102 149 235
0.016035 -0.168062 -0.000316 255 255 255
-0.078135 -0.117642 -0.028921 102 149 235
-0.105801 -0.105344 -0.050034 103 149 234
-0.013031 -0.197495 0.062556 253 252 253
-0.088073 -0.182210 0.058943 103 150 235
-0.097678 0.275271 0.012265 104 148 232
-0.080572 0.269129 -0.024237 101 148 231
-0.099979 -0.148248 0.026931 103 143 217
0.006137 0.190555 0.000589 255 253 255
-0.075309 -0.075228 -0.070548 102 147 233
0.070010 0.142508 0.029959 253 255 253
-0.002294 -0.194896 0.028504 253 254 254
-0.083748 0.147169 -0.084437 104 150 235
-0.055525 -0.256866 -0.032088 254 252 253
0.202032 0.000241 0.053491 253 252 254
0.084497 0.115338 0.050327 253 254 254
-0.099450 0.170984 0.015921 104 150 235
0.099644 0.099294 -0.016714 254 254 255
-0.095077 -0.121793 0.023106 101 150 234
0.020815 0.188841 -0.009121 253 254 254
-0.083001 0.024474 -0.017277 102 148 233
-0.100047 0.254053 -0.062656 133 133 139
0.037219 0.150143 0.007531 252 254 252
-0.083099 0.050985 0.020632 104 130 177
-0.101644 0.263903 -0.060435 127 130 139
0.085212 -0.080906 0.047875 253 253 254
-0.100588 0.254686 -0.036627 103 150 235
-0.019538 0.228323 0.001856 255 253 253
-0.082562 -0.244740 0.009828 102 147 230
-0.090410 0.272796 -0.047801 102 146 229
-0.084238 0.115014 -0.022350 103 149 233
-0.102578 0.153241 -0.053168 129 133 137
-0.083725 0.050143 -0.020879 104 140 206
-0.098160 -0.073244 -0.023284 103 150 234
-0.083032 0.151796 -0.069078 102 146 229
-0.104034 0.173778 -0.013009 104 150 234
-0.011368 0.214681 -0.043428 255 254 253
-0.085322 0.143941 0.049731 103 148 232
-0.080021 -0.089683 -0.000184 102 148 233
0.056255 -0.110804 -0.016420 253 254 254
-0.103290 0.165153 -0.079234 103 150 233
-0.102274 0.175614 -0.046167 102 149 233
-0.055837 0.246439 -0.006472 252 252 255
0.214779 0.076554 0.021849 254 254 253
-0.034128 -0.228567 0.054980 253 253 253
-0.100839 0.080136 -0.090802 103 150 235
-0.099648 -0.094450 0.043529 104 151 235
0.248764 -0.038858 0.042777 252 253 254
-0.020787 0.229568 0.002581 255 255 253
-0.079573 0.141176 -0.020295 106 136 190
-0.000993 -0.171011 -0.014589 253 252 253
-0.087316 -0.042663 0.026976 142 148 155
0.071682 0.138337 0.061026 254 253 253
-0.103910 0.175479 -0.022140 132 132 137
-0.097702 -0.100342 0.036734 102 147 226
0.056522 -0.102587 0.001227 253 254 254
0.115438 0.104359 0.056587 255 254 253
-0.102193 -0.116760 -0.089175 102 149 233
0.036393 -0.126282 -0.012881 254 254 252
-0.098375 -0.054198 -0.009078 103 146 228
-0.096348 -0.229775 0.059689 105 146 229
-0.101524 0.089004 0.009087 102 147 232
-0.077892 -0.257431 -0.019904 103 148 234
-0.099450 -0.216424 -0.049905 104 143 216
-0.053915 -0.256150 0.007448 255 254 253
0.067250 0.139168 -0.022401 255 254 253
0.193257 0.067487 0.036765 254 253 253
-0.080092 -0.034252 0.010202 102 150 235
0.075197 -0.094310 0.019045 255 254 255
-0.097202 0.263793 -0.013423 104 149 232
-0.087901 -0.116044 -0.085613 103 143 216
0.091959 -0.075357 0.023638 254 253 254
-0.078989 0.113047 -0.087222 101 148 234
-0.102602 -0.121842 -0.021777 102 149 235
0.045660 -0.116583 0.021387 253 253 253
-0.099831 0.146521 -0.017648 102 147 227
0.049470 -0.108899 0.012345 255 254 253
0.070705 -0.088456 0.062165 253 255 254
-0.002230 -0.190350 -0.023828 252 254 254
0.102973 -0.047170 -0.008944 252 254 253
-0.004635 -0.191910 0.019692 253 253 252
-0.034202 -0.215282 -0.000646 253 254 254
0.069190 -0.085359 0.027988 251 251 252
-0.076124 -0.227672 -0.007966 104 149 232
-0.055080 -0.256882 0.020057 253 254 253
0.060199 -0.115736 0.045140 254 253 254
0.249503 -0.026258 0.038001 255 255 253
-0.097878 -0.127096 -0.076313 107 135 187
0.064166 -0.102270 0.058727 254 253 254
0.015667 -0.149784 0.007811 254 253 253
0.234205 -0.026293 0.020865 252 255 253
-0.095268 -0.132402 0.021505 104 148 233
-0.074374 0.276305 -0.025015 254 253 253
0.097989 -0.065615 0.026988 255 253 252
0.027622 -0.155055 0.024278 253 254 254
-0.079664 0.022507 -0.016232 104 151 235
-0.081958 0.235694 0.042278 103 138 202
-0.099265 -0.140269 0.015397 105 150 235
0.129579 -0.004638 0.052161 255 255 255
-0.073625 -0.274871 -0.027999 254 254 254
0.009543 -0.158872 0.023163 253 253 254
-0.081773 0.236597 0.015724 102 148 234
-0.075142 0.163109 0.024460 137 139 146
-0.083225 0.080553 -0.070272 103 140 210
-0.100371 0.275458 -0.023498 103 149 235
-0.047936 0.253374 0.006732 252 252 253
-0.099833 -0.218444 0.001480 102 148 232
-0.100613 0.210428 -0.019042 102 143 217
-0.096837 -0.238831 -0.044895 104 149 234
0.036694 -0.145463 -0.017419 255 255 254
-0.102260 0.114393 0.038100 104 145 220
0.020101 -0.145549 0.048939 253 251 253
-0.103670 -0.151665 -0.015435 102 149 235
-0.004356 -0.192786 0.036027 253 254 255
-0.006791 0.216302 -0.036419 254 254 255
0.037998 -0.140770 0.053521 254 254 253
-0.098739 0.070517 -0.016461 104 147 226
-0.100945 0.125952 -0.036914 102 149 233
-0.019590 -0.195930 0.012473 253 253 254
-0.059457 -0.259504 0.013368 254 253 254
-0.106433 -0.229771 -0.076620 103 148 233
-0.087094 -0.260667 0.033893 101 135 195
0.005578 -0.178207 -0.028043 254 255 254
-0.054661 -0.234936 0.009959 255 255 253
-0.079533 0.174415 -0.009042 103 147 227
-0.000207 -0.187481 0.032609 255 253 253
-0.037034 0.230554 -0.028268 253 254 255
0.018701 0.174523 -0.013303 253 253 254
-0.009952 0.201032 0.059123 253 253 253
-0.100444 -0.202038 -0.033113 102 144 216
-0.097481 -0.070704 -0.059933 104 150 234
-0.100994 -0.149091 -0.040382 104 144 216
0.119158 -0.041430 0.019342 255 254 254
-0.082404 0.066863 -0.008372 104 149 235
-0.098657 0.171271 0.023651 102 147 231
0.070937 -0.081736 0.064149 254 255 253
0.181883 0.040254 0.010443 255 254 254
0.049895 -0.127454 0.061312 255 255 254
0.194435 0.071465 0.025233 253 253 253
-0.078209 -0.137179 0.042087 103 149 234
0.086288 -0.082789 0.025414 253 252 254
-0.081607 0.101328 0.040206 104 146 223
0.148771 0.056912 0.028691 254 254 253
-0.088847 -0.098946 0.044247 101 148 236
-0.057451 -0.239884 0.037621 254 254 255
0.032575 -0.147939 0.000506 252 254 253
-0.057696 0.265950 -0.006005 251 250 252
-0.078016 -0.242420 0.020866 103 143 219
-0.078405 -0.274409 -0.012067 107 141 203
0.098952 -0.049471 0.040020 254 255 252
-0.102712 -0.129470 -0.090862 103 148 234
0.146068 0.062082 0.014703 200 201 199
-0.049030 -0.248699 0.012188 252 254 253
-0.083850 -0.220179 -0.060996 104 151 234
0.159567 0.024112 0.045557 254 254 255
-0.076897 -0.234618 0.056504 102 141 213
0.008500 -0.185557 -0.024312 253 253 253
-0.079004 -0.124093 -0.035626 102 148 235
-0.084472 0.072183 0.044553 103 147 229
-0.088353 0.073525 0.040660 135 134 139
0.140043 0.001352 0.000205 254 254 252
-0.024582 0.230078 0.059530 253 254 253
0.162148 0.018791 0.011671 254 254 255
-0.018239 -0.213807 0.034728 254 253 254
-0.098030 -0.183106 -0.017874 101 148 230
-0.075965 -0.256316 0.043641 136 138 143
-0.096610 -0.266323 0.037724 105 149 233
-0.105927 0.222137 -0.047591 104 143 215
0.032084 0.181315 0.022901 254 255 254
-0.096171 -0.100428 -0.076802 103 146 225
0.153091 0.067392 0.046163 254 253 254
-0.039045 0.243409 0.033836 253 255 255
-0.076259 0.266967 0.029181 102 150 235
-0.002083 -0.175775 0.042186 254 255 255
-0.081956 0.201116 0.059770 103 143 219
-0.068001 -0.268298 -0.040368 253 253 253
-0.078328 -0.090686 -0.012301 102 139 208
-0.101354 0.072745 0.004785 103 149 233
0.061403 0.149543 0.060883 254 253 255
-0.014950 -0.210583 0.030046 254 254 254
0.146871 0.001066 0.055712 254 254 254
0.049838 0.149288 0.047715 255 254 255
0.081722 0.121525 -0.018940 252 254 255
0.101971 0.119219 0.053479 255 255 254
0.124224 -0.013104 0.022478 254 255 253
0.193474 0.029244 0.025332 255 253 253
-0.102693 -0.160385 -0.022680 131 138 146
-0.000104 -0.189402 0.051970 253 254 254
-0.043671 0.233458 0.039608 255 254 254
0.234809 -0.009761 0.013592 255 254 253
0.071450 0.147295 -0.002295 254 255 255
0.048732 -0.128933 0.051788 253 252 254
-0.046096 -0.242047 0.051929 255 255 255
-0.057074 0.262029 0.014416 253 253 254
-0.078015 -0.264876 -0.055041 102 149 234
-0.079852 0.156550 0.025666 101 145 226
0.007725 -0.178573 0.052097 255 253 253
-0.101360 0.253053 -0.066190 102 139 206
0.099775 0.116645 0.002676 255 254 253
-0.079422 0.185449 -0.003907 127 130 137
0.153394 0.054621 0.064183 254 255 255
0.280849 -0.057184 0.037247 251 251 251
-0.097144 -0.142858 0.038361 102 140 210
-0.043252 -0.221550 0.039192 254 253 254
-0.101461 0.176135 -0.037657 128 132 137
-0.054767 -0.235764 0.018004 255 254 253
-0.081098 -0.196594 -0.043293 102 150 235
-0.078293 -0.271696 -0.021139 255 253 254
-0.080214 0.145171 -0.061627 101 147 229
-0.049584 0.255689 0.009379 255 253 254
-0.077658 -0.041616 -0.022630 104 150 235
0.134840 0.080286 0.063810 254 253 253
-0.085024 0.039740 -0.039991 103 149 235
0.058217 0.155847 0.059210 255 255 253
-0.021375 0.213175 -0.029075 255 255 254
-0.079793 0.266814 -0.020945 135 137 145
-0.074475 -0.274420 0.011812 255 253 254
0.040375 0.156678 -0.015070 252 252 255
-0.100935 0.167619 -0.001951 104 149 235
-0.078869 0.147576 0.001480 102 149 235
-0.104405 -0.049183 -0.007429 132 134 140
-0.101423 -0.108928 -0.057897 104 150 234
0.123785 -0.022973 -0.004722 253 252 252
-0.081068 -0.083169 0.003413 102 146 225
0.039452 -0.140206 -0.015791 253 254 253
0.063316 -0.115075 -0.005467 252 254 252
0.032599 -0.147550 0.048680 255 254 253
-0.042774 -0.243853 -0.006801 253 255 253
-0.100613 0.256660 -0.016524 103 150 235
0.052295 0.162625 -0.001824 254 253 254
0.147624 0.065277 0.013598 254 253 253
-0.093326 0.277939 -0.017486 103 144 221
-0.101921 0.083369 -0.020287 102 150 233
0.161227 0.014034 0.000058 253 253 254
0.150306 0.052187 0.051799 255 255 254
-0.079537 -0.223485 0.059251 103 142 215
-0.099297 -0.100766 -0.050294 101 147 227
-0.096155 -0.278269 -0.035603 126 130 136
-0.079048 0.234249 -0.003907 101 149 235
-0.078389 0.168831 0.021941 104 147 228
0.206934 -0.001998 0.004877 255 253 253
0.015128 -0.170062 0.023237 253 254 254
0.119036 -0.015071 0.040280 254 255 254
-0.081218 0.200026 0.051684 103 150 236
0.109987 0.092030 -0.013270 252 253 253
-0.074945 -0.276676 0.019343 254 255 254
0.084939 -0.083144 0.031936 254 254 255
-0.101756 0.134906 0.022615 103 138 202
0.123534 -0.013685 0.010576 253 255 255
-0.097746 -0.214915 -0.038735 103 150 232
0.129886 -0.018381 -0.001854 253 253 252
0.111920 -0.052758 0.000237 253 254 254
-0.081032 0.231370 0.035203 103 148 235
-0.081567 -0.202720 -0.071002 102 150 235
0.025926 -0.141952 -0.018631 252 253 253
-0.079069 -0.238764 -0.044157 104 148 234
-0.040366 -0.217930 0.038306 255 254 253
-0.101985 0.177287 -0.075280 105 150 232
0.032917 0.180020 0.018843 254 253 254
-0.098812 -0.094749 -0.001761 104 150 233
-0.099665 -0.270073 -0.007987 105 150 229
0.015319 0.178974 0.054721 254 254 254
-0.077952 -0.230642 0.049855 104 149 234
-0.096659 0.186218 0.007761 102 149 232
-0.099565 -0.194917 -0.065671 104 149 234
-0.076638 -0.065116 0.036067 134 135 139
-0.024764 -0.212294 -0.033394 255 254 254
0.100356 0.102452 0.031007 255 254 255
-0.086822 -0.260899 -0.061649 103 147 233
-0.098009 -0.066014 0.001607 103 149 233
-0.090305 0.205404 0.060760 101 150 233
-0.037063 0.240353 0.003137 254 254 253
0.011345 -0.155105 0.041239 253 255 255
-0.086547 0.247752 0.053087 104 149 235
0.013186 0.196739 0.028213 246 244 249
-0.106512 -0.189405 0.041353 104 146 227
-0.056015 -0.236452 0.054749 253 255 255
-0.083454 -0.272811 -0.044712 105 151 233
-0.099340 -0.070494 -0.019093 104 150 235
0.219168 0.102279 0.039901 255 255 255
-0.098381 -0.274733 -0.017543 102 149 234
-0.081969 0.247020 -0.000269 102 144 224
-0.083121 0.110864 -0.055182 105 150 234
-0.031007 -0.207270 0.031285 254 255 254
-0.098934 0.213643 -0.061804 103 149 232
0.046973 0.165427 0.035561 194 195 198
-0.102657 0.116333 0.024239 103 147 225
-0.081938 -0.025346 0.011892 128 130 138
0.243394 -0.034420 0.015706 251 253 252
-0.012611 -0.205266 0.020405 254 254 254
-0.101296 0.077476 0.023661 105 147 223
-0.016267 -0.206562 -0.032178 253 254 253
-0.016848 -0.209648 -0.000998 252 253 252
-0.094973 0.247081 0.036881 134 132 139
0.050419 -0.125802 0.039522 254 254 255
0.033348 -0.149623 -0.017504 254 254 254
-0.099364 0.250159 -0.059360 132 130 138
-0.064818 0.269270 -0.027102 253 252 253
-0.037418 -0.233937 0.058133 255 253 253
-0.098327 0.090456 0.031083 102 149 231
-0.080542 0.273490 -0.018375 101 148 235
-0.078758 -0.204754 -0.064624 103 146 225
0.099422 0.100162 0.018674 253 255 254
-0.076589 -0.269048 0.065249 253 254 254
-0.080343 0.210803 -0.023962 127 129 134
-0.093275 0.194345 0.057798 102 149 233
0.009532 -0.161558 0.010503 252 254 253
-0.078208 -0.271037 0.013587 103 147 227
-0.083748 0.217030 -0.082095 129 134 139
-0.075752 -0.131458 -0.084367 102 149 234
0.174463 0.045009 0.011813 255 254 255
0.187115 0.062658 0.031433 253 252 253
-0.025476 0.233640 -0.039149 254 253 254
-0.089525 0.182605 -0.009543 103 146 222
0.073021 0.125656 -0.008646 253 254 253
-0.099463 -0.219147 -0.069382 102 141 212
0.039343 0.157362 0.010113 254 254 253
-0.072841 -0.175926 -0.006445 102 138 202
-0.080970 0.134395 0.016888 104 148 230
-0.074074 0.161711 0.053298 132 128 134
0.050689 -0.113249 0.016650 253 254 254
-0.072089 -0.270765 0.042427 254 254 252
-0.081256 0.037024 -0.023703 102 149 234
-0.101151 0.074774 -0.011464 104 148 227
-0.081716 0.141900 -0.063202 103 141 211
-0.081184 0.055122 -0.058945 102 149 234
-0.083965 0.173061 0.016463 102 148 233
0.006896 0.183724 0.001644 255 255 254
0.228947 0.093520 0.044696 254 253 254
