ply
format ascii 1.0
element vertex 1179
property float x
property float y
property float z
property uchar red
property uchar green
property uchar blue
end_header
-0.106969 0.215304 0.053915 102 150 237
-0.097562 0.066736 0.040164 102 149 235
-0.082211 0.132576 0.043584 102 150 236
-0.084135 0.072032 0.038581 101 149 237
-0.068442 0.269524 0.022575 255 254 255
-0.103870 0.279453 -0.039301 101 149 237
-0.071824 0.268170 0.013657 255 255 253
-0.113254 0.091840 0.023825 101 149 235
0.277531 -0.073057 0.039641 255 255 254
-0.100847 0.157106 -0.075422 102 149 235
-0.040563 0.240699 0.000349 255 255 253
-0.103044 0.170829 -0.009983 103 151 237
0.168754 0.033279 0.059531 255 255 255
0.112289 -0.014998 0.023249 254 254 254
-0.000127 0.200753 0.022444 255 255 255
-0.080314 -0.161733 0.017539 102 149 236
-0.111705 0.038226 -0.078057 102 149 237
-0.088744 0.114774 -0.092683 101 149 238
-0.060633 0.263007 0.025687 253 255 255
0.071386 -0.090797 0.021068 253 254 253
0.216714 0.003987 0.059938 254 254 254
0.061000 0.144496 -0.018625 254 253 255
-0.107519 0.030281 -0.035765 103 150 237
-0.088980 -0.180744 0.015508 100 149 237
-0.101925 0.095454 0.004959 100 150 237
-0.038108 -0.208241 -0.026199 253 254 255
-0.084168 -0.128952 0.025955 134 136 141
-0.089283 -0.064788 0.004361 102 149 236
-0.107265 0.250219 -0.017822 102 150 238
0.092488 -0.042813 -0.000812 255 255 255
-0.061256 -0.236270 0.050016 254 255 253
-0.003837 0.205475 0.062132 255 255 254
-0.106256 0.089439 -0.016753 101 150 236
0.003708 -0.180637 -0.005400 255 255 253
-0.089128 -0.171115 -0.075624 100 149 234
-0.111689 -0.112259 -0.087619 101 148 235
-0.111075 0.167270 -0.006286 102 150 236
-0.083750 0.133616 -0.082613 140 132 139
-0.106539 -0.078437 0.000654 102 149 235
-0.079309 0.240063 -0.023111 102 150 237
-0.086087 0.052611 -0.055641 101 149 236
0.000504 -0.177998 0.046532 255 254 254
0.138169 0.003294 -0.003847 254 255 255
-0.104860 0.146056 -0.038183 103 149 235
-0.101557 -0.136572 0.020407 102 150 237
-0.089879 0.161314 -0.067827 102 150 237
-0.013758 -0.180261 0.039419 255 255 255
-0.089863 0.241328 -0.060075 103 149 236
-0.109440 0.128489 -0.044150 103 151 236
-0.089612 -0.037372 -0.025409 102 149 238
0.189800 0.022694 -0.002979 254 255 255
-0.057326 0.254838 0.056225 220 218 220
-0.042809 -0.232649 0.036123 255 254 255
-0.099367 0.010198 0.013637 102 149 237
-0.093529 -0.267531 -0.069531 103 150 236
0.106050 0.114422 0.017663 254 255 255
0.246415 -0.029597 0.009554 254 254 254
0.036113 0.168323 -0.017119 255 253 254
0.119582 -0.027735 0.023373 255 255 254
-0.092944 -0.282539 -0.037621 101 148 234
-0.084091 0.236156 -0.075987 101 150 238
-0.088347 -0.075401 -0.022369 103 150 238
-0.109815 0.156229 -0.079815 103 149 236
-0.089062 -0.248913 -0.011728 102 147 232
-0.102477 0.029245 0.008313 102 149 235
-0.039335 -0.230075 -0.026835 254 255 255
-0.090596 0.052603 -0.092172 100 149 237
-0.111838 0.092744 -0.082276 103 150 237
-0.106464 0.074796 -0.036266 100 150 236
0.207801 0.009489 0.036174 254 255 254
-0.083989 0.136134 0.040292 101 149 237
0.117057 -0.027060 -0.005930 255 253 255
0.126005 0.085860 0.040571 254 255 255
0.110714 -0.017626 0.047970 254 255 254
-0.091490 -0.112872 -0.019157 102 148 233
-0.098275 0.068168 0.037855 103 150 236
0.096008 0.113384 0.050902 254 255 254
0.153115 0.050513 0.040783 255 255 254
-0.001543 0.194318 -0.033836 254 255 254
0.012293 -0.167892 -0.018743 255 255 255
0.122644 -0.023301 -0.003526 255 255 254
-0.087105 0.045179 -0.063211 101 149 237
-0.096424 -0.088501 -0.091245 136 137 143
-0.088687 -0.111895 0.031537 101 149 236
-0.074300 -0.255691 -0.008008 254 254 255
-0.086209 -0.159416 0.000330 103 151 235
0.015150 -0.165026 0.020466 254 254 254
-0.108627 -0.172528 0.052549 101 149 237
-0.086052 -0.040532 -0.014908 102 149 237
-0.072069 0.262395 -0.039692 254 255 254
-0.015216 -0.182707 0.023431 254 254 255
-0.080632 -0.274230 -0.005588 254 254 255
-0.081799 -0.078426 0.029213 102 149 236
-0.084038 -0.134673 -0.070566 102 149 238
-0.106848 0.057604 -0.057777 100 150 236
-0.088769 -0.101104 -0.039756 101 150 237
0.083644 -0.076745 0.009882 255 254 255
-0.085768 -0.123951 -0.076210 101 149 238
0.225303 0.114054 0.055086 254 253 255
-0.098666 -0.281515 0.018348 102 143 218
-0.084949 -0.283731 -0.017605 101 149 237
-0.091278 0.083882 0.042232 102 149 237
-0.004351 0.193739 -0.007609 255 255 255
-0.110700 0.105895 0.023656 103 149 237
0.210446 -0.007205 0.062134 254 254 255
-0.107152 -0.215348 -0.042143 103 149 236
0.007392 0.181939 0.037573 254 255 254
-0.008024 0.207950 -0.016352 254 255 254
0.006441 0.199839 0.009882 255 254 255
0.111198 -0.031490 -0.006249 253 255 254
-0.030753 0.231492 0.011181 255 255 255
0.075340 -0.064544 0.005302 203 204 202
0.028771 0.161287 -0.001196 253 255 253
-0.108451 0.175167 -0.040713 101 148 234
0.101603 -0.050837 0.040775 254 254 254
-0.014131 -0.198587 -0.014728 254 254 254
-0.105708 -0.202468 0.040526 101 149 237
0.102111 0.093799 0.040900 255 255 254
-0.109146 0.059501 -0.046744 101 148 234
-0.026305 -0.190427 0.025377 254 255 255
-0.109254 -0.204275 -0.001836 102 149 236
0.185232 0.022528 0.062562 254 255 255
-0.108463 0.182155 -0.008373 101 150 237
0.220898 0.001199 0.061558 255 255 254
0.225617 0.103580 0.038662 253 255 255
0.185900 0.070946 0.025044 255 255 255
0.091729 0.107167 0.001046 253 254 255
0.201158 0.089778 0.032568 255 254 255
-0.086874 -0.254917 -0.056467 125 135 144
-0.035581 -0.205313 -0.006348 255 255 255
0.131033 0.003748 0.037512 254 254 255
0.133236 0.000716 -0.002381 255 255 255
-0.088114 0.176146 0.025778 102 149 237
-0.001241 0.188976 -0.034574 255 254 255
-0.093383 0.068830 0.041944 103 150 236
-0.109669 -0.226138 -0.025773 102 150 236
0.009122 0.193482 0.019984 255 254 255
-0.086340 -0.171504 -0.029399 101 150 236
0.086084 0.107957 -0.004223 254 255 254
0.174342 0.040548 0.062511 254 255 255
-0.080239 -0.116169 -0.019709 103 150 236
-0.049691 0.248924 0.045118 253 254 254
-0.110080 -0.175991 -0.090274 101 148 237
-0.108837 0.209303 0.043079 101 147 233
0.012499 -0.170506 -0.012377 253 254 255
-0.028083 0.229691 0.060979 255 254 255
-0.111219 -0.061680 -0.081386 103 151 237
-0.107673 0.176542 -0.014452 101 149 237
0.193349 0.014236 -0.003627 255 255 254
0.153774 0.064609 0.046445 255 253 254
0.187668 0.026499 0.014907 255 255 253
-0.089712 -0.130911 0.014605 103 150 235
-0.099925 -0.064262 0.019199 102 150 236
-0.101270 0.169933 0.011403 101 148 236
-0.076174 -0.275165 0.016885 254 255 255
-0.078319 -0.259915 -0.033354 254 254 254
0.062829 -0.100259 0.049394 255 255 255
-0.001525 -0.182909 -0.002693 255 255 254
-0.088737 0.193348 0.043990 101 150 236
-0.105649 -0.194834 -0.021435 102 142 216
-0.070444 0.253860 0.017682 255 255 254
-0.096505 -0.109710 -0.098765 102 149 237
-0.092800 0.094076 -0.043918 101 148 236
0.020890 -0.136256 0.055448 254 255 255
-0.086167 0.178479 0.024021 102 150 237
-0.098634 0.253204 0.000608 102 150 236
0.274581 -0.067182 0.001434 254 254 255
-0.006754 -0.170558 -0.021253 253 254 254
0.134389 0.064571 0.061729 255 255 255
-0.068458 -0.264659 0.011640 255 255 254
0.155495 0.060829 0.023263 253 254 255
-0.082983 -0.262771 -0.014459 254 255 254
0.035144 0.170690 0.060951 253 255 255
-0.030424 -0.219627 -0.008553 254 255 254
-0.082555 0.061095 -0.017114 133 136 141
0.044020 -0.111972 -0.017987 254 255 255
0.004167 0.183192 0.054309 254 254 255
-0.097825 0.140210 -0.083707 100 141 216
-0.115938 -0.141707 0.009954 103 150 237
-0.082133 -0.143571 -0.000022 100 150 237
0.260913 -0.035735 0.052695 255 255 255
-0.028175 -0.196334 0.014838 254 255 255
-0.107089 0.078695 -0.001180 102 149 237
0.067790 -0.087129 -0.016663 254 254 253
0.094100 -0.060436 0.062070 255 255 255
-0.109803 -0.279275 -0.030784 103 148 233
-0.079905 0.277477 -0.018287 255 255 254
0.091745 -0.050914 0.064183 216 214 217
0.293642 -0.085204 0.047490 253 255 253
-0.040442 0.221619 0.050423 254 255 255
0.218507 -0.019298 0.010191 255 254 255
0.070359 0.131159 -0.018579 253 254 255
-0.088343 -0.248333 -0.056241 103 150 237
0.190250 0.009395 0.027458 254 254 254
0.077219 -0.086989 0.017141 255 255 254
-0.018416 0.204111 0.032425 254 255 254
0.075016 -0.089491 -0.011788 254 255 254
-0.050685 0.228575 -0.033056 254 255 254
-0.086977 0.123287 -0.038551 103 148 232
0.162942 0.035113 0.033820 255 254 253
-0.051757 -0.246688 -0.026427 254 255 253
0.136044 0.065423 -0.009119 253 254 253
-0.100300 0.073347 0.025256 102 149 237
-0.113110 -0.202684 -0.071980 101 150 238
0.043685 0.149649 0.038654 255 255 255
0.003221 -0.157326 0.058556 255 255 254
-0.102011 0.138907 0.014537 102 150 237
-0.051697 -0.243536 -0.002768 254 255 255
-0.064706 0.247101 0.063719 254 255 255
0.131463 -0.017684 0.000335 255 255 254
0.120106 -0.005990 0.031360 254 255 255
0.024707 -0.133859 -0.006508 254 254 255
0.196498 0.072699 0.063497 254 254 255
-0.088268 -0.206959 0.015886 101 150 236
-0.031493 0.217378 0.004255 255 254 255
-0.078683 -0.276916 -0.001227 254 254 253
-0.079602 -0.259109 -0.028873 255 254 255
-0.105175 0.239527 -0.043096 131 134 141
-0.102867 -0.097469 -0.050052 100 148 238
-0.020868 -0.186834 0.054778 253 253 255
-0.036317 -0.209616 0.060395 255 254 255
0.168860 0.041339 0.059333 255 255 255
-0.084299 0.183089 0.017198 102 149 236
-0.103215 0.096024 -0.004754 102 150 233
0.283222 -0.082599 0.034160 255 255 254
-0.089639 -0.095573 -0.030914 102 149 236
0.034474 0.169002 -0.009543 255 255 254
0.024558 0.168800 0.061754 254 255 255
-0.011534 -0.176474 0.037606 255 255 255
-0.082488 -0.164159 0.014093 101 149 236
-0.086348 -0.039876 -0.039826 102 149 237
0.115737 -0.027766 -0.006028 254 255 255
0.100120 0.089999 0.027908 254 255 255
0.036773 -0.118973 -0.008700 254 255 253
-0.082867 -0.079459 -0.076346 102 151 236
-0.094950 0.048743 -0.090540 101 150 237
0.024092 -0.134147 0.049892 255 255 255
-0.106964 -0.182225 -0.039449 103 149 236
-0.088754 -0.130988 0.007284 102 149 237
0.035284 -0.133693 0.066609 254 254 253
0.126597 0.067972 0.031482 254 255 254
0.087514 0.107404 0.002156 255 255 255
-0.083561 -0.041669 -0.030445 103 149 236
-0.019561 0.204980 -0.012864 254 255 254
-0.091862 -0.210907 0.010005 100 149 237
-0.108269 -0.159787 0.002447 101 149 237
0.049398 -0.124727 -0.009572 253 254 253
-0.082086 -0.265824 0.006826 254 254 255
0.012348 -0.168445 -0.023135 253 253 254
0.029053 -0.143761 0.025306 254 255 255
0.113594 -0.012302 0.004058 254 255 255
0.194371 0.080904 0.031171 255 254 255
-0.087221 -0.273095 0.057773 255 255 253
-0.102882 -0.097079 -0.000980 102 149 235
0.152412 0.016383 0.026066 255 254 255
-0.100631 0.065446 0.024355 101 149 237
-0.085813 0.266175 0.021000 254 255 254
0.032858 -0.123205 -0.003617 254 254 254
-0.061317 0.244910 0.060938 254 255 254
-0.093810 0.089504 -0.092565 101 150 237
0.037211 -0.111964 0.035213 255 255 255
-0.086022 0.205110 0.050347 103 149 234
0.275254 -0.059058 0.034723 253 254 254
0.012119 0.173949 -0.008141 255 255 255
0.013498 -0.162706 -0.002226 254 255 253
-0.089061 -0.232358 0.061255 102 151 236
-0.080304 -0.109506 -0.026385 101 150 237
-0.106339 -0.156769 0.012236 102 150 235
-0.081187 -0.265826 0.015386 254 255 254
0.193427 0.024925 0.040773 253 254 255
-0.009959 0.211972 0.034317 255 254 255
0.147158 0.032596 0.016189 255 255 255
0.100420 -0.028340 0.017793 255 255 255
-0.001260 0.203643 -0.000661 254 255 255
0.102100 -0.029190 0.020827 255 255 254
-0.106244 -0.179447 -0.058564 103 151 236
-0.091269 0.205875 0.027917 101 149 237
-0.081167 0.141832 -0.027435 101 148 236
-0.088760 -0.045334 -0.001997 100 149 236
-0.010777 -0.194146 0.043657 255 255 254
-0.092673 -0.263668 -0.069243 100 149 238
-0.106365 0.172064 -0.035780 102 150 237
0.052591 0.138897 -0.002608 255 254 255
-0.102002 0.239010 0.029800 103 149 236
0.146392 0.034289 0.011176 254 254 255
0.019683 0.166043 -0.023997 255 255 254
-0.009766 -0.187351 0.060906 255 254 254
0.017149 -0.160251 -0.006762 209 214 216
-0.108272 0.136001 -0.038437 103 150 236
0.022778 0.166640 -0.005473 254 255 253
-0.114341 -0.058898 0.003699 101 149 237
-0.106742 0.145777 -0.035355 102 149 234
0.073767 0.118018 0.037720 253 254 255
0.249711 -0.039553 0.059738 253 255 254
-0.102095 0.065470 -0.081988 102 149 234
-0.104149 -0.106296 -0.008231 102 150 236
-0.107794 0.224743 -0.013537 103 150 236
-0.086976 0.279839 0.002763 102 148 236
-0.025949 0.211250 -0.011352 254 255 255
-0.068732 0.255573 -0.020858 254 254 254
-0.092817 -0.185273 -0.029948 102 150 238
0.131231 -0.009707 0.026113 255 254 255
-0.082348 -0.265803 -0.017486 101 149 236
0.237694 -0.036832 0.008732 254 255 255
-0.101289 -0.071089 -0.088834 103 149 238
0.143537 0.009796 0.048774 255 254 254
0.016631 0.188868 -0.014216 255 255 255
0.114729 0.089503 -0.013798 254 255 255
-0.106847 0.039831 -0.001914 101 150 236
-0.114820 -0.249059 -0.013341 102 150 236
-0.097541 0.275320 -0.040954 103 150 236
-0.084379 0.155652 -0.086931 100 144 223
-0.108831 -0.118557 0.028212 101 150 238
-0.085417 -0.042682 0.015055 134 139 145
-0.088818 -0.274834 0.018637 255 255 254
-0.047754 -0.235653 0.047634 254 254 254
0.145732 0.067896 0.046928 255 254 254
-0.057887 0.260742 -0.030140 255 255 254
0.129951 0.014394 0.001605 254 253 254
0.037230 0.163595 -0.027601 253 255 255
-0.060881 -0.236110 0.031037 254 254 255
0.050375 -0.099150 0.027863 255 254 254
0.070215 -0.075800 0.065198 255 255 255
-0.101183 -0.239522 0.033882 101 149 233
0.251164 -0.035186 0.021216 255 255 255
-0.113638 0.032667 -0.030321 133 135 144
-0.005129 -0.166661 0.035566 254 254 255
0.190720 0.069394 0.064296 253 255 255
0.048291 -0.099867 0.036786 254 254 255
0.102286 -0.052866 0.022289 255 255 255
0.202318 0.016232 0.050856 255 255 255
0.224611 -0.023618 0.051897 255 253 255
0.079190 -0.082486 -0.006712 255 253 255
0.082918 0.116870 -0.019137 254 254 254
-0.094538 0.211617 -0.082324 101 149 237
-0.099323 -0.058357 0.033510 101 148 236
-0.016903 -0.183397 -0.021158 254 254 253
-0.071131 0.251111 0.050461 255 255 255
-0.076615 0.275229 0.056093 254 255 255
-0.096233 0.024078 -0.062833 103 150 236
0.271648 -0.064427 0.001589 255 253 253
0.047232 -0.121654 0.022340 255 255 255
0.192879 0.060332 0.031951 255 255 255
0.097099 0.112960 0.010198 254 255 254
-0.084132 -0.215146 -0.029367 101 147 233
-0.027063 0.208903 0.052911 255 254 255
-0.088827 -0.103276 0.025067 100 148 235
-0.107374 0.160394 -0.085492 102 149 237
-0.083080 -0.217791 -0.014232 101 149 236
0.113130 -0.010593 0.061530 255 255 254
-0.090214 -0.126111 -0.068004 101 150 237
-0.095289 0.272491 0.032091 100 149 237
-0.081392 0.274261 -0.017516 102 146 227
0.038435 0.167299 -0.003307 255 254 254
0.062069 -0.103155 0.037319 255 255 255
0.162929 0.026800 0.015753 255 254 255
-0.090492 0.195036 -0.022959 101 149 237
-0.083468 -0.207952 -0.040663 100 147 233
-0.088186 0.181905 -0.052977 137 134 141
-0.070255 -0.264332 0.039890 254 255 253
-0.033250 0.220247 0.036856 255 255 255
-0.108508 0.191830 0.050052 101 148 233
-0.103776 -0.203864 0.041686 101 150 235
-0.017593 0.206643 -0.002457 254 254 255
0.117731 -0.029870 0.009880 255 255 254
-0.104347 0.204088 -0.007678 130 136 143
0.191239 0.031968 0.048786 254 254 254
0.193902 0.090162 0.040878 253 253 255
0.027204 0.167706 -0.027672 254 255 255
-0.106493 0.229951 0.041474 101 149 237
0.083377 0.126011 0.044185 254 255 255
-0.087972 0.030201 0.025449 101 148 237
-0.109786 -0.282841 0.014028 102 150 237
-0.106036 -0.129375 -0.022524 102 149 237
-0.107883 0.116134 0.045895 102 150 236
-0.095972 0.134268 -0.064917 103 150 238
-0.093062 -0.086887 -0.072014 102 150 236
-0.056620 -0.251053 -0.020461 254 255 254
-0.084683 0.070219 -0.037021 101 145 227
-0.082354 -0.218260 0.023680 102 150 235
0.038914 -0.116448 0.012335 255 255 254
-0.060947 0.250311 0.012970 255 255 254
-0.084872 -0.268132 0.008443 253 254 253
-0.082057 0.264077 0.056655 254 255 254
0.111860 0.104308 0.031050 255 254 255
0.068862 0.138842 0.026185 254 255 254
0.210090 -0.010547 0.009339 255 255 255
0.123047 0.076940 0.058285 254 255 254
-0.092084 0.085947 -0.063080 102 150 236
0.019811 0.186491 -0.016495 254 254 254
0.072070 -0.088780 0.067272 253 255 255
-0.097824 0.281787 0.011260 137 138 145
0.094226 -0.062335 -0.001536 253 254 255
-0.101363 0.018210 -0.024222 100 148 235
-0.091415 -0.140788 0.031237 101 148 237
-0.023571 -0.208317 -0.010676 254 254 254
-0.109541 0.039660 0.033759 101 148 235
-0.030738 -0.214849 -0.005994 254 255 255
-0.112923 0.140533 -0.064148 102 151 237
-0.104202 0.065798 -0.076517 102 149 236
-0.037992 0.235931 -0.035441 254 254 255
-0.084111 0.124012 -0.026388 102 150 237
0.228245 -0.023036 0.053688 255 254 255
0.123275 -0.021984 -0.000608 255 255 255
-0.102130 0.141314 -0.058294 100 149 237
-0.089477 -0.068575 0.005312 103 151 237
0.054853 0.145525 0.061287 255 255 254
-0.097039 0.012052 0.026662 101 150 237
0.000616 0.200036 0.022865 255 255 255
-0.112873 0.263673 -0.055673 102 150 236
0.228677 -0.015486 0.031643 255 255 254
0.221609 0.108843 0.061461 253 255 255
0.251190 -0.037215 0.031103 255 255 254
0.196806 0.070287 0.009925 253 254 255
0.034654 -0.140666 -0.015140 253 254 253
-0.109952 -0.213396 0.051461 103 150 237
0.123161 -0.015231 -0.000551 255 255 254
-0.112782 -0.132778 -0.022350 103 150 236
-0.078466 0.181251 -0.021307 103 150 236
-0.087847 0.098509 -0.096580 100 149 236
0.020228 0.169801 0.002741 253 255 254
-0.085889 -0.239327 -0.038465 102 149 234
0.011243 0.193428 -0.024155 255 255 254
-0.083599 0.012342 -0.000459 101 150 235
-0.028749 -0.199744 0.000411 254 254 255
0.091024 -0.051809 -0.009710 253 253 254
0.117534 0.084425 -0.001884 253 254 254
-0.007885 -0.191384 -0.021425 201 204 206
0.020533 -0.153923 0.059189 254 255 255
-0.051187 0.234673 -0.007726 255 254 254
-0.091135 -0.110737 0.042793 103 150 236
-0.088796 0.103767 -0.079263 100 148 236
-0.088067 0.144998 0.033090 102 150 237
0.209851 0.089590 0.035743 254 254 255
0.271839 -0.052633 0.049803 254 253 253
0.057505 0.149752 0.017906 255 255 255
-0.089543 -0.106583 0.028494 100 149 236
-0.086419 0.176292 -0.007034 103 150 235
0.181210 0.037355 0.032887 253 253 254
-0.090313 -0.270650 -0.006442 255 255 255
-0.104948 0.083661 -0.052050 101 149 237
-0.035798 0.225100 0.060531 255 255 255
0.122418 0.000006 0.015963 255 255 255
-0.115981 0.151860 -0.020260 101 149 234
-0.090705 -0.180509 -0.075934 101 149 237
0.029614 0.161880 0.050612 255 253 255
-0.018409 0.218799 -0.041069 255 255 254
-0.023404 -0.193571 0.025720 255 255 255
-0.100527 0.189820 -0.066760 103 150 236
-0.109881 -0.244238 0.001403 103 150 236
-0.089869 -0.191773 0.058768 102 150 235
0.094363 -0.039701 0.015106 254 255 255
-0.079095 0.275244 -0.024350 255 255 255
-0.077109 0.276706 -0.023347 255 255 254
0.233515 -0.035359 0.008056 254 254 255
-0.089474 -0.242865 -0.012246 102 148 233
-0.085067 -0.157257 -0.074987 102 150 238
0.031885 0.169472 0.064181 255 255 255
-0.088174 -0.067305 -0.075488 103 149 236
0.023259 -0.136693 -0.009180 254 254 254
-0.106489 0.076082 0.024548 101 149 237
-0.091287 0.107426 0.036459 101 148 234
0.048483 0.162182 0.014967 255 255 255
-0.111916 0.015763 -0.007512 103 147 231
0.031264 0.157101 -0.015648 254 254 255
-0.106930 -0.283575 -0.004690 101 150 235
-0.086511 0.106989 -0.091680 102 150 235
-0.086471 0.218984 0.005759 138 137 144
-0.045140 -0.236381 -0.032874 254 254 253
0.191954 0.008929 0.022480 255 254 254
-0.083722 0.066294 -0.044674 103 149 237
-0.107630 0.041549 -0.077705 103 150 237
0.111490 -0.035126 0.044598 254 255 254
-0.088866 -0.230247 0.054322 101 150 236
-0.109971 0.162936 -0.050211 102 149 237
0.105245 -0.050633 0.020999 253 255 254
-0.034761 0.235508 0.035613 254 255 255
0.160380 0.062580 0.043971 255 253 255
-0.029661 0.212597 0.061788 255 254 254
-0.086546 0.275492 0.023200 131 142 156
-0.099272 -0.264772 0.002119 136 136 143
-0.080275 -0.118265 0.006461 106 140 196
-0.110812 0.197841 0.013147 102 149 236
-0.084190 -0.277632 0.037266 255 253 254
-0.087283 -0.269297 0.034100 253 253 253
0.001539 -0.183556 -0.026245 254 253 253
-0.092450 0.090315 -0.039255 101 150 237
0.234795 -0.019456 0.015494 254 254 254
-0.102502 0.214044 0.010550 103 150 236
-0.092187 0.172198 -0.034599 100 149 236
-0.091686 0.044361 -0.004259 102 150 237
0.139363 0.057018 -0.002907 254 254 255
-0.037973 -0.209790 0.008534 255 253 255
-0.086981 0.262986 0.015052 101 149 236
-0.081813 0.175170 0.012707 102 150 237
0.102835 0.097809 0.062957 254 255 254
-0.004499 0.202965 0.061246 255 253 254
-0.027460 -0.190213 0.027916 255 253 253
0.230779 -0.034068 0.041179 253 254 254
0.093874 -0.037993 0.054175 254 255 254
-0.045909 -0.227639 0.059972 255 255 255
-0.101289 0.198031 -0.046521 101 149 236
0.106288 -0.045175 0.027931 255 255 253
-0.087911 0.256455 0.018271 102 149 236
0.192156 0.064354 0.061255 255 253 254
-0.076504 0.272446 0.054514 255 255 255
-0.096751 0.150181 0.050926 102 150 237
-0.088453 0.152709 -0.086712 100 149 236
-0.096117 0.277073 -0.014625 103 150 237
-0.083215 -0.229943 0.041699 101 150 237
0.161142 0.030073 0.039615 253 254 253
0.160768 0.032768 0.064236 255 254 255
-0.083088 -0.174562 -0.063838 101 148 235
0.243387 -0.028381 0.021908 254 254 254
-0.106332 -0.144190 -0.042281 103 151 236
-0.045337 0.233505 -0.020907 255 254 254
-0.104663 0.085654 0.033244 103 151 238
0.138059 0.003505 0.054505 255 255 254
-0.105948 -0.254243 -0.074122 101 147 233
0.003816 0.199053 0.033273 255 253 255
0.036781 0.169991 -0.011270 254 255 255
-0.083641 -0.264769 0.007268 100 149 237
-0.048985 -0.224898 0.010360 255 254 255
-0.087220 -0.266832 0.035771 103 150 237
0.014397 0.176488 0.013893 254 255 254
-0.093489 0.025959 0.032436 103 148 233
0.186447 0.068327 0.047182 255 254 255
-0.110224 -0.049835 -0.055180 102 149 236
-0.102411 0.087034 -0.037422 100 148 237
-0.030179 -0.197956 -0.010278 255 255 255
-0.047412 0.247260 0.008267 255 255 255
0.079469 0.114580 0.050534 253 255 253
-0.112579 0.236850 -0.037456 103 150 235
-0.104715 -0.106719 -0.064694 102 150 235
0.255721 -0.056652 0.039510 255 255 255
0.220499 0.111661 0.057186 254 254 254
0.216345 0.113928 0.039314 254 254 254
0.183584 0.060482 0.021542 255 255 254
-0.090557 0.140179 0.049950 101 149 234
-0.106766 -0.205491 -0.015017 102 149 237
0.094390 0.122304 -0.012136 253 255 253
-0.032459 0.220392 -0.005167 254 255 254
0.096272 0.101041 0.013538 254 254 254
0.191723 0.008742 0.020451 255 255 255
-0.100791 0.204613 -0.036899 102 150 238
-0.109682 -0.077120 -0.065395 101 150 237
-0.105953 0.261915 0.039444 101 143 221
-0.093583 0.064365 -0.029915 100 148 237
-0.103444 -0.172490 0.042990 102 150 237
0.232196 -0.023015 0.003998 255 255 255
-0.089482 0.009811 0.022852 102 150 236
-0.079597 -0.165460 -0.083254 101 146 229
-0.081987 0.120937 0.010079 129 132 139
-0.076193 0.273273 0.040421 254 254 255
-0.109529 0.130753 -0.058638 101 150 238
-0.114137 0.091636 -0.068501 101 149 236
-0.106807 0.269108 0.005155 101 149 235
-0.085437 -0.189527 0.002101 138 137 143
-0.068838 -0.247008 0.044683 254 254 255
-0.089695 0.059322 -0.025486 100 150 237
-0.114274 -0.208964 -0.068753 102 150 237
-0.105339 -0.120968 -0.059361 102 149 236
-0.085448 -0.127426 -0.069622 102 151 238
0.033877 -0.111038 0.010518 253 253 253
-0.029819 0.232680 -0.015601 255 255 255
0.024059 0.183345 0.054492 255 255 254
0.175663 0.050532 0.059858 253 253 255
-0.090856 0.016570 -0.050778 101 149 235
-0.097636 0.270205 0.026809 102 149 236
-0.106439 0.021789 -0.038978 102 149 237
-0.082846 0.131429 -0.072917 101 150 237
-0.082698 0.015093 0.013823 102 150 236
-0.084696 -0.241760 0.056387 103 149 236
0.043605 0.143110 0.017576 255 255 255
-0.089746 0.040230 -0.018016 103 148 236
-0.083443 -0.279165 0.010727 254 254 255
-0.088362 0.276700 0.016277 102 148 237
0.057309 0.146208 -0.006765 255 255 255
0.206782 0.084088 0.047349 254 255 255
-0.113752 0.059580 -0.003221 103 150 237
-0.089278 0.237344 -0.017190 101 149 237
-0.091012 0.264432 -0.036809 102 150 236
-0.100668 0.195752 -0.008777 100 148 237
-0.082333 0.129268 -0.061414 103 149 236
-0.108933 0.034022 0.030320 102 150 237
0.051865 -0.088140 0.056327 253 253 253
0.202746 0.011807 0.005396 255 255 254
0.200636 -0.004775 0.030937 255 255 253
-0.103116 -0.032758 0.011136 102 150 236
-0.105777 0.168497 -0.001186 103 151 235
0.078769 0.113006 -0.015269 253 255 255
0.234512 -0.029486 0.004270 254 254 255
-0.029748 -0.201125 -0.017256 254 254 254
-0.103890 -0.285814 0.006261 102 148 237
0.108039 -0.039445 0.031040 254 255 254
-0.085769 0.166141 0.031618 133 134 142
0.058587 0.137996 0.061499 254 254 254
0.085489 0.110081 0.005754 254 255 254
0.277205 -0.075596 0.026626 253 255 255
0.051443 0.157168 0.036245 255 255 254
-0.094244 0.257900 0.049402 102 149 237
0.063630 -0.097025 0.041263 254 255 255
-0.086124 -0.050320 -0.073055 102 149 236
-0.099318 -0.130717 0.028201 103 149 236
0.054654 -0.094636 -0.002325 254 254 254
0.014467 -0.154853 0.062888 253 255 254
-0.081632 0.261758 0.047361 254 254 254
0.066312 -0.077361 0.047244 255 254 254
0.011834 0.192887 0.054311 255 255 254
-0.093010 0.225221 0.005251 102 149 236
-0.088627 -0.091730 0.041748 104 148 226
0.251750 -0.052967 -0.000865 254 255 253
-0.108868 0.139436 -0.039736 103 150 236
-0.047310 0.246660 0.041267 254 254 255
-0.062598 0.257614 -0.020794 255 255 254
-0.103385 -0.173188 0.043229 103 151 237
-0.110544 0.142304 0.018507 104 149 237
0.155342 0.023777 0.012232 254 255 254
-0.112232 -0.185044 0.007654 101 150 238
-0.108750 0.036283 0.017902 101 150 236
0.098200 0.092327 -0.008148 254 255 255
0.273988 -0.066237 0.008811 254 253 255
0.146061 0.053333 0.007623 255 253 253
-0.002745 -0.173460 -0.025820 254 254 254
0.097020 0.100763 0.038192 255 253 255
-0.102183 0.067280 0.026352 102 151 237
0.241030 -0.025332 0.012801 255 255 255
-0.024475 -0.189774 0.061741 254 255 254
0.109549 -0.016485 0.004194 254 255 255
0.182669 0.033266 0.053914 255 255 254
-0.085122 0.266906 -0.014980 255 254 254
-0.087053 -0.269979 -0.012393 102 144 225
-0.089551 -0.064568 -0.040596 101 150 236
-0.101281 0.031860 0.006469 102 150 234
-0.045508 -0.213502 0.003206 255 254 254
-0.082865 -0.123933 -0.095271 102 148 238
-0.036352 -0.231636 0.018966 255 255 254
0.000860 0.199239 -0.033783 254 253 253
-0.092322 -0.172550 0.003385 102 150 237
0.204621 0.075587 0.033032 255 255 255
0.012711 -0.162258 0.019531 253 254 253
-0.094785 0.186167 0.049986 101 150 238
-0.089172 0.228806 -0.053159 102 149 238
-0.081663 0.028453 -0.000688 102 149 236
-0.103903 0.174721 0.041460 103 149 235
0.051166 -0.113184 0.021620 255 254 254
-0.105517 -0.257624 0.040658 101 150 238
-0.110809 -0.044845 -0.049310 102 150 238
-0.108722 0.207724 0.055411 101 149 234
-0.085031 0.115005 0.021266 102 149 237
-0.083821 -0.240060 0.027176 102 146 226
-0.086503 0.270249 -0.043005 101 150 237
0.110279 -0.037351 0.034658 255 255 255
-0.090348 0.034211 0.035296 101 150 238
-0.088951 0.133746 -0.027798 100 149 237
-0.090417 0.040629 -0.062887 103 150 236
0.067496 -0.084752 0.063510 254 254 253
-0.091074 -0.194161 -0.088078 101 148 237
0.201548 0.072795 0.042296 255 255 255
-0.085018 -0.145557 -0.002727 102 150 237
0.111245 -0.016999 0.021355 254 255 253
0.242005 -0.037221 0.058299 255 255 254
-0.086753 0.127901 -0.044096 102 150 238
0.043603 -0.123960 0.000378 255 253 255
0.156541 0.024339 0.019287 254 255 255
-0.068596 0.251848 -0.013990 255 255 255
-0.023810 -0.212461 0.038681 255 255 254
0.050384 -0.107840 0.064698 254 254 254
-0.091064 -0.185460 -0.017498 101 149 236
-0.104492 0.172797 -0.069031 101 149 234
-0.103642 -0.173777 -0.043000 101 150 237
-0.092727 -0.216173 -0.049620 102 150 234
-0.085938 -0.084168 0.012585 101 148 235
0.094939 -0.061702 0.012092 254 255 255
-0.101648 -0.145163 -0.023480 102 149 232
-0.085063 -0.211393 -0.012507 101 150 238
-0.110917 0.137311 -0.020714 100 146 227
0.193776 0.065466 0.035148 253 254 253
0.132032 0.012307 0.007232 254 254 255
-0.106747 0.017031 -0.027805 102 149 235
-0.112060 0.035448 0.031468 101 149 237
-0.049541 -0.242274 -0.005451 255 255 255
-0.106118 -0.038804 -0.000144 101 150 237
0.053549 0.139747 -0.020652 255 254 253
-0.001618 0.202396 0.004662 254 254 254
-0.110296 -0.216702 -0.002747 103 148 234
-0.033389 -0.217419 0.047283 254 255 255
-0.102791 0.137187 0.032640 102 149 236
-0.108071 0.130278 -0.016333 102 149 237
-0.087632 -0.262282 0.059297 254 253 254
-0.085683 -0.287159 -0.030817 103 148 236
-0.112570 -0.169943 -0.052055 125 142 166
-0.108990 -0.091151 0.013865 101 150 235
0.056716 0.135815 0.057126 254 254 255
-0.006265 -0.187505 0.050845 253 254 254
-0.112885 -0.167110 -0.055830 101 150 235
-0.041520 -0.229700 0.005969 255 255 254
-0.084360 -0.103576 -0.077697 101 149 236
0.032415 0.158967 0.034188 255 254 253
-0.090417 -0.103369 0.023301 102 150 236
-0.014736 -0.181760 -0.002714 254 254 254
-0.090353 -0.268075 0.013163 101 150 235
0.177234 0.046837 0.045531 254 254 254
0.152757 0.064018 0.008757 255 255 254
0.018259 -0.158520 0.037469 253 255 254
-0.088082 -0.055549 -0.018638 101 150 237
0.077221 -0.063296 0.012813 255 255 253
-0.106481 0.190128 0.013298 102 150 237
-0.084551 -0.057030 0.035207 101 150 236
0.129465 -0.009692 0.022691 255 254 254
0.050921 -0.096534 0.063817 255 254 255
-0.028961 0.227902 0.041698 253 254 255
0.182595 0.041679 0.055995 255 255 255
0.102601 -0.023251 0.056688 254 254 254
-0.085484 -0.039048 -0.051702 102 150 236
0.000821 -0.157030 0.023269 253 255 253
-0.109505 0.124893 -0.020159 103 148 235
0.249983 -0.047333 0.050679 255 255 254
0.045011 -0.123973 0.013969 255 255 254
-0.002221 -0.183863 0.007423 254 254 253
0.192322 0.064135 0.042762 253 255 253
-0.080884 0.166261 -0.028921 101 148 235
-0.110444 0.061459 0.026227 103 150 237
-0.103451 -0.171854 0.016874 102 148 236
0.146883 0.049497 0.017333 255 255 253
-0.040495 0.227837 -0.002111 255 255 255
0.146121 0.057598 0.039367 255 254 255
0.102933 0.107484 0.049595 254 255 254
-0.087314 0.131743 -0.068176 139 142 146
-0.066916 0.252111 -0.018393 254 255 255
0.037995 0.170705 0.036140 255 255 255
-0.081702 -0.200089 0.037465 103 151 237
0.084091 0.130858 0.022756 253 254 255
0.226734 0.105431 0.027757 255 253 253
-0.037868 0.238230 -0.000432 255 255 255
-0.111461 -0.086362 -0.011870 101 148 235
-0.084800 -0.152920 -0.082797 102 149 235
0.189825 0.060114 0.054268 254 254 255
0.042701 -0.124991 -0.019265 255 254 253
-0.090608 -0.255020 -0.019819 100 145 228
-0.092847 0.221854 -0.043180 101 149 237
0.138577 0.019349 0.043447 255 255 255
-0.108409 0.029473 0.031893 102 149 237
-0.085185 -0.112490 0.045102 103 150 233
0.219460 0.097779 0.025455 255 255 254
-0.008938 -0.173954 0.048080 254 254 253
-0.047009 -0.217414 0.034535 255 253 254
-0.052816 -0.230847 0.021825 254 254 255
-0.092063 0.124324 -0.060418 102 150 235
0.177673 0.030881 0.007259 254 253 253
0.055308 0.158138 0.061973 254 253 255
0.199665 0.073968 0.038667 255 255 255
0.120073 -0.029272 0.031317 253 254 254
0.069715 -0.073315 0.027366 255 255 253
0.017145 0.189681 0.025679 253 254 254
-0.091939 -0.211601 0.024213 103 148 234
-0.035708 -0.219475 0.029371 254 254 253
0.126028 0.076445 0.026904 255 254 255
-0.045972 -0.220816 0.029255 255 255 255
-0.085605 0.049316 0.036486 103 150 237
-0.087539 -0.111658 -0.097171 101 148 238
-0.082755 0.028312 -0.068613 103 149 237
-0.102660 0.144111 -0.085774 102 150 236
-0.088059 -0.244051 -0.030348 103 150 237
-0.082079 0.033982 -0.013229 103 150 236
-0.080469 0.274081 0.014367 254 254 254
0.032110 -0.131154 -0.017377 254 254 253
-0.056621 -0.232602 0.029387 254 253 254
-0.034066 -0.219806 0.041254 255 255 254
-0.111987 -0.113492 -0.030811 101 148 237
0.136064 -0.003362 0.023768 255 254 255
-0.084577 0.144472 -0.086268 103 149 235
-0.081395 -0.201374 -0.024002 132 139 147
0.134615 0.015068 0.052409 255 254 255
0.112049 0.099632 0.025568 255 255 255
-0.088986 0.069607 -0.077356 140 138 143
0.246092 -0.047808 0.046361 255 255 255
0.054901 0.151416 -0.007775 253 254 254
-0.082167 -0.072623 -0.086633 102 149 238
-0.087275 -0.057253 -0.028159 131 133 139
0.033993 -0.119226 0.051440 254 255 253
-0.092051 0.176651 -0.048227 101 148 236
0.200141 0.015180 0.003402 255 255 255
0.036961 0.157336 -0.028510 255 255 253
-0.088470 0.189603 -0.054547 100 150 236
-0.091363 0.188316 -0.043788 101 150 238
-0.079356 0.196857 0.003372 101 149 237
-0.084394 -0.248317 0.031678 138 139 147
-0.060642 -0.237987 -0.008944 254 254 254
-0.104856 0.065500 -0.056609 101 148 234
-0.084646 0.082601 0.020515 135 137 144
0.010425 0.192514 0.014749 255 255 254
-0.002910 -0.163351 0.017669 254 255 255
-0.087486 -0.263689 -0.022609 101 150 236
-0.107739 0.132062 -0.028938 101 149 235
-0.088921 -0.207158 0.049141 102 150 237
0.055225 -0.091583 0.027759 254 254 255
0.260284 -0.044190 -0.005729 253 254 255
-0.102238 -0.238386 -0.063013 103 149 236
-0.087325 -0.178550 0.050585 102 148 234
0.195758 0.083764 0.014816 255 255 255
0.068262 0.139502 0.020873 255 253 254
0.093194 -0.028292 0.053118 255 255 255
0.077518 -0.061819 0.027192 253 254 255
-0.084945 0.169062 0.045707 103 145 224
-0.038071 0.238303 0.052341 254 254 255
-0.078804 -0.262171 -0.019365 254 255 255
-0.042666 -0.216116 -0.022748 255 255 255
0.047606 0.139582 -0.027234 255 255 253
-0.105316 -0.278474 0.021369 100 149 235
0.220468 -0.017268 0.054956 253 254 255
0.009413 0.193277 0.017883 255 255 255
-0.090214 -0.285340 -0.014018 103 150 236
-0.107707 -0.076807 -0.055502 102 150 237
-0.082459 0.249686 -0.079752 102 149 238
-0.105400 0.155409 -0.084128 100 143 221
0.025304 -0.143819 -0.021292 255 254 253
0.038808 0.166914 0.038486 255 253 254
-0.085705 0.263511 -0.063022 103 149 236
0.029060 0.176865 0.040814 254 254 255
0.150710 0.020466 0.010038 255 254 254
-0.106368 -0.152374 -0.060551 103 148 238
0.113955 -0.007685 0.060492 255 254 255
0.156627 0.055916 0.063666 254 254 254
-0.100236 -0.200707 -0.023402 101 149 237
-0.080339 0.059275 -0.056759 101 149 238
-0.090809 0.086784 -0.000515 101 149 235
-0.088653 -0.192450 0.037209 102 150 238
-0.087329 -0.184147 0.055456 102 150 237
0.055572 -0.093004 0.011272 255 255 255
0.162855 0.033180 0.054560 255 254 255
0.131703 0.068544 0.001558 254 255 253
-0.104132 -0.107510 -0.071280 100 149 238
0.100326 -0.054752 0.032589 255 255 255
-0.041871 0.227747 0.060676 254 254 254
-0.020998 0.206035 0.058606 255 254 255
-0.064236 -0.250341 -0.033655 255 254 254
-0.100930 -0.105177 0.008862 102 148 234
0.182531 0.018439 0.006885 255 254 255
-0.055228 -0.249816 0.050125 255 254 254
0.005057 -0.183688 -0.014049 254 255 255
-0.055698 -0.251224 0.016537 255 254 255
-0.108489 0.110753 -0.061819 101 149 235
-0.110446 0.077174 -0.094213 102 149 237
-0.062773 -0.240808 0.022453 253 254 253
0.077668 -0.081912 0.011180 254 254 254
-0.084618 0.251425 -0.014018 101 149 237
0.087728 -0.042801 0.023192 253 255 254
-0.034313 0.219372 -0.041819 254 254 255
-0.032579 -0.200749 0.045298 255 255 255
-0.106199 0.280336 0.009911 106 142 204
-0.099530 -0.246361 0.057340 101 148 236
-0.082869 0.279705 0.002778 255 254 255
-0.110182 -0.162646 -0.063263 103 150 237
0.092969 0.104984 0.023399 255 255 255
-0.087014 -0.239838 0.008105 102 150 237
0.113644 -0.011717 -0.004904 254 254 253
0.081158 -0.086837 -0.008205 255 254 254
-0.104606 -0.240869 0.030761 102 148 234
0.060467 -0.085814 0.018501 255 255 255
0.039355 -0.129409 0.006434 255 255 254
-0.082017 -0.189823 -0.010483 103 151 236
-0.049639 -0.245773 0.006334 255 255 255
-0.009133 0.201471 0.059497 254 254 255
0.103072 0.096400 -0.014402 254 255 255
-0.088444 -0.197929 -0.050500 102 149 237
-0.109367 -0.097003 0.005652 101 149 237
-0.084664 -0.082207 0.023397 101 148 237
-0.102707 0.203350 -0.013349 103 150 236
-0.052599 0.237167 -0.005459 255 255 255
-0.087306 -0.152864 -0.007798 135 138 145
-0.106039 0.156465 0.022598 102 148 236
-0.100641 0.142068 -0.065148 100 148 235
0.173773 0.043194 0.037484 255 254 255
-0.109262 -0.201139 -0.022587 102 151 237
-0.047905 -0.244971 -0.020451 254 254 255
-0.092186 0.024209 0.036332 101 149 236
0.186730 0.016804 0.046580 255 253 255
-0.050691 -0.226789 0.010095 253 254 253
0.001575 -0.162540 -0.010179 254 255 254
-0.082101 0.253155 -0.007423 103 151 237
-0.008838 -0.173365 0.063313 254 255 255
-0.100721 -0.043457 0.024273 102 149 238
-0.034853 -0.227249 -0.025260 254 255 253
-0.087148 0.253760 -0.076809 102 149 237
0.164455 0.036354 0.007246 255 254 255
0.098085 0.096268 0.044233 255 255 254
0.011382 0.192388 0.030017 255 254 254
-0.089011 -0.118202 0.036123 103 149 236
0.123385 0.001618 0.032673 255 255 253
0.002341 -0.181145 -0.024623 254 254 254
-0.092212 0.252018 -0.019550 101 148 238
-0.087498 0.103869 -0.093298 103 150 237
0.239077 -0.024607 0.039112 254 255 254
-0.110744 -0.075649 -0.032491 102 149 233
-0.088743 0.201333 0.041551 100 148 236
0.023702 -0.134216 0.053773 254 254 253
-0.080769 0.150316 -0.024652 100 149 238
-0.100839 0.143001 0.000865 102 149 236
-0.108419 0.025006 -0.002540 103 150 237
-0.113231 0.135141 -0.013626 101 149 235
0.135668 -0.000985 0.013455 254 255 254
0.148400 0.070000 0.001686 255 254 254
-0.107169 -0.153735 -0.019628 102 150 235
-0.028305 -0.199933 0.037503 255 255 254
-0.104986 -0.199146 -0.057741 103 148 237
0.091854 -0.060501 0.053008 255 255 254
0.010247 0.193867 0.016607 205 209 207
-0.099479 -0.235639 0.029727 101 148 236
-0.086949 0.043603 -0.052361 100 149 236
0.126641 0.067656 0.005885 254 255 254
-0.104389 0.143040 -0.063536 103 151 238
0.262640 -0.046018 0.019286 253 254 255
-0.098874 -0.286412 -0.018383 102 149 236
0.183605 0.066526 0.047292 253 255 253
-0.107960 0.031912 -0.073290 100 142 220
-0.113085 -0.267064 -0.018964 101 149 235
-0.107043 -0.164797 0.006548 102 149 235
-0.085538 -0.057094 0.028594 133 139 145
-0.105004 0.140621 -0.055638 102 150 236
-0.072026 -0.253274 0.027653 255 253 253
0.187990 0.015825 0.059883 253 255 254
0.038555 -0.116390 0.016432 255 254 255
0.020100 -0.141055 -0.010686 255 255 255
-0.086560 -0.267118 0.037426 255 255 255
-0.096983 -0.162083 -0.090180 102 148 235
-0.049194 0.233577 -0.035570 255 255 253
0.119334 -0.025241 0.021656 254 254 255
-0.109242 -0.194042 0.014609 134 136 144
0.047777 0.147817 0.014143 253 255 255
-0.104705 -0.088998 -0.018404 103 149 236
0.166850 0.052548 -0.002788 253 254 255
-0.092179 -0.097880 0.037939 101 148 238
0.174149 0.026927 0.002962 254 255 255
-0.094483 0.029290 -0.075854 103 149 237
0.012161 -0.167760 -0.018568 255 255 255
0.082027 0.115786 0.047618 255 255 255
-0.090164 0.069601 -0.029580 102 149 236
-0.000486 -0.181293 0.035534 255 255 255
-0.093703 0.113224 -0.090758 103 148 237
0.080598 -0.053978 0.015268 255 253 253
-0.108006 -0.131059 -0.052243 102 150 236
0.006768 0.181490 0.055280 254 254 255
-0.089170 -0.213052 0.005945 103 149 237
0.084564 -0.069750 0.017734 255 255 255
-0.019879 0.202041 0.032923 255 255 255
0.151413 0.064418 0.000613 254 255 255
0.082083 -0.057760 0.022983 254 253 254
0.188269 0.077370 0.019262 254 253 253
-0.089589 -0.053801 -0.014142 102 149 237
-0.061418 0.259455 -0.021683 254 254 255
-0.093553 -0.088967 -0.036491 101 149 237
-0.101289 0.145193 0.036003 102 150 238
-0.105758 0.239599 -0.033912 102 149 237
-0.087813 -0.217233 -0.083121 101 149 237
-0.056556 -0.236183 -0.001959 255 254 254
-0.092063 -0.173968 0.014743 103 151 238
-0.088656 0.274248 0.010763 104 139 201
0.078098 0.117052 0.035103 254 255 255
0.034198 0.178871 0.056386 254 255 255
-0.108621 0.270380 -0.056588 102 148 233
0.217054 -0.002727 0.019181 255 255 255
-0.055271 -0.227877 0.028505 254 254 254
0.078048 0.119878 0.042963 255 255 254
-0.083440 -0.244426 -0.027465 137 139 144
-0.085547 0.019432 -0.027758 103 150 238
-0.085145 0.246618 -0.079467 102 148 233
0.008308 0.183301 0.019111 254 255 255
-0.037716 -0.227037 -0.015351 254 255 254
-0.100360 -0.154159 0.020722 101 150 235
-0.110900 0.075627 -0.012718 103 149 236
-0.102491 -0.181178 0.053956 101 150 238
-0.100886 0.049493 -0.050146 102 149 238
0.063019 -0.105191 0.019165 253 254 253
-0.088676 -0.079682 0.012609 103 151 236
0.045917 0.147152 0.044231 255 255 254
-0.092885 0.195244 -0.083758 100 147 234
0.165265 0.035310 0.010957 255 255 255
-0.053017 -0.229351 0.014702 255 254 254
0.122815 -0.022929 -0.001671 253 254 254
-0.096970 0.082605 -0.094395 132 134 142
-0.105545 0.065379 -0.075546 101 149 236
-0.112092 0.208989 -0.017658 103 149 237
-0.107538 -0.244403 -0.079249 102 148 235
-0.101855 0.263612 -0.035964 103 150 237
0.197709 0.002843 0.047713 255 255 254
0.211818 0.005795 0.008650 254 255 254
-0.084794 0.265740 -0.000697 255 254 254
-0.085748 -0.136059 0.036389 101 149 236
-0.101629 0.158635 -0.045819 101 149 237
-0.107175 0.211207 -0.012240 102 150 237
-0.107788 0.040190 -0.080393 101 149 236
0.219443 -0.016328 0.032972 255 255 255
-0.106395 -0.192106 -0.032448 100 148 236
-0.042188 0.245533 0.000837 255 254 255
-0.102698 0.219472 0.022733 134 140 148
-0.035195 0.234181 -0.018531 254 254 255
0.081887 -0.074992 0.033962 255 255 255
-0.101866 -0.079212 -0.077834 102 150 236
0.090966 0.122186 -0.020071 254 254 253
-0.104010 0.260116 -0.071189 101 149 233
-0.008429 -0.191296 0.026291 254 254 254
-0.110240 0.194880 0.007949 102 149 236
-0.051300 -0.240171 0.032433 254 254 254
0.002711 0.184679 0.049544 254 255 254
0.113501 0.086089 -0.002669 255 255 255
-0.110678 0.202149 0.018721 102 149 236
0.103634 -0.047864 -0.011684 254 254 255
0.187352 0.070213 0.000862 253 254 254
-0.043892 -0.219994 -0.029863 254 254 253
0.136304 0.006193 0.004019 255 255 254
-0.068215 -0.246190 0.046886 255 255 255
-0.105129 0.076802 0.029641 102 150 237
0.037837 0.155924 0.008209 254 255 255
-0.075975 0.139816 0.031176 104 150 235
-0.028838 0.230390 0.022923 255 254 255
0.011008 -0.163817 0.000667 255 254 255
-0.082338 -0.140707 -0.021346 102 150 237
-0.072301 -0.249892 0.047594 255 255 255
-0.092980 -0.257673 -0.021040 101 149 238
-0.026790 -0.193021 0.056596 254 255 255
-0.086092 0.212529 -0.012033 100 148 237
-0.109479 0.172779 -0.007434 102 150 237
-0.018034 -0.196876 -0.026121 255 255 255
0.017928 0.169809 0.036079 253 254 254
-0.111144 -0.184479 -0.067509 101 149 236
-0.008709 0.195954 0.004870 254 255 255
-0.085916 -0.037763 -0.010082 101 148 236
0.024911 0.170494 -0.028296 254 254 254
0.048694 -0.099701 0.044247 255 255 255
0.034987 0.169476 0.023417 255 254 255
-0.089903 0.136437 -0.087212 101 149 235
0.219906 -0.017317 -0.001390 254 255 255
0.136752 0.081490 -0.002225 253 255 254
-0.062795 -0.233730 0.007678 255 255 255
-0.087958 0.186333 0.000234 103 150 237
-0.084114 0.135086 0.000593 102 149 235
-0.098008 -0.270333 0.031267 100 148 238
0.263399 -0.042995 0.057604 255 254 254
-0.104890 0.068367 -0.052616 101 149 237
-0.081997 -0.118073 -0.069837 100 148 236
0.219072 0.097857 0.029615 254 254 255
-0.101663 0.005602 0.017658 137 141 149
0.104351 -0.030700 0.064251 254 255 254
-0.085658 0.114241 0.043177 102 150 237
0.164117 0.050488 0.000023 254 254 255
-0.009684 0.195184 -0.024289 253 254 254
-0.074264 -0.257246 0.021315 253 254 253
-0.111820 -0.170154 -0.088725 102 148 237
0.128980 0.085759 0.001958 255 255 255
0.081762 0.112470 0.055479 254 255 254
-0.105091 -0.271924 -0.000759 103 148 236
-0.085116 0.207116 0.024228 138 140 147
0.185466 0.076662 0.031477 254 255 254
-0.105704 0.179425 0.034748 103 149 235
-0.102852 -0.226981 0.059090 103 149 237
0.112224 -0.016876 0.025055 255 254 254
-0.077443 -0.278868 -0.027675 254 255 254
-0.086385 0.189128 0.013134 102 149 237
-0.097753 -0.059496 -0.082097 100 150 238
0.011982 -0.153083 -0.007504 255 254 253
-0.081291 0.269703 0.020811 253 254 253
-0.083449 0.275310 -0.037363 101 149 237
-0.085669 0.136639 -0.074788 101 149 237
-0.087281 -0.279843 -0.001359 255 255 254
0.040530 -0.130092 0.060767 254 254 254
0.168545 0.032548 0.017822 253 253 254
-0.102166 -0.226986 0.013976 103 149 237
-0.111335 -0.077699 -0.079565 101 150 238
-0.087994 -0.090879 -0.017783 103 151 237
0.060099 -0.102614 0.004686 255 255 253
-0.103186 -0.058712 0.011035 100 149 237
-0.105977 -0.172924 0.042026 137 143 149
0.042431 -0.127326 0.017780 255 254 254
-0.098383 -0.170655 0.052606 102 150 236
0.175418 0.048102 0.018981 255 255 255
0.028913 0.178830 0.016393 253 255 255
0.056531 -0.090856 0.056097 255 255 255
0.095186 0.100693 -0.010879 254 255 255
-0.017292 0.220450 0.016233 255 254 254
-0.088525 -0.255976 0.007418 101 149 237
0.183963 0.030112 0.052358 255 254 255
0.056358 -0.091534 0.050005 255 255 255
-0.105288 0.214606 0.031020 102 150 237
-0.083276 0.202454 -0.039595 101 150 237
0.062247 0.150943 -0.003043 255 255 255
0.049168 0.144205 0.007476 255 254 255
-0.081845 0.263141 -0.030512 255 255 255
-0.103296 -0.129921 -0.000485 101 146 229
-0.109442 -0.051584 0.027231 101 148 235
-0.086614 0.018072 -0.015982 103 148 235
0.173445 0.030247 0.017268 254 255 255
0.097777 -0.033029 0.010782 255 254 254
-0.085850 -0.168830 -0.016445 102 149 236
-0.000021 -0.182707 -0.018500 254 254 255
-0.107844 0.246113 -0.067488 103 150 237
-0.090340 -0.117706 -0.043853 101 149 238
-0.106367 0.271596 -0.003274 103 150 237
0.237509 -0.021949 0.043143 255 255 255
0.178414 0.032936 0.046925 254 254 254
-0.083363 -0.048950 -0.037519 102 149 235
0.046134 -0.104910 0.025639 255 255 255
-0.014137 -0.183108 0.001289 255 255 254
0.201216 0.091179 0.022008 254 254 253
-0.091192 0.088268 -0.068510 102 151 237
-0.056134 0.243046 0.003875 253 253 253
-0.103643 -0.143145 0.016874 101 149 236
0.033239 -0.128843 -0.020690 254 253 254
-0.084267 -0.132008 -0.097623 100 147 233
0.150347 0.018432 0.054606 255 255 253
-0.068190 0.250860 0.026245 255 255 255
-0.108631 -0.200810 -0.084069 101 148 238
-0.099938 -0.279583 0.023863 101 149 236
-0.016664 0.207870 -0.038391 254 254 254
-0.076464 -0.248316 0.033811 255 255 255
-0.090793 0.157073 -0.085011 100 148 238
-0.083064 -0.264436 0.040166 254 254 254
-0.083601 -0.262315 0.038265 254 255 255
0.131699 0.000230 -0.000557 254 255 255
-0.109560 -0.284307 -0.039478 102 150 238
-0.014866 0.201040 0.017200 255 255 255
-0.098625 0.050591 -0.084970 102 149 234
0.286927 -0.078976 0.027125 253 255 253
0.060639 0.147885 -0.022782 253 254 253
-0.106156 -0.274763 -0.051088 102 149 236
-0.093675 0.116343 -0.088865 102 150 237
-0.109248 0.213822 -0.010548 101 149 237
0.017915 0.184840 0.013064 254 255 255
-0.050978 -0.221581 0.009662 254 254 255
-0.103338 -0.145990 -0.091348 101 150 237
-0.102509 0.194429 0.032717 103 150 236
-0.087075 -0.277577 -0.051953 103 150 235
0.196703 0.068634 0.007608 254 254 254
0.177123 0.058564 0.035926 255 254 253
-0.042291 -0.235935 0.057474 254 253 255
-0.032035 0.240646 0.001414 255 255 255
-0.091684 -0.265706 0.010567 101 150 237
0.204000 0.014136 0.057085 253 254 254
-0.107218 0.017415 -0.019058 101 149 236
0.111493 -0.037305 0.036489 255 254 254
-0.108051 -0.164801 -0.046736 101 150 237
0.075916 -0.058675 0.050778 254 254 254
-0.018768 0.206632 -0.016488 254 254 255
-0.020332 -0.183816 0.061188 254 255 254
-0.058620 0.242570 0.040453 255 255 254
-0.087465 0.032853 -0.079905 104 151 236
0.220611 0.098368 0.063626 254 253 255
-0.069475 0.273205 -0.014155 253 253 254
-0.105389 0.095130 -0.052727 103 149 238
0.199357 0.070866 0.031589 253 255 253
-0.091760 0.255329 -0.046145 103 150 237
-0.104873 0.043979 -0.058275 101 149 236
0.221916 0.101904 0.019086 255 254 254
-0.091108 -0.193546 -0.049187 101 149 238
-0.062090 -0.264948 -0.037966 254 255 253
-0.077670 0.253631 0.024876 100 148 237
-0.082728 0.044031 -0.078786 102 148 235
0.014448 0.189164 0.040441 254 255 254
-0.075318 0.265776 -0.038859 255 255 255
-0.038158 -0.225839 0.011028 255 255 255
0.184594 0.011159 0.018056 253 253 254
-0.101841 -0.250817 -0.059995 102 151 237
0.167768 0.030772 0.035321 253 255 254
0.170781 0.052051 0.045771 253 254 254
-0.086056 0.264445 -0.002108 254 254 254
0.188835 0.011707 0.057013 254 254 254
-0.099838 0.252673 -0.037697 100 150 237
-0.087309 0.244560 -0.025670 103 151 237
-0.082691 -0.169889 -0.070628 102 150 236
-0.104050 -0.073391 0.001302 101 149 236
-0.090109 0.036605 -0.065160 103 148 232
0.054370 0.139229 -0.009088 255 254 255
-0.090877 -0.235414 -0.025053 103 149 238
-0.086109 -0.126809 -0.004055 130 136 143
-0.083053 -0.046606 -0.063616 130 134 141
-0.093985 0.018544 -0.012400 102 149 237
0.096440 0.096223 -0.014559 254 255 255
0.056463 -0.090206 -0.005607 255 255 255
-0.091323 0.087906 0.011434 101 148 236
