ply
format ascii 1.0
element vertex 1181
property float x
property float y
property float z
property uchar red
property uchar green
property uchar blue
end_header
-0.108423 0.236602 -0.042079 103 150 236
0.175331 0.051707 0.050346 254 253 255
-0.026986 -0.199912 0.039878 254 253 254
0.136547 -0.006160 0.004661 255 255 255
-0.084458 0.233900 0.008937 101 149 236
-0.086040 0.069722 -0.001041 102 148 236
-0.085256 0.062248 0.008428 100 148 236
-0.103977 -0.249901 0.021213 101 148 236
-0.085518 -0.114939 0.007077 102 145 225
-0.108805 -0.223344 -0.025089 101 149 235
-0.103835 -0.139047 -0.088520 101 147 233
-0.100491 -0.246188 0.001521 101 150 236
-0.103043 0.179102 -0.080362 101 149 235
-0.027506 0.215186 -0.020315 255 254 255
-0.102370 -0.206520 0.030841 101 149 236
-0.103534 -0.180779 0.045848 103 150 236
0.126041 0.004095 0.057490 255 255 254
-0.106301 0.124021 0.029972 103 148 230
0.114898 0.099332 0.029135 254 254 254
-0.100167 0.249224 -0.000393 101 150 236
-0.083609 0.065427 -0.038720 102 146 227
-0.082370 0.041412 0.037860 102 150 237
-0.091403 -0.047075 -0.053204 102 149 237
-0.039712 0.242865 0.029115 254 255 255
0.195503 0.014272 -0.003361 254 254 255
-0.093096 -0.270227 0.018979 102 149 236
0.117501 0.082365 0.033528 254 254 253
0.122765 -0.000547 0.002491 253 253 254
0.038798 -0.117939 -0.011127 255 254 254
-0.098574 0.116253 0.029568 102 149 236
-0.099371 0.243500 0.019858 101 150 235
-0.082156 -0.257223 0.033405 102 149 232
0.020142 0.173426 0.000139 254 253 255
-0.111089 0.030566 -0.041252 103 150 234
-0.098747 -0.144133 -0.021265 103 149 235
-0.086797 -0.048124 0.030022 100 149 234
0.166681 0.059533 0.062555 255 255 254
-0.103668 0.256640 0.043555 101 149 234
0.092121 -0.064860 0.063648 254 255 255
0.170023 0.036800 0.033031 254 254 254
-0.103294 0.168195 -0.042645 103 150 234
0.002420 0.202717 -0.036138 254 254 254
-0.097070 0.153509 -0.082173 102 147 231
-0.085941 0.046487 -0.015872 104 150 235
-0.100616 0.023221 -0.012174 102 149 237
-0.108888 0.248098 -0.047798 104 150 235
-0.079327 0.061928 0.015453 130 137 142
-0.033469 -0.205803 0.003471 255 255 255
-0.108705 0.084906 -0.059121 103 149 234
-0.018115 -0.193799 -0.028762 255 255 255
0.184147 0.019651 0.032236 255 255 255
-0.086162 -0.044059 -0.042271 103 150 237
-0.084594 -0.226019 -0.050266 134 137 143
0.110335 -0.040805 0.019084 254 253 255
0.160579 0.024453 0.006873 254 255 254
0.045048 -0.122721 -0.018647 253 254 255
-0.106610 -0.136917 0.000611 101 149 235
-0.080220 -0.181236 0.014259 101 149 237
0.069212 0.126568 0.054052 254 254 255
0.014561 0.181696 0.062716 253 254 254
0.023066 0.185978 0.042100 255 255 255
-0.107054 -0.201610 0.023456 103 148 232
-0.101258 -0.051656 -0.070158 101 148 235
0.119148 0.084642 0.060448 253 254 254
-0.082422 0.232499 -0.024031 103 150 236
0.047844 0.162695 0.018219 253 254 254
0.067187 -0.097272 0.011645 255 255 253
-0.108540 -0.143154 0.039903 103 148 231
0.067195 0.128439 0.003920 255 254 255
0.236249 -0.018527 -0.004280 252 253 253
-0.103329 -0.076124 0.019506 102 150 235
0.038178 -0.117347 0.000098 254 255 254
0.089008 -0.047572 0.052628 255 255 255
0.180748 0.069603 0.038855 252 253 253
-0.081909 0.100118 0.041547 101 146 231
0.145627 0.021597 0.003989 253 255 255
-0.105593 -0.053730 -0.019101 101 149 236
0.251117 -0.030552 0.051956 255 253 254
0.021108 0.166950 0.021915 254 254 255
0.145581 0.026673 0.004424 255 255 254
0.022542 -0.154840 0.055861 255 253 254
-0.100411 -0.186159 -0.084392 102 148 234
0.116632 -0.007241 0.055175 255 255 255
-0.080364 -0.099133 -0.091439 101 143 219
-0.107079 0.048222 -0.083461 104 145 227
-0.113072 0.139909 -0.011298 103 150 235
-0.000889 -0.186872 -0.003357 253 255 253
-0.097397 0.012285 -0.010998 101 148 234
-0.102740 -0.099615 -0.091029 103 150 234
-0.104263 -0.238725 -0.009686 102 149 236
0.167022 0.055599 0.032464 253 253 254
-0.104502 -0.194668 -0.007752 101 149 236
-0.081957 -0.058235 -0.045953 102 149 235
-0.106742 -0.258190 -0.017919 102 150 236
-0.079136 0.152869 0.000845 102 148 234
-0.081857 0.257344 -0.073599 103 148 234
-0.102774 0.110756 0.037179 102 149 235
-0.083194 -0.074051 -0.088706 100 141 216
-0.039262 0.231785 -0.009540 255 254 253
0.213814 0.011117 0.056316 253 254 254
0.118886 0.093520 0.062599 255 254 254
-0.061784 0.264180 0.001376 254 253 254
0.064591 -0.077577 0.050735 255 254 253
-0.093703 0.085373 0.049115 101 137 202
-0.087493 0.273252 -0.047056 101 147 236
-0.008811 -0.180970 -0.014734 255 253 253
-0.087898 0.151049 -0.086548 101 149 237
0.197359 0.089272 0.026187 254 255 253
0.142298 0.061577 0.023073 252 254 253
-0.105410 -0.073817 0.033852 101 149 236
-0.107743 0.132493 0.025593 101 147 232
-0.101139 -0.280780 -0.004951 102 147 229
-0.083138 -0.266627 0.044415 103 150 234
-0.102147 -0.260993 -0.034682 102 149 232
0.198411 0.012177 0.059555 253 253 255
-0.096362 0.024864 0.035128 104 151 236
0.083536 -0.057875 0.018263 255 255 255
0.097372 0.119379 0.047392 253 253 255
-0.089132 0.212182 0.014101 101 149 237
0.151250 0.059496 0.060217 255 255 254
-0.085661 -0.156696 -0.024963 101 148 230
-0.109316 0.064622 0.012143 102 150 236
-0.082559 0.025198 0.004566 100 150 236
0.224369 -0.004208 0.027055 254 254 254
-0.079510 0.097661 0.040630 101 149 236
-0.005785 0.210286 0.019512 253 255 255
0.104235 -0.026959 0.041064 255 255 255
-0.089705 0.033756 -0.070860 103 150 237
-0.091348 -0.184382 -0.086540 103 149 235
-0.085577 -0.136229 0.030052 101 150 237
0.255077 -0.047601 0.019764 255 253 255
0.200356 0.014673 -0.002918 254 253 255
0.065032 -0.083964 -0.009042 253 253 253
-0.105879 -0.067843 -0.086360 102 150 236
0.065280 0.130046 0.046171 253 253 253
-0.102402 -0.051968 -0.039313 102 149 236
-0.079812 0.274936 -0.021899 102 150 236
-0.099271 0.152302 0.053762 102 148 236
0.127117 0.074896 0.003239 255 255 255
-0.088992 0.014290 0.015005 103 149 235
-0.069395 -0.268750 0.042191 255 255 255
-0.085631 0.163368 -0.003951 103 149 236
0.047451 0.164484 0.047481 255 255 254
0.213361 0.107604 0.043567 255 253 255
-0.080318 -0.118462 -0.092386 102 150 236
-0.110884 -0.111889 -0.036475 104 151 236
0.222129 -0.014764 -0.000937 253 253 253
0.188752 0.061794 0.060460 254 253 254
-0.036178 -0.212647 0.013997 255 255 255
-0.083863 -0.113705 -0.007558 104 141 210
-0.098015 0.180592 0.028767 100 148 236
-0.106555 0.249436 -0.029778 101 149 236
-0.109985 -0.096389 -0.087358 101 148 234
-0.083488 -0.116454 0.038653 101 150 236
-0.083332 0.127180 -0.081331 103 150 235
0.102303 -0.051315 0.042727 255 254 255
-0.083921 0.187692 -0.000440 102 147 235
0.057786 -0.102194 0.024882 255 255 255
-0.103947 -0.198628 0.042255 103 149 236
-0.099146 0.187995 -0.049581 103 150 234
-0.030447 -0.220369 0.043837 253 255 255
-0.105874 0.096145 -0.042032 102 149 235
0.215934 0.000431 -0.002523 253 253 253
0.208939 0.010098 0.009588 255 255 254
0.151312 0.069256 0.000576 254 255 255
-0.082817 0.032220 0.012603 101 148 236
-0.108803 0.151558 -0.024299 104 150 236
-0.106880 0.088684 -0.035673 102 147 227
0.058927 -0.101041 -0.020229 253 254 254
-0.101365 -0.045093 -0.039756 101 149 237
-0.097507 0.231589 0.056867 138 140 145
-0.097652 0.252498 -0.075777 101 147 233
0.089580 -0.065495 0.029942 255 255 255
0.181195 0.027077 0.017367 253 254 254
-0.078372 -0.107825 -0.001069 132 134 139
0.035357 -0.122385 0.004006 255 254 254
-0.086475 0.194531 -0.056257 103 150 236
0.056608 -0.095183 -0.003718 255 255 254
0.121956 0.093457 0.029852 255 255 253
-0.100624 0.117790 0.026221 101 149 235
-0.088058 -0.203932 0.032088 101 150 235
-0.103240 0.201859 0.001522 102 147 233
-0.080369 0.265033 0.022053 254 255 254
-0.089974 -0.079062 0.041846 101 150 236
0.041803 -0.119938 -0.018332 254 255 254
-0.106503 -0.137835 -0.024708 101 150 236
0.092869 0.124085 0.030401 255 254 254
0.037727 0.152887 0.000854 255 255 253
0.143184 0.082805 0.043515 253 253 255
-0.080991 0.182474 -0.068072 102 150 236
-0.092631 0.014141 -0.006272 101 148 233
0.235718 -0.016026 0.016198 254 255 253
0.023540 -0.134086 -0.005895 255 255 255
-0.086810 -0.097272 -0.067607 100 144 225
-0.080869 0.145229 0.039579 102 149 235
-0.100613 -0.200415 0.058805 103 147 225
-0.101509 -0.246053 0.044069 102 149 235
0.138253 -0.001272 0.028288 254 255 254
-0.063251 -0.242813 0.064932 255 253 253
-0.057314 -0.250876 -0.004383 255 255 255
0.211045 0.009773 0.034826 253 254 254
-0.082906 -0.261548 0.033789 101 148 234
0.132963 0.078471 0.063876 254 255 255
-0.080753 0.277226 -0.026870 148 153 159
0.094925 0.120571 0.050141 255 254 254
0.193018 0.081803 0.030127 253 253 253
-0.035963 0.239511 0.051034 255 255 254
-0.083700 0.239165 0.012290 104 149 234
0.028395 0.165405 0.019972 255 254 255
-0.102227 -0.108001 -0.091461 101 149 235
-0.034526 0.241331 0.061294 254 254 254
0.129082 0.005516 0.033367 255 254 255
-0.080118 -0.088321 0.023659 103 150 235
-0.108537 0.070595 0.010665 103 150 236
-0.101388 -0.267348 0.020522 104 150 236
0.037400 0.154650 0.020214 253 253 255
-0.105440 0.186511 -0.063216 101 149 234
-0.055011 0.262806 0.014274 253 254 253
-0.048937 -0.248713 -0.020378 253 254 254
-0.098676 -0.239658 -0.038700 101 149 237
-0.084461 -0.280018 -0.027239 103 148 235
-0.044253 -0.220763 0.026123 254 255 253
-0.083353 0.070147 0.023929 102 148 234
-0.090147 0.077581 -0.070117 101 149 236
-0.086742 -0.064760 -0.026367 101 150 236
0.139883 0.025458 0.062635 255 255 255
-0.083223 0.054375 -0.045639 101 150 237
0.098621 0.096182 -0.004719 255 254 255
-0.105951 -0.067677 -0.054192 135 138 144
-0.081740 0.137602 -0.067785 101 150 235
0.123626 0.092912 0.050027 253 254 253
-0.107169 -0.177706 -0.031416 127 131 137
-0.101412 -0.122883 -0.000746 103 149 234
-0.109794 0.073774 -0.029603 101 149 234
-0.077691 0.155731 0.020937 109 137 186
-0.108465 0.053838 -0.083499 103 149 233
0.090086 -0.048679 -0.004100 254 255 254
-0.090378 -0.210474 0.029433 103 150 237
-0.042297 0.249953 0.046663 253 252 255
-0.103262 0.081985 -0.092368 102 149 234
0.074342 -0.087451 -0.008398 253 254 254
-0.113114 0.135285 -0.002150 106 138 195
0.044210 -0.112045 0.026086 255 255 255
0.066509 0.129667 0.016183 253 253 253
-0.082425 -0.265307 -0.009779 102 147 234
-0.085328 0.027151 -0.028921 101 148 237
0.024086 -0.149186 0.063169 254 254 254
-0.081604 -0.218529 -0.030925 102 149 234
0.213281 -0.006877 0.044873 255 255 255
-0.107799 0.122436 -0.068348 101 150 235
0.170261 0.036872 0.042264 255 255 253
0.236546 -0.031017 0.039776 255 255 255
0.185242 0.022044 -0.010282 253 253 254
-0.099488 -0.056347 0.005261 101 148 236
0.164018 0.044911 0.021157 253 254 254
-0.103018 0.176162 -0.074702 101 148 235
0.208975 0.096912 0.033942 255 255 254
0.017767 0.188572 -0.020385 255 253 255
0.133079 -0.003272 0.052662 253 253 253
0.003449 -0.157715 -0.006230 253 254 254
0.085154 0.113013 0.008597 255 254 254
0.147226 0.052196 0.007893 254 254 253
-0.052893 -0.234876 0.033107 255 255 255
-0.102480 0.045852 -0.012631 101 148 236
-0.047331 0.231741 -0.004999 255 255 254
-0.083149 -0.138609 0.044005 102 148 237
-0.085320 0.173708 -0.011697 103 148 233
-0.062792 -0.260352 0.014241 255 255 254
-0.003675 -0.188171 0.014299 254 254 253
-0.084890 0.103998 0.030252 100 148 235
0.201715 0.002339 -0.000816 254 254 255
0.058769 -0.105647 -0.015164 252 252 253
0.035061 -0.122234 0.048722 255 254 254
-0.032930 -0.204893 0.047761 254 253 253
-0.079478 0.145145 -0.083916 102 147 230
-0.109804 0.044402 -0.076097 103 149 236
0.053846 0.159351 0.042200 254 255 255
0.135933 0.083932 0.057840 254 254 253
-0.085485 0.096327 -0.049763 101 150 237
-0.082561 0.208824 -0.004383 101 141 214
0.180379 0.026380 0.041887 253 254 253
0.033286 -0.147280 0.041461 253 253 254
0.266124 -0.054921 0.052969 254 255 253
0.151834 0.047785 0.006278 253 255 255
-0.108366 -0.207461 0.011311 103 149 234
-0.105017 0.195145 -0.037533 102 149 233
-0.093847 -0.267148 0.041685 102 150 236
0.046750 0.149317 -0.007273 255 254 255
0.028979 0.179430 -0.014191 254 254 253
-0.106742 0.106199 -0.018612 134 138 145
-0.103535 0.124101 0.018102 102 149 234
-0.063329 -0.265580 0.022003 255 255 255
0.088042 -0.070917 -0.014829 254 254 254
-0.100024 0.021373 -0.046250 102 149 236
-0.009888 0.216335 -0.026196 254 255 253
-0.082554 0.024810 0.001370 101 150 237
-0.067172 0.264691 -0.044286 254 253 254
-0.107549 0.019301 -0.033175 103 150 236
-0.082579 -0.252642 0.032448 138 137 142
-0.063869 0.268625 0.052728 254 255 254
-0.102371 -0.141111 0.004181 101 148 234
0.133327 0.071199 0.047142 254 254 254
0.020798 -0.143999 0.063190 255 255 253
-0.105490 -0.062504 -0.073593 102 147 230
-0.059974 0.247670 0.030868 253 254 253
0.029474 0.170294 0.062375 253 254 254
-0.008092 0.198564 0.016390 254 255 253
-0.039291 -0.212346 0.059905 254 255 254
-0.099253 -0.227193 0.048804 103 149 236
-0.028423 -0.216348 0.049093 254 255 254
0.058202 0.138197 -0.026724 255 255 255
-0.101826 0.198415 0.055566 103 150 237
0.089136 -0.054765 0.064428 254 254 255
0.148518 0.051188 0.006395 255 254 254
-0.110206 0.250175 0.001340 102 148 235
-0.102973 -0.130438 -0.066237 102 148 234
-0.085325 -0.151962 -0.036956 101 150 237
0.037527 -0.134704 -0.019069 252 253 254
-0.019509 0.208066 0.049355 253 253 255
-0.079049 0.172449 -0.078208 103 148 233
0.035641 0.174711 0.046572 254 255 255
-0.108976 0.221533 0.028143 103 144 219
-0.101483 -0.247371 0.058429 101 141 216
0.093822 -0.043306 0.036260 254 255 254
0.183483 0.059871 0.018102 254 253 253
-0.106595 0.252321 -0.020509 102 148 236
0.165240 0.049494 -0.008181 254 254 254
-0.101557 0.018199 0.023748 100 144 225
-0.109471 0.050724 0.000496 102 149 236
0.193327 0.068887 0.031689 255 253 253
-0.020979 -0.195468 -0.003301 255 254 253
0.203311 0.094310 0.024087 252 253 254
0.204174 -0.003897 0.027170 255 255 255
-0.084759 -0.097214 0.007254 103 149 234
0.006582 -0.150018 0.062653 255 254 255
0.024299 0.166282 0.010967 253 253 254
0.205381 0.013248 0.017954 255 255 254
0.049961 0.142379 -0.023217 255 255 254
-0.001773 0.192361 0.008854 254 254 254
-0.084687 0.152093 0.038664 101 149 237
0.172799 0.029831 0.052038 255 254 254
-0.033804 -0.224041 0.023113 254 255 255
-0.084105 0.125623 -0.035617 102 149 236
-0.029454 0.217066 0.026005 254 255 254
0.030923 -0.128338 0.011652 255 255 254
-0.080911 0.040596 -0.075616 102 149 234
0.002451 -0.171415 -0.029082 253 253 254
-0.086925 0.088124 -0.018001 101 148 234
-0.090093 0.048093 0.023668 102 149 234
-0.024387 0.226748 0.033325 253 254 254
-0.086964 0.188222 -0.045041 103 149 232
0.041433 -0.135602 0.024808 254 253 255
-0.100953 0.126249 -0.012017 100 148 237
0.268198 -0.054953 0.019798 255 255 254
-0.011413 0.218207 0.004752 254 253 255
-0.082837 -0.121108 0.010994 103 148 234
-0.081739 -0.100780 -0.086209 101 150 237
-0.103809 -0.189862 -0.008083 103 150 237
-0.000486 0.206527 0.014784 201 207 211
0.067082 -0.076105 0.055061 254 254 255
-0.079063 -0.129848 0.037721 101 150 237
-0.108545 -0.197549 -0.003375 101 144 222
0.241348 -0.021350 0.040492 252 252 253
0.147840 0.028096 0.061681 255 255 255
-0.077336 -0.276481 -0.002299 254 255 254
-0.062639 0.249439 -0.037331 254 255 255
-0.059285 -0.256805 0.064406 255 255 253
0.027669 -0.128445 0.025599 255 254 255
-0.037666 0.238730 -0.019997 254 255 255
0.036645 -0.136205 -0.015468 255 254 254
0.056359 0.133753 0.033676 255 253 255
0.045749 0.149335 0.061486 254 254 254
0.195106 0.082149 0.008420 254 254 253
0.165034 0.059819 0.040215 254 255 254
0.020292 0.175969 0.030202 255 255 253
0.198908 0.002965 0.038423 254 254 254
-0.081437 -0.184629 0.048109 101 149 232
-0.055062 -0.255550 -0.005608 253 255 255
0.143636 0.028771 0.048178 255 255 255
-0.022511 0.209754 -0.033068 254 254 253
-0.106410 0.107165 -0.028234 101 150 235
0.186917 0.069489 0.001456 254 253 254
-0.088584 0.129185 -0.012056 100 149 235
-0.079656 0.188863 0.011718 130 132 137
-0.083450 0.079218 -0.023097 102 148 236
-0.107215 0.249834 0.009462 102 150 235
0.031501 -0.126699 0.011651 255 253 255
0.034314 -0.122015 0.054441 254 253 255
-0.111331 -0.111690 -0.019139 102 150 236
-0.005761 0.199042 0.012437 254 254 254
0.142637 0.082814 0.056301 255 253 254
0.138633 0.062328 0.056199 255 255 253
-0.111807 -0.121318 -0.012785 104 151 236
-0.075255 0.268401 0.061804 255 255 255
-0.097369 -0.274163 0.030391 102 150 236
0.184211 0.069298 0.018371 254 253 255
0.000430 0.192518 -0.012365 252 253 254
-0.010039 0.201998 0.041744 255 255 254
0.114492 -0.012831 0.042262 255 254 255
-0.084660 -0.193165 0.035223 102 149 234
-0.104530 -0.154955 -0.081707 103 148 231
-0.097831 -0.054750 -0.067760 102 149 236
-0.086959 0.087106 -0.080095 105 136 196
-0.081120 0.269969 0.013290 134 134 141
0.108826 0.107834 0.023564 255 255 255
0.033439 0.178478 0.055725 254 255 255
-0.085641 -0.265543 -0.006372 103 145 222
0.063379 0.152097 0.055948 254 255 253
-0.079242 -0.144046 -0.079449 102 149 233
-0.069128 0.257013 0.062885 254 255 255
-0.103617 -0.283099 -0.017274 102 150 236
-0.018518 0.222878 -0.020730 253 254 255
0.069333 0.137710 0.060130 253 254 254
-0.059843 0.248724 -0.043150 255 253 255
-0.101482 0.261966 0.032059 103 149 235
-0.082282 0.013658 0.012911 103 149 234
0.282032 -0.066729 0.029502 253 254 254
-0.107792 0.242982 -0.064476 101 150 236
-0.063418 -0.244047 0.047782 254 253 253
0.269468 -0.057969 0.027864 255 255 255
0.170272 0.027201 -0.001374 253 255 255
-0.019439 0.209049 -0.034039 254 255 254
-0.106762 0.106130 0.014280 103 148 233
-0.061585 0.257049 0.062586 255 254 255
0.024450 0.166051 -0.002777 254 254 255
-0.083175 0.051535 -0.039287 134 136 142
-0.019259 -0.191888 -0.022250 255 254 254
-0.100471 0.094741 -0.004306 102 148 236
-0.024909 -0.195660 0.053187 255 255 254
-0.079754 0.184663 -0.077431 101 149 236
-0.106963 0.105356 0.040897 102 150 236
0.103251 0.110310 -0.011828 255 255 254
-0.089064 -0.040337 -0.026895 130 130 137
-0.099525 0.186131 -0.045354 101 146 228
-0.101999 0.204432 -0.055782 101 149 236
-0.083697 0.033062 -0.076393 104 149 235
0.141691 0.068484 -0.010143 255 254 255
-0.080953 -0.212337 -0.013345 100 141 215
0.066885 0.143614 0.001416 254 255 254
-0.083759 0.030507 0.027570 102 140 211
-0.000653 0.209434 0.035399 254 254 253
-0.002309 -0.195472 0.009248 255 255 255
0.063547 -0.081391 0.058069 254 254 253
-0.072076 -0.248570 0.053760 255 253 253
-0.017021 -0.202870 -0.001096 254 254 255
0.278498 -0.060186 0.016412 255 255 254
-0.030803 0.217935 0.035931 255 255 255
0.001388 0.197243 -0.036815 253 253 254
-0.018511 0.208434 -0.026439 254 254 254
-0.035787 0.220893 0.043083 254 255 255
-0.022269 0.210669 0.055597 255 253 255
0.026755 0.171262 0.044380 254 255 253
-0.079607 -0.279980 -0.011126 255 254 254
-0.079473 -0.251726 0.019697 103 148 231
-0.063662 0.251636 -0.038204 254 255 255
0.004650 -0.175694 -0.005790 254 255 255
-0.103808 -0.036593 -0.012125 104 149 234
-0.085208 -0.033580 0.008743 126 134 140
-0.085453 -0.091104 0.017430 101 146 225
-0.102725 0.129536 -0.001622 104 150 236
-0.107702 -0.149389 -0.011820 103 150 236
0.123563 0.078803 0.032317 255 254 254
-0.102473 -0.114862 -0.067815 103 150 235
0.015651 0.194241 -0.003938 253 254 255
0.058325 0.155210 0.061274 253 255 255
-0.087324 -0.113531 -0.069725 103 150 236
-0.003390 0.209606 0.053282 255 254 254
0.239931 -0.021042 0.019230 254 254 255
-0.104728 0.081781 -0.041836 102 150 237
0.040278 0.171017 0.046876 255 254 255
-0.105601 -0.181217 -0.080407 102 149 236
-0.099347 -0.072658 -0.087574 101 149 235
-0.081608 -0.052634 0.025804 130 136 140
-0.051117 -0.245248 -0.039408 253 255 253
-0.104179 -0.043809 -0.021046 102 149 233
0.226959 -0.023644 0.033458 253 254 253
-0.079614 -0.255420 0.013381 255 254 254
0.045289 -0.125294 0.035913 255 255 254
0.034934 0.175039 0.040165 254 254 254
0.228884 -0.009292 0.031666 255 255 254
0.138053 0.017615 0.029304 255 254 255
-0.097514 0.135557 -0.084503 103 149 235
-0.109861 -0.216644 0.035769 104 150 235
0.032476 0.162282 0.016328 255 255 254
-0.099123 -0.183487 -0.070386 103 149 237
0.190452 0.074384 0.061988 255 254 254
0.153397 0.041262 0.030383 253 254 254
-0.019919 0.210034 0.033107 255 255 254
-0.100083 0.176459 0.019967 104 142 210
0.064179 0.150687 0.016604 253 255 253
0.032201 0.163351 0.031747 255 255 254
0.058954 -0.092800 0.019045 254 254 253
-0.083216 0.059110 0.021418 101 147 233
-0.085499 -0.269197 -0.049186 101 149 234
-0.056419 -0.251423 -0.027669 253 253 255
-0.097335 0.255582 -0.071337 102 143 219
-0.099911 0.189001 -0.085935 102 147 230
-0.100500 0.229401 0.013259 102 149 232
-0.081139 -0.145384 -0.025043 102 149 235
-0.027879 -0.193349 0.001445 254 253 254
-0.071893 -0.274635 0.050402 255 255 255
-0.084115 -0.131712 -0.005797 102 148 234
-0.091046 -0.072664 0.041042 101 150 235
-0.102733 0.031673 0.026384 102 142 217
-0.093549 -0.274471 0.032469 255 255 254
-0.103230 0.204832 0.050162 104 133 186
-0.002102 0.192751 0.004698 254 254 254
-0.103665 -0.264396 0.032168 103 149 235
-0.021068 -0.194933 -0.029677 253 253 255
-0.051237 -0.244361 -0.007858 254 255 255
-0.083388 0.263900 0.047116 102 148 228
0.184963 0.014657 0.019013 254 255 253
-0.111338 -0.256848 -0.047659 101 149 235
-0.025174 -0.217435 -0.004087 253 254 255
-0.035476 -0.230671 0.018521 255 254 254
-0.061292 -0.258379 0.007949 255 254 254
-0.079138 0.091053 -0.081971 102 141 214
0.013772 -0.163839 0.061398 255 255 255
0.072179 0.124410 0.052825 254 254 254
-0.073466 0.257992 -0.032108 253 253 254
0.165531 0.038382 0.017908 254 254 254
0.145112 0.056349 0.041641 253 253 255
-0.086117 -0.239216 -0.064567 103 149 236
0.079794 -0.054735 0.055051 255 254 255
0.217873 -0.011393 0.017411 255 255 255
-0.105743 0.048418 0.003153 101 148 235
0.179519 0.066009 0.028883 254 252 254
-0.015381 0.221602 0.016165 254 254 253
-0.078616 0.118735 -0.078814 101 148 233
-0.103715 0.136744 -0.080054 101 149 235
-0.087759 0.028149 0.011399 102 149 237
-0.090279 -0.082966 0.036978 102 148 237
0.210498 0.007664 0.015209 253 254 253
0.086555 -0.054233 -0.002435 253 255 255
-0.104721 -0.053115 0.007157 104 147 227
0.004888 -0.182645 -0.001480 255 254 255
-0.080455 -0.086252 0.021666 101 149 233
0.170648 0.040836 0.017001 255 255 255
-0.085350 0.032226 -0.021881 101 148 236
-0.046867 -0.238851 0.032774 253 253 254
-0.111041 -0.140539 0.040117 137 141 147
-0.097627 -0.109087 0.042441 103 149 232
-0.084854 -0.270114 -0.014113 253 254 255
0.162359 0.057724 0.031844 254 254 255
-0.107437 0.036721 -0.075466 104 151 237
-0.095040 -0.046690 -0.060227 102 146 227
0.156248 0.060659 -0.008774 254 254 254
-0.101569 0.234158 0.016243 101 148 235
-0.005136 0.193259 -0.020399 254 254 254
-0.101079 0.266351 -0.036156 104 150 235
-0.082225 0.178317 -0.038299 101 147 232
-0.089886 0.036529 -0.076519 101 145 226
-0.030110 -0.208819 -0.026600 254 254 253
0.172389 0.028138 0.007223 254 255 254
-0.050717 0.235163 -0.038049 255 254 254
-0.087084 -0.174658 0.019695 102 146 228
0.271520 -0.051448 0.006481 252 254 254
-0.084933 0.156006 0.011800 103 146 222
-0.106610 -0.213213 -0.008619 102 137 199
-0.048381 -0.233411 -0.034862 254 253 253
-0.056048 -0.254210 -0.025405 254 255 255
-0.058065 0.243065 0.052257 253 254 255
-0.098144 0.208910 -0.025154 103 149 236
0.192552 0.086448 0.050693 255 254 254
-0.105637 0.142657 -0.007082 102 150 235
-0.087203 0.212084 -0.062663 102 148 234
0.104057 -0.027756 0.043560 253 253 253
0.181672 0.069763 0.007579 253 254 254
0.049110 -0.120613 0.057465 254 255 255
0.232047 -0.011148 0.051803 254 254 255
-0.101301 -0.156539 -0.063986 102 139 207
-0.082159 0.183609 0.002542 137 140 147
0.016023 0.177862 0.004713 255 254 253
-0.016169 0.213352 0.062563 253 254 253
-0.103874 0.078456 -0.018622 102 148 233
-0.089488 -0.189617 -0.015850 102 149 235
0.209127 0.087108 0.049208 254 254 255
0.109760 -0.041207 0.026281 254 255 254
-0.106090 0.246516 -0.000595 103 149 236
-0.082972 -0.048489 0.004803 131 134 140
0.174561 0.053421 -0.009398 252 253 253
-0.081413 -0.202057 0.013863 101 147 229
-0.087904 0.182948 -0.048856 102 148 235
-0.107224 0.046049 -0.018698 103 149 236
-0.079058 0.202404 -0.028885 102 148 236
-0.005681 0.198410 0.063253 253 254 255
-0.036830 0.227017 0.034176 253 254 255
-0.103241 0.266575 0.042236 101 146 229
-0.099413 0.234591 -0.058123 103 148 233
-0.008727 -0.192514 0.038137 254 255 255
0.135134 0.018929 0.058536 255 254 254
-0.104259 -0.266555 -0.059739 101 149 236
-0.080749 0.078381 -0.017468 102 148 236
-0.100171 0.258203 -0.071718 104 142 210
0.062492 0.146132 -0.015159 255 254 254
0.192334 0.010256 0.033957 255 255 255
0.024756 0.171171 0.052105 253 254 254
0.240556 -0.038748 0.053364 255 254 254
-0.082347 0.060907 0.043532 102 150 237
-0.007312 0.213640 0.037585 254 255 255
0.205423 0.098156 0.030723 254 255 254
0.045756 -0.112016 -0.022258 254 254 253
-0.006167 -0.190680 -0.015384 253 254 253
0.022064 0.186270 0.009480 255 254 255
-0.038964 0.227404 0.056101 253 253 255
0.183170 0.022094 0.048691 253 255 255
0.082161 -0.075900 -0.013419 254 254 255
0.024400 -0.130644 0.036107 255 254 253
-0.087768 -0.225379 -0.051253 102 150 237
0.055685 -0.113165 0.004060 253 253 253
0.183087 0.055904 0.055953 255 255 255
0.031932 0.182101 0.029627 254 253 254
-0.102731 -0.208688 0.048398 101 148 237
-0.110742 -0.085308 -0.040408 139 142 147
-0.096822 -0.270521 -0.061598 102 146 225
0.244932 -0.040903 0.052854 253 254 255
-0.076345 0.232843 -0.041160 102 150 236
0.189073 0.015513 -0.002314 254 255 254
-0.061477 -0.244632 -0.027304 255 255 255
-0.104605 0.123856 0.027596 103 148 236
-0.090125 0.041427 -0.022631 102 148 235
-0.066318 -0.267739 -0.029703 255 255 254
0.244851 -0.033662 0.057417 255 254 254
-0.062121 0.263709 0.033200 253 254 254
-0.101270 0.262959 0.027273 103 150 236
-0.110492 -0.229115 -0.019882 101 149 236
-0.107819 0.048301 0.001779 104 151 235
-0.061103 -0.260655 0.037093 254 253 254
-0.109118 -0.072317 -0.086336 101 148 237
0.148613 0.062315 -0.009075 254 255 255
0.164440 0.038581 0.031313 253 255 253
-0.106236 -0.173719 -0.039052 101 148 235
-0.100394 0.079644 -0.063120 100 146 230
-0.092744 0.257157 0.055818 101 149 236
0.171244 0.031522 0.055370 254 254 253
-0.103050 0.107611 0.041385 103 149 237
-0.050163 0.242450 -0.012615 255 255 255
-0.053009 0.240139 0.007726 254 254 253
0.158496 0.047999 0.002781 255 255 254
-0.002445 0.208634 -0.026209 255 254 253
0.087274 -0.065857 -0.003284 254 253 253
-0.084999 0.172219 0.004586 102 146 226
-0.004823 -0.177057 -0.005838 253 253 254
-0.077172 -0.067989 -0.066040 101 148 233
-0.106981 -0.147467 -0.086645 101 149 235
-0.085811 0.233062 0.012965 134 139 143
0.057742 0.153750 0.000858 254 254 254
0.058754 -0.094856 -0.003761 254 254 254
-0.066794 -0.247410 0.010581 255 255 255
-0.107582 0.168324 -0.035306 102 150 235
0.145295 0.033198 0.034175 254 254 255
-0.088236 0.139324 0.047006 104 150 236
0.053276 0.150834 0.061328 253 255 254
-0.079497 0.057098 0.040691 102 150 236
-0.091522 -0.050881 0.025746 100 149 235
-0.053551 -0.253575 -0.027558 254 254 254
-0.103488 -0.281191 -0.007312 103 149 235
-0.075974 -0.146489 0.018187 127 135 139
-0.003813 -0.168813 0.050243 253 254 253
-0.104360 0.022900 0.032329 103 148 228
-0.056568 0.256871 -0.022364 255 254 255
0.041254 -0.118592 0.039982 255 255 255
-0.081642 0.252487 0.037779 130 133 138
-0.034919 -0.223413 0.049419 255 255 255
-0.012650 0.201996 -0.033348 255 255 254
-0.082160 -0.175917 0.000752 103 148 232
-0.110064 -0.100961 -0.087396 101 149 236
-0.066454 -0.249536 0.054613 253 255 254
-0.100473 0.204943 0.000416 102 141 214
-0.103904 0.164952 -0.076337 104 150 235
-0.086515 0.023678 -0.061828 102 149 235
0.018549 -0.142406 0.050086 254 255 254
-0.025013 -0.213331 -0.014232 255 255 255
-0.099262 -0.044961 -0.043086 144 150 156
-0.105293 -0.076274 0.026114 102 149 237
-0.084075 0.164017 0.022083 101 148 236
0.072295 -0.071373 0.037746 253 254 254
0.039640 0.169217 -0.015943 254 255 254
-0.105948 0.031904 -0.065464 101 150 235
-0.080918 0.230895 -0.071212 101 149 236
0.218047 0.001279 0.059643 255 255 255
-0.006696 -0.194344 0.000119 255 255 255
0.109787 -0.016513 0.055442 255 255 254
-0.039579 0.242716 -0.027707 255 255 255
-0.004696 -0.196708 0.001301 253 255 253
0.136201 0.016059 0.034489 255 254 255
0.035475 0.162386 0.049858 254 254 253
-0.081384 -0.177741 -0.057117 101 149 236
-0.105541 -0.157806 0.034876 102 150 236
-0.108699 0.265524 -0.008885 105 136 194
-0.105098 0.144713 0.029673 101 150 236
-0.082992 0.199311 0.019157 102 148 236
0.072836 -0.071513 0.022911 255 255 255
0.132235 0.082021 0.036487 253 253 254
-0.038853 -0.214532 0.035364 255 253 253
-0.087862 0.034514 -0.038706 103 150 235
-0.082702 -0.259054 -0.007224 102 148 234
-0.081019 -0.091579 -0.039680 101 148 235
0.164959 0.052228 0.057120 255 255 254
-0.036793 -0.226728 0.043660 254 255 254
0.027690 0.166995 0.062225 255 255 254
0.198730 0.003862 0.026932 255 255 254
-0.081637 0.043777 -0.073023 102 147 234
-0.084664 -0.077789 -0.003032 103 149 233
-0.079108 -0.080831 0.032341 135 134 140
-0.103097 0.219149 0.031213 103 150 236
-0.088653 0.065560 -0.063672 103 150 237
-0.061639 -0.257632 0.008500 255 255 254
-0.108039 0.119679 -0.002036 102 151 237
-0.018811 0.221991 0.022354 255 255 253
-0.097630 0.107073 -0.093589 103 143 218
-0.100065 -0.124075 -0.063963 103 149 234
-0.108104 0.073485 0.017584 101 147 228
0.142254 0.001930 0.030192 255 254 254
0.023054 -0.154362 0.063217 254 254 253
-0.014014 0.204148 0.010720 254 254 255
-0.105930 0.130093 -0.034526 128 135 140
-0.098388 -0.120926 -0.090427 102 148 235
0.146569 0.070175 0.003015 254 255 254
-0.081807 -0.088282 -0.090361 102 148 235
0.190309 0.063078 0.016791 255 255 254
-0.086692 0.159211 -0.002423 102 149 236
-0.066221 -0.265857 0.039950 253 253 253
-0.105564 -0.220095 0.033732 104 150 236
-0.101205 0.274123 0.013883 101 149 235
0.060004 0.134204 0.057413 255 255 253
-0.078167 0.275255 -0.006145 253 254 255
0.180998 0.039885 0.030912 255 254 253
0.004178 -0.167412 -0.026997 255 255 255
-0.052280 0.257389 0.022063 254 254 254
-0.082243 -0.190427 0.012012 131 133 138
0.057260 0.155478 0.048475 254 254 254
-0.084418 0.280172 -0.026637 102 148 233
-0.084136 -0.161341 0.025283 101 147 228
-0.020635 0.230496 -0.015799 253 253 255
0.011241 -0.172340 0.008618 255 255 255
0.046733 0.146881 -0.014723 254 255 255
-0.022082 0.227734 0.005349 255 255 253
0.016952 0.176255 -0.005618 255 254 254
-0.101445 -0.051827 -0.005226 103 149 237
0.125500 0.088666 0.032081 255 255 254
-0.088963 0.120571 -0.002935 102 150 237
0.127516 0.074670 0.043979 253 253 255
0.046755 0.166854 -0.024338 255 255 255
-0.103505 0.265994 -0.000300 101 150 237
-0.081493 -0.050359 -0.061724 103 148 235
-0.086900 0.121228 -0.023031 102 150 236
-0.087217 0.075424 0.046604 102 148 231
-0.016692 -0.202719 0.023438 255 255 253
0.107199 0.100474 0.059554 254 254 253
0.030888 -0.143231 -0.018464 254 255 254
0.011943 0.183209 0.040356 255 254 255
0.128352 0.065760 -0.006349 253 254 254
0.010459 0.196315 0.044108 255 255 253
0.139300 0.003575 0.053833 254 254 255
-0.084243 0.269153 0.000797 253 253 253
0.102777 0.093908 0.025876 253 253 253
-0.085501 -0.130290 0.031776 101 149 236
-0.102576 -0.051883 0.014692 101 148 234
0.158994 0.026110 0.036375 254 254 254
-0.101348 0.214698 -0.038168 103 150 236
-0.080302 0.201811 -0.027368 101 148 234
-0.105567 0.219934 -0.060194 103 148 236
0.164189 0.039009 0.027518 255 255 255
0.183935 0.033262 0.008017 254 253 254
0.038738 0.163740 0.050285 253 254 254
0.161124 0.030044 0.036475 255 255 253
-0.104689 -0.281577 -0.037924 101 150 236
0.104897 -0.027098 0.027344 254 255 254
-0.106973 -0.217415 -0.079401 101 149 236
-0.105306 -0.106147 -0.026700 101 147 229
0.163192 0.042161 -0.007949 253 253 253
-0.070587 0.254428 0.029244 254 255 255
0.062777 -0.102360 -0.002884 255 255 255
0.003210 -0.174697 0.062727 255 255 255
0.036183 -0.119373 0.041922 255 255 254
-0.100404 -0.043897 0.030019 100 148 236
-0.060940 -0.260742 -0.026773 255 253 253
-0.086826 0.248071 -0.033309 145 148 154
0.040913 -0.136135 0.032370 254 255 254
-0.083488 0.177720 -0.071859 132 138 144
0.062029 -0.087802 0.029923 254 255 255
-0.106331 -0.079084 -0.082977 103 151 236
0.122254 -0.010934 -0.002926 254 255 254
0.094325 -0.043809 0.007380 254 255 253
-0.083716 -0.266035 0.051346 254 255 254
0.139872 0.014453 0.063291 254 253 255
-0.107550 -0.119186 -0.091602 102 149 236
0.157234 0.022291 0.040795 254 254 255
-0.053394 -0.231215 0.017916 254 253 254
-0.110327 0.071487 -0.040696 101 141 215
0.168245 0.052009 0.026528 253 254 255
0.115467 0.095823 0.062438 254 254 254
-0.013145 -0.185484 0.011860 253 254 253
0.198983 0.073172 0.051827 255 255 254
-0.097436 0.276233 -0.038329 102 147 235
0.041520 -0.113230 0.059213 254 253 255
0.165167 0.063546 0.045101 255 255 253
-0.089636 0.035340 0.038291 101 149 236
-0.110391 -0.077682 -0.037388 102 149 235
0.237274 -0.018662 0.018608 254 255 255
0.046717 -0.109495 0.063629 253 254 253
-0.100395 0.180928 -0.046747 101 149 234
-0.068488 0.249796 0.020455 255 254 255
-0.073070 -0.257211 -0.024114 255 252 255
-0.034605 -0.207080 0.061822 253 255 253
-0.088977 0.017104 -0.033955 102 149 233
-0.108010 0.086547 -0.069896 132 135 140
-0.105877 0.105331 -0.082770 101 150 236
-0.099203 -0.150392 0.052560 101 150 237
-0.102935 -0.058361 0.013630 102 150 236
-0.083211 -0.052602 -0.024525 103 150 236
-0.061517 0.261645 0.047586 254 255 255
-0.103199 -0.129052 0.012588 102 150 236
-0.090434 0.211295 -0.078575 101 148 237
-0.022298 -0.189254 0.044592 254 253 254
-0.110353 0.233825 -0.065002 102 148 234
-0.108285 -0.262559 -0.008599 101 145 222
0.124736 -0.015490 0.015073 255 253 253
-0.076024 0.235129 0.019025 102 148 235
-0.100131 0.185609 -0.008990 102 149 236
-0.098030 -0.278625 -0.001458 103 148 231
-0.102369 0.186649 -0.006893 103 149 236
0.100796 -0.054330 0.037324 253 253 255
0.266604 -0.045256 0.022665 255 255 255
0.137669 0.016647 0.024406 254 255 255
-0.109978 0.078176 -0.031585 101 146 228
-0.109577 -0.140191 0.002087 102 149 236
-0.086405 0.083908 0.003853 103 149 236
0.284212 -0.069425 0.035372 253 255 254
-0.084925 0.152234 -0.033683 101 150 233
-0.107887 0.130390 0.008451 104 151 236
0.041047 -0.134535 0.043656 253 254 255
0.117064 0.103130 0.057745 253 253 253
0.219255 0.004139 0.050249 254 255 254
0.094314 -0.063838 0.021814 255 253 254
-0.101483 -0.235380 -0.078200 101 148 234
0.167973 0.048452 0.015068 253 254 255
0.017391 0.184435 -0.032397 253 253 255
0.005906 0.190630 0.062372 254 255 255
-0.101516 0.103394 -0.029264 104 149 235
0.040103 -0.136315 0.023791 255 255 255
0.257585 -0.035908 0.054589 254 254 253
-0.093296 0.089838 0.046732 101 150 236
-0.022923 0.211237 0.061337 255 255 254
-0.086205 -0.120187 -0.080807 104 150 236
0.104529 0.101353 0.060270 254 255 255
-0.080149 0.140723 -0.015835 101 149 237
-0.097857 0.104884 0.028140 100 148 236
-0.082571 -0.179966 0.012929 129 133 140
0.169401 0.055797 0.001850 255 255 255
0.076178 0.118216 -0.011165 255 254 254
-0.082761 0.239261 -0.063682 102 148 234
-0.045057 0.246696 0.036079 255 255 253
0.147116 0.073507 -0.000631 253 255 254
-0.046664 0.237407 -0.042179 255 255 254
-0.035248 0.238367 0.001244 255 255 253
0.196750 0.087428 0.038385 253 253 255
-0.083091 0.223793 0.037080 102 147 233
0.218867 -0.012614 0.003847 254 255 253
-0.103118 -0.270846 0.023820 103 143 216
0.086803 -0.074827 0.025550 254 253 253
-0.002665 -0.188833 0.056254 255 254 254
-0.085736 -0.187759 0.057057 101 148 237
-0.000266 0.192508 0.056056 255 254 253
0.180346 0.066029 0.032765 253 254 254
-0.006036 0.193263 -0.020706 254 255 254
-0.025766 -0.197518 0.055409 255 255 254
0.008385 0.197741 0.033151 254 255 255
-0.091290 0.052837 -0.068394 100 149 234
-0.102670 0.200986 0.016535 102 148 234
0.186542 0.060813 0.026764 253 253 253
0.025848 -0.153899 0.017532 255 255 253
-0.101000 -0.052164 -0.025058 102 150 237
-0.081779 0.224709 -0.075711 101 148 235
-0.025953 0.212914 0.037043 253 253 253
-0.066887 -0.265340 0.025034 255 255 253
0.262131 -0.057407 0.036641 254 254 253
-0.104399 0.156731 0.051545 102 149 237
0.175126 0.034684 -0.001368 255 253 255
-0.103867 -0.185095 0.028058 102 149 235
0.193825 0.017453 0.060373 255 255 253
-0.080757 0.150066 -0.008467 132 134 139
0.028571 0.179818 0.011885 254 255 255
-0.084979 -0.232098 0.054395 102 150 235
0.180183 0.026843 -0.009390 253 255 254
-0.043197 -0.223192 -0.022755 252 253 253
-0.106150 0.058662 -0.087220 103 150 235
0.100281 -0.034187 -0.003373 254 254 254
-0.101926 0.052601 -0.002839 102 146 228
0.145892 0.014946 0.062443 254 255 255
-0.104834 0.100753 -0.007393 102 150 235
0.226444 -0.010739 0.000011 255 254 254
-0.010114 -0.175281 0.025077 253 255 255
-0.114280 -0.175487 -0.078384 128 131 139
-0.023927 -0.192543 -0.023483 255 255 254
-0.082467 0.042343 -0.037975 103 141 213
-0.109116 -0.083734 -0.065933 101 148 235
-0.085648 0.033648 0.009630 102 141 213
0.221449 -0.013600 0.044064 253 254 255
0.273538 -0.052222 0.023728 255 254 253
-0.004711 0.211291 0.017987 255 255 255
0.152133 0.036444 0.057918 255 255 255
-0.081873 -0.101753 -0.064059 102 146 230
-0.103393 -0.173300 -0.065105 102 149 236
-0.102304 0.204351 0.014759 101 149 235
0.142220 0.075262 0.000230 254 254 255
-0.024902 -0.190467 0.054121 255 255 253
0.082067 -0.059742 0.033236 255 254 255
0.148135 0.029693 0.002314 253 255 254
-0.100209 0.027064 -0.015233 131 133 138
0.044344 0.166507 -0.016858 253 254 253
-0.086697 -0.213398 0.038091 102 149 236
0.001568 0.204954 0.028266 255 255 255
-0.038587 0.240832 0.053601 255 255 255
-0.081080 0.129665 0.011479 100 139 211
0.218474 -0.014425 0.053042 255 253 254
0.110858 0.087476 0.042383 254 255 254
-0.104968 0.250561 -0.075250 102 148 236
0.088340 0.109376 0.051155 255 255 255
-0.000961 0.205598 0.018175 253 254 254
0.021916 -0.145058 0.040871 255 254 253
-0.104685 0.119055 -0.009556 102 150 235
-0.079142 0.131114 -0.008106 103 149 237
0.215324 0.003359 0.022092 255 255 254
-0.082934 0.213390 -0.075903 102 147 230
0.100450 -0.035168 -0.001412 255 255 255
-0.096662 0.116606 -0.087383 104 149 237
0.057557 -0.100068 0.063605 255 255 254
-0.105545 0.186435 -0.017925 103 149 235
0.091839 0.125290 -0.019040 254 255 253
-0.086890 0.120934 -0.055216 103 150 234
-0.088410 0.175588 -0.026743 101 148 236
-0.093525 -0.225548 -0.035373 100 148 231
0.001056 -0.166213 -0.022424 253 253 253
0.101582 -0.037608 -0.004706 255 254 254
0.070092 -0.099792 -0.005746 253 253 254
-0.090670 -0.104877 -0.094821 101 150 236
-0.105535 0.012474 0.015493 103 150 236
0.113688 0.099493 0.038884 253 253 253
-0.101429 -0.087470 0.031909 101 150 235
0.168729 0.056811 0.040681 253 255 254
-0.103681 -0.164185 -0.080630 102 150 236
-0.104929 0.133325 -0.017719 101 146 227
0.098640 0.117522 0.015504 254 255 255
-0.078298 0.193164 0.008685 100 147 231
0.183519 0.021639 0.046446 255 253 255
0.189407 0.015869 -0.006193 255 255 255
-0.099417 0.192264 -0.049430 103 147 233
-0.082563 -0.243783 0.002730 103 150 236
-0.105454 -0.238876 0.037470 101 148 236
0.136528 0.022128 0.051349 255 255 255
-0.035997 0.239494 0.020770 254 254 254
-0.085608 -0.195569 -0.050528 102 149 234
-0.109914 0.129239 -0.008881 101 147 231
-0.081108 0.182692 -0.048746 101 150 235
-0.101226 -0.068272 -0.009938 102 149 234
0.037786 0.172257 -0.019337 253 254 255
0.021108 -0.138612 0.047389 254 255 255
0.027721 -0.145834 0.021943 254 254 254
0.112730 0.096016 0.059439 255 254 254
-0.084866 0.210344 -0.001679 102 149 237
-0.106692 0.205182 0.018456 101 149 236
-0.021593 0.210577 0.059247 254 253 255
-0.031055 -0.225910 0.050062 254 253 253
0.006328 0.185818 -0.019481 255 255 254
-0.103803 -0.145652 -0.012568 133 134 140
0.046215 0.149647 0.058274 254 255 255
0.246599 -0.025344 0.022846 255 253 254
0.232806 -0.022747 0.056123 254 254 255
-0.084501 -0.264617 0.058866 254 255 255
0.110745 0.088270 0.045057 254 255 253
0.050423 0.161584 0.039140 254 255 253
-0.105920 0.050466 -0.086135 102 148 235
-0.102966 0.126036 0.034629 103 149 237
0.023217 0.186573 0.027451 253 253 254
-0.001612 0.192991 -0.021901 255 255 255
0.106064 0.087828 0.001236 254 255 255
-0.086804 -0.260615 0.046334 102 149 235
-0.073030 0.271836 0.032077 253 253 253
-0.036227 -0.212853 -0.010968 252 253 253
-0.060079 -0.260029 0.023970 254 254 255
-0.084593 -0.078519 0.029958 104 150 237
0.062034 0.149062 0.005935 254 255 254
-0.105834 -0.192558 0.055173 102 149 236
-0.082291 0.031161 -0.022716 103 149 236
-0.080964 -0.037977 -0.026609 129 133 140
0.035616 0.172865 -0.015870 254 254 255
-0.082386 0.166126 -0.002427 101 148 233
0.119901 -0.007541 0.032532 253 255 253
-0.083555 -0.185105 -0.086184 102 150 236
-0.082203 0.226526 0.054764 103 150 236
0.229008 -0.027160 0.030660 254 255 254
0.086250 0.128886 0.050523 254 254 255
0.099495 -0.046697 -0.008045 253 253 253
-0.013011 -0.184681 -0.002341 253 254 254
-0.019503 0.215595 -0.043093 254 255 255
-0.053422 0.258211 -0.020855 255 254 254
-0.104499 0.273588 0.033632 101 144 219
-0.086423 -0.130747 0.019585 103 147 232
-0.081152 -0.240387 -0.069910 101 150 237
0.174208 0.053457 -0.004239 255 255 255
0.133298 0.078869 -0.012038 255 254 254
0.028203 0.181498 -0.008796 253 253 253
-0.084299 -0.269427 -0.042695 101 148 234
0.026819 -0.149826 -0.001535 254 254 253
-0.107150 0.181925 -0.017579 127 132 138
-0.108844 0.112101 -0.072448 104 151 236
-0.003403 0.194150 -0.029070 255 255 254
-0.107703 0.135938 -0.036598 102 150 236
0.049053 -0.117387 -0.023637 253 253 254
0.012964 0.180299 -0.005637 255 253 254
-0.084781 0.096329 0.037810 101 148 234
0.172130 0.030121 0.027035 254 255 253
0.079641 0.134160 0.007437 252 253 253
0.225117 -0.000333 0.043761 255 254 253
-0.085398 0.174039 -0.004284 101 149 236
0.044867 -0.129380 -0.022067 255 255 255
-0.104385 -0.238801 -0.004774 101 149 235
-0.084079 -0.174995 -0.058834 136 138 142
0.040323 0.165529 -0.031122 255 254 254
-0.098511 0.153347 0.033659 103 150 236
0.140317 0.005469 0.033044 255 255 255
-0.083812 0.079361 -0.069264 101 144 225
-0.099170 0.165487 0.017481 103 148 236
0.034499 -0.121758 0.063199 255 255 255
0.036565 -0.137286 0.001586 253 253 254
0.057786 0.138588 0.051448 255 255 255
0.016987 -0.144823 0.024421 254 254 254
-0.084005 -0.110711 0.034656 103 149 235
-0.103138 0.271653 0.025643 101 149 237
-0.105405 0.196698 0.033137 102 150 236
0.070016 0.114102 0.009735 254 254 255
0.067282 0.128833 -0.013708 255 255 254
-0.107477 -0.218432 0.022966 102 149 234
-0.104187 0.211625 -0.045416 133 138 144
0.154517 0.063590 -0.001078 255 254 253
-0.009020 -0.193838 0.006340 253 254 255
-0.107990 0.176750 0.003570 102 150 235
0.000214 -0.181317 0.028386 255 255 254
-0.095418 0.078378 0.039777 101 149 236
0.142322 0.076399 0.037710 254 253 254
-0.104773 0.061786 -0.045198 102 150 234
-0.108256 -0.120059 -0.084583 103 150 237
-0.105751 -0.220642 -0.014272 103 148 236
-0.085167 0.143759 0.049742 104 145 222
0.145501 0.029212 0.012929 255 255 255
0.259686 -0.040163 0.025547 254 254 254
-0.043168 -0.239465 -0.034110 255 254 255
0.072110 0.140745 -0.011328 253 251 253
-0.043549 -0.215950 -0.031913 255 255 253
0.175975 0.031059 0.038152 255 255 253
-0.087502 -0.275290 0.027694 104 146 224
-0.084178 0.243968 -0.055508 101 147 235
-0.078996 -0.148610 -0.084325 103 150 237
0.020057 -0.139965 0.022939 253 253 255
-0.081617 -0.140382 -0.043143 101 148 236
0.174669 0.035893 0.036357 254 254 255
-0.081510 -0.147346 -0.063488 101 148 232
-0.082579 0.267248 -0.043753 102 148 236
0.018693 0.172026 -0.017219 254 254 254
-0.082047 -0.263141 -0.060686 103 149 236
-0.086605 0.128773 -0.054581 103 149 232
0.144053 0.027810 0.039835 255 255 255
0.158286 0.059845 0.064229 254 254 253
-0.085896 0.083531 -0.077300 102 149 235
-0.094594 -0.268651 -0.055450 103 148 235
-0.099254 0.219415 0.059084 102 148 236
-0.064002 -0.243192 0.047661 253 255 253
-0.082675 -0.280058 -0.037441 125 130 138
-0.084945 -0.038711 -0.002886 103 149 235
0.078084 0.132466 0.060296 254 255 254
0.048601 0.160456 0.012951 193 196 195
0.056251 -0.095171 0.030689 255 255 254
0.214700 0.089369 0.008806 254 255 255
-0.043426 0.243887 0.044407 253 253 254
-0.101232 0.177814 0.036632 101 147 230
0.139312 0.003068 0.034557 254 254 253
0.001765 -0.181883 -0.018299 254 255 255
-0.085239 -0.110099 0.013405 103 150 237
0.202365 0.075625 0.042354 254 253 253
-0.107692 -0.078852 0.025294 101 143 214
-0.086392 0.192768 0.023982 103 149 236
0.037098 0.171268 0.011353 253 255 253
0.223467 0.106048 0.023540 253 254 253
0.119736 0.082568 0.017302 255 255 255
0.082363 0.136480 -0.003881 255 254 254
-0.079128 0.057288 0.033691 102 150 236
-0.062395 0.263207 0.056294 255 255 253
-0.064460 -0.247451 -0.016256 253 252 253
-0.087320 -0.189477 -0.070987 104 146 228
-0.074354 -0.252567 0.031046 254 253 253
0.167298 0.061953 0.064454 254 253 253
-0.079458 -0.272582 0.008724 101 150 236
-0.099162 -0.277048 0.020569 103 148 229
0.079769 -0.084120 0.000541 255 253 254
-0.082877 0.029804 -0.006340 102 150 235
-0.080538 -0.264741 0.045636 255 255 255
0.165975 0.055991 -0.007397 255 254 255
-0.034950 -0.206679 0.031581 253 254 254
0.134002 -0.001629 0.047007 255 255 254
0.026093 0.168983 0.051855 255 255 255
0.023082 -0.154236 0.003558 253 254 254
-0.085400 0.271238 -0.028855 101 149 236
-0.037071 -0.230133 0.032874 255 255 255
0.033246 -0.121529 -0.021839 255 254 253
-0.022835 -0.197742 -0.013301 254 254 253
-0.103169 0.232558 0.055357 102 150 236
-0.102490 0.084709 -0.042902 101 149 236
0.020117 -0.159526 0.003585 255 253 254
0.016916 0.195141 0.042477 255 254 255
-0.103085 -0.117576 -0.058364 131 134 140
0.040895 0.170562 0.048111 255 253 255
-0.041632 0.231177 0.022370 253 255 254
-0.107430 -0.156399 -0.089179 101 148 236
-0.011780 0.201483 0.045046 253 254 254
-0.103762 0.157771 0.004242 101 150 235
-0.002575 0.191518 0.019036 255 253 254
-0.081575 -0.067517 -0.002185 133 134 139
0.014824 -0.165253 0.049166 254 254 253
-0.100314 -0.202204 0.043913 132 138 143
-0.087418 0.177511 0.023852 104 144 219
0.163008 0.033924 0.024201 255 255 254
0.173323 0.067844 0.065929 254 253 254
-0.106529 -0.155053 -0.034684 133 139 143
-0.008413 0.202029 0.010831 254 255 255
-0.030952 0.221548 -0.031071 253 255 254
0.102803 -0.031508 0.012020 253 254 253
0.012037 -0.147242 -0.011641 253 255 254
-0.101328 -0.154557 0.010572 101 149 236
-0.082871 0.030020 0.002750 103 150 236
-0.102088 0.061708 -0.087406 103 149 236
0.026287 -0.152874 0.063314 255 253 255
-0.077192 0.170290 0.055383 177 183 182
-0.082814 -0.072327 -0.063942 133 137 143
-0.088447 -0.196435 0.060743 103 145 225
0.085337 -0.072432 0.038641 254 253 254
0.084533 -0.070169 0.003030 253 254 254
-0.088840 -0.045064 -0.034699 103 150 236
0.058856 -0.092820 0.063983 255 255 254
0.202734 0.098950 0.037170 254 253 254
0.112494 -0.031245 0.039329 255 255 255
-0.080649 -0.160077 0.000481 135 136 141
-0.083851 -0.231489 -0.084412 121 138 160
-0.103589 0.095980 -0.044181 103 150 235
-0.033736 -0.202674 0.045442 255 254 254
-0.078665 0.267168 -0.042402 102 149 235
0.261572 -0.041991 0.023787 255 255 255
0.018526 -0.162762 -0.003568 254 254 254
-0.049052 0.238565 0.028295 254 254 255
-0.047842 0.249328 0.031232 254 255 255
0.043463 0.158143 0.060848 255 254 254
-0.080442 0.107519 -0.066401 102 141 214
0.013400 0.179172 0.054236 255 255 253
0.150756 0.068747 0.015353 253 253 254
0.063054 -0.106192 0.016358 254 255 255
-0.086506 0.122386 -0.012996 101 149 236
-0.094334 0.137176 -0.084359 101 148 236
0.108373 -0.043419 0.027269 254 253 254
0.043539 0.167803 0.033815 255 253 254
-0.080718 -0.261032 -0.009100 253 254 255
-0.072415 -0.271579 0.041652 253 255 254
-0.057328 -0.250782 0.048622 254 255 253
-0.103677 0.245556 0.014566 101 150 236
0.248097 -0.029741 0.009578 253 254 254
-0.106411 -0.117159 0.021394 102 150 236
-0.102798 0.220986 -0.038367 101 150 236
0.128608 -0.017280 0.005504 255 255 254
-0.087638 -0.175720 0.059339 102 149 237
-0.083011 0.165537 -0.001655 102 149 235
-0.106806 -0.185797 0.015598 103 148 235
-0.029735 -0.217094 0.061295 253 254 253
-0.114523 -0.115325 -0.013387 105 138 199
-0.102080 0.078843 0.028194 103 143 217
-0.028157 0.218258 -0.031751 255 254 255
-0.106055 -0.240148 -0.059060 102 150 235
0.146881 0.072810 -0.003903 254 254 254
-0.058535 -0.240326 0.009808 254 253 255
-0.099793 -0.153980 0.009137 103 150 234
-0.086961 -0.227201 -0.009399 102 149 236
-0.087025 0.186590 0.054705 104 146 224
