ply
format ascii 1.0
element vertex 1180
property float x
property float y
property float z
property uchar red
property uchar green
property uchar blue
end_header
0.102864 -0.039653 0.002525 255 254 254
0.221212 0.104440 0.033930 255 254 253
-0.106589 0.043654 0.034816 103 149 237
-0.087189 0.160500 -0.083027 101 148 237
-0.048366 0.245124 -0.038331 255 255 255
-0.104703 -0.252424 -0.077928 102 149 236
-0.104123 -0.169753 0.039537 102 149 237
-0.086215 -0.139897 -0.048891 103 150 238
0.203820 0.065898 0.032090 255 254 255
-0.038606 0.224352 -0.000885 254 255 255
-0.089839 -0.284068 -0.017724 102 149 238
0.176851 0.016993 0.007275 255 255 255
0.125034 -0.001392 0.013994 254 254 254
0.075880 0.116164 0.011854 255 255 255
0.174763 0.066048 0.015545 254 255 255
-0.066644 -0.245057 -0.022848 255 255 255
-0.117431 -0.082010 -0.089242 103 151 238
-0.087530 0.261171 -0.008757 102 150 237
-0.089442 -0.248344 -0.078701 101 149 237
0.029927 0.152731 -0.004599 253 255 255
-0.087336 0.045527 -0.014547 100 149 238
-0.112763 0.253718 0.010680 103 150 237
-0.013889 -0.192531 0.029054 255 255 254
-0.117387 0.054029 -0.035564 101 151 237
0.037441 -0.114135 0.004225 255 253 254
-0.101487 -0.188686 0.055236 101 149 238
-0.082215 0.061531 0.034676 103 150 238
-0.012941 0.212019 0.013993 255 255 255
0.250475 -0.044369 0.017921 255 255 255
-0.090489 -0.134341 0.011226 101 149 238
0.185555 0.048513 0.025802 254 255 254
0.011777 -0.148164 0.028755 255 254 254
-0.088398 0.234278 0.016672 102 149 235
-0.106763 0.206023 0.011325 103 151 237
-0.096233 -0.068053 0.031232 102 151 237
0.037712 -0.131558 0.015961 254 254 254
-0.108279 0.264816 -0.022789 103 150 239
-0.070743 -0.262127 0.033976 255 254 254
-0.080180 0.255191 0.055847 254 254 255
-0.046206 -0.217058 -0.000736 255 254 255
-0.088758 0.091050 -0.028247 100 150 238
-0.087652 -0.251210 0.038284 100 148 236
-0.042088 0.242430 -0.026262 254 254 254
-0.037956 0.232433 0.059234 255 254 255
-0.018780 0.216450 0.041471 254 255 255
-0.109944 -0.048780 0.001255 102 151 236
-0.068121 -0.269240 0.022726 255 255 255
-0.092373 0.203515 -0.070217 103 151 237
0.037261 0.149530 0.016137 255 254 255
-0.098734 -0.062873 -0.084891 102 151 237
-0.109866 -0.041386 -0.038947 101 150 238
0.244998 -0.038434 0.037264 253 255 255
0.071889 0.135368 0.043160 255 254 255
-0.089292 0.166065 -0.065670 101 150 238
0.039010 0.150351 0.010476 255 254 255
-0.095726 0.271528 -0.042377 103 151 237
-0.085590 -0.275296 0.024518 103 149 237
-0.049910 0.235364 -0.020274 255 255 255
0.251999 -0.060746 0.052110 255 255 255
-0.044371 0.240292 -0.019190 255 255 254
0.088901 0.116877 0.030626 255 255 255
-0.098276 0.237505 -0.079746 100 148 235
0.067078 -0.076284 0.064783 255 255 255
-0.087740 -0.274101 0.030622 103 150 238
-0.093700 0.228750 -0.042669 100 150 236
0.162866 0.051526 0.048398 255 255 255
0.178956 0.014455 0.025713 255 255 254
0.137362 -0.005214 0.006085 255 254 254
-0.109857 -0.160109 0.012045 103 150 236
0.196741 -0.004106 0.024917 254 254 255
-0.089461 0.171322 0.050437 101 149 238
-0.105050 -0.117089 -0.072589 100 149 236
-0.090657 0.089516 0.028796 103 151 238
-0.093939 -0.193055 -0.059627 101 149 237
-0.113008 0.052150 -0.089793 100 149 237
0.016080 -0.138152 0.051648 255 254 255
-0.109486 -0.151878 -0.005323 103 151 238
-0.042843 -0.214189 0.054397 254 255 255
0.115496 -0.013101 0.003791 255 255 255
0.003666 0.184309 0.047494 254 254 255
0.123155 0.086667 0.054184 255 255 255
0.013573 0.187677 0.033749 255 254 255
0.119097 0.076946 -0.001302 253 255 254
-0.109988 0.270076 0.019505 103 150 235
-0.089605 0.156145 -0.042752 101 148 236
-0.087503 -0.165113 -0.023552 100 149 236
-0.101172 0.047934 -0.088779 102 151 238
-0.110416 -0.234500 -0.023440 103 150 238
-0.063956 0.262469 0.059692 254 254 254
-0.004868 -0.184223 0.035762 254 255 254
-0.059837 0.250407 -0.037062 255 254 255
-0.103528 0.135627 0.015645 103 150 237
0.115487 -0.027403 0.048827 255 255 254
-0.089792 0.239815 -0.000991 103 150 238
-0.091651 0.184698 -0.086784 103 151 235
0.152798 0.056287 0.054075 254 255 254
0.189056 0.018927 0.047574 255 253 254
-0.104557 0.189044 -0.068152 102 151 238
0.026379 0.159212 -0.008197 255 255 254
-0.096060 -0.287599 -0.042780 102 149 236
-0.068247 -0.266564 -0.029411 255 255 254
0.162458 0.040273 0.052783 254 255 254
0.086099 0.119174 -0.016069 255 255 254
0.040139 0.151367 0.062852 254 255 255
0.083774 -0.065177 -0.007456 253 255 255
-0.074663 -0.268631 0.046779 255 255 253
-0.110542 0.222475 -0.072724 102 150 238
0.147765 0.062407 -0.002557 253 255 255
-0.033288 -0.214223 0.058856 255 255 255
-0.093237 -0.092307 0.015630 102 150 238
0.011188 -0.162840 0.046271 255 255 255
0.027003 0.175071 0.008871 255 255 254
0.182292 0.007429 0.011329 255 255 254
-0.106928 -0.139308 0.039748 103 148 236
0.114069 0.079022 -0.004905 254 255 253
-0.048996 0.233093 0.029035 255 255 255
-0.102810 0.206876 0.054400 102 150 238
-0.105995 0.224751 -0.063569 102 150 237
0.093820 0.110615 0.022236 255 255 255
-0.084011 -0.278762 0.009321 255 255 255
-0.087648 -0.145267 0.023325 101 149 236
-0.099854 0.103325 0.042647 100 149 238
0.069579 -0.069711 0.065988 255 254 255
0.254175 -0.046847 0.016846 255 255 255
0.271620 -0.063492 0.032447 254 255 255
-0.091105 0.228897 -0.042555 103 150 236
0.106005 -0.036196 0.030069 255 254 254
0.246065 -0.041291 0.048146 253 255 254
-0.108217 -0.216903 -0.024775 100 150 238
0.041657 -0.102428 0.064214 254 255 255
-0.114017 -0.122018 0.001848 100 149 236
-0.088900 0.204309 -0.063485 128 135 145
0.172447 0.019018 0.059022 255 255 254
0.175669 0.031162 0.024820 254 255 255
-0.048908 0.232482 0.036319 255 255 254
0.212667 0.085409 0.010674 255 255 255
-0.108331 0.062092 0.009239 100 149 238
-0.077897 -0.281986 -0.029816 255 255 255
0.204389 -0.011835 0.016140 255 254 255
-0.107477 -0.176480 -0.047823 102 151 237
-0.099567 -0.277550 0.022797 102 148 234
0.061260 -0.087288 0.042902 254 255 255
0.161546 0.034576 -0.004554 255 254 254
-0.110697 0.102923 -0.044456 101 149 238
-0.026850 -0.206476 0.060038 254 255 255
-0.108582 0.059293 -0.018050 101 149 236
0.158544 0.040479 0.023705 255 254 255
0.077585 -0.067939 -0.009771 253 253 253
-0.090148 -0.142085 -0.069924 101 148 238
-0.116369 -0.090553 -0.056941 100 148 236
-0.088637 0.056204 -0.071454 101 149 237
-0.103827 -0.159263 0.048582 102 150 238
-0.089544 0.214424 0.020109 103 151 237
-0.028648 -0.209817 0.017082 255 255 254
0.210228 0.076351 0.038278 255 254 254
-0.103655 -0.222656 -0.032461 100 150 238
0.085833 -0.055055 0.023928 253 253 254
0.093456 0.098806 0.015009 255 255 254
-0.096866 -0.036635 -0.005858 102 150 237
0.043764 0.149741 -0.024832 255 254 255
-0.077242 -0.262066 -0.025553 254 255 255
0.049483 0.157049 0.025472 254 254 254
0.080603 0.111868 -0.000258 255 255 254
-0.107682 0.227014 -0.007000 103 149 234
0.127547 0.058006 0.062048 255 254 254
0.085276 -0.054742 0.029365 255 255 254
0.274357 -0.069558 0.002861 255 255 254
-0.054416 -0.228453 0.003616 255 255 255
-0.090209 0.230426 -0.067784 102 150 236
0.017544 -0.154045 -0.014717 255 254 255
-0.091294 -0.140084 -0.045174 100 148 232
0.025146 -0.126749 0.052938 253 254 254
-0.091875 0.031666 0.021378 101 148 236
-0.095717 -0.217730 -0.017650 100 149 238
-0.106169 -0.211713 -0.061081 103 148 237
-0.076860 0.260299 -0.021042 255 255 255
0.094417 0.111238 0.045224 255 255 255
0.086890 -0.047048 0.024468 255 255 254
-0.000821 0.206119 0.044496 254 255 255
-0.030810 -0.215768 0.045579 254 255 255
-0.103677 0.195296 0.002697 100 150 238
0.140408 0.057545 0.062576 255 255 255
-0.112188 0.041994 -0.082133 102 151 239
-0.108582 0.122322 0.001496 134 139 146
-0.093396 0.123943 -0.077399 102 149 236
-0.092824 0.116673 -0.071255 101 150 238
-0.110991 0.101043 -0.077705 101 150 236
-0.098211 0.033069 -0.043555 100 150 239
-0.093535 0.248736 -0.063022 102 150 236
-0.113678 -0.056631 -0.067553 101 149 238
0.067933 0.120812 -0.012769 254 255 255
0.141405 0.049055 0.045101 254 255 254
-0.104961 0.079025 -0.037086 101 150 236
0.001572 -0.174362 0.054915 254 255 255
-0.038771 -0.228507 -0.003217 255 254 254
-0.062867 0.248929 0.025660 255 255 255
-0.080367 -0.263100 -0.023465 255 255 255
-0.015789 -0.178301 0.017321 254 255 255
-0.110486 0.069163 -0.045623 100 148 238
0.158519 0.026127 0.033206 253 253 254
0.079375 0.111315 0.028792 254 255 255
0.067380 -0.094278 -0.000207 253 255 255
-0.104579 -0.135262 -0.036776 101 149 238
0.086068 0.120762 0.057118 255 255 255
-0.033015 0.231274 0.034935 255 255 255
0.219371 0.085150 0.029455 255 255 255
-0.112109 -0.145853 0.019308 103 150 237
-0.004317 0.205481 0.004170 255 255 255
-0.114329 -0.120855 -0.082867 101 149 237
0.217839 -0.023320 0.061617 255 255 255
-0.106798 -0.091826 -0.067717 102 150 236
0.106962 -0.020520 0.034564 255 255 255
-0.104395 0.069700 0.018826 102 150 238
0.077265 0.126384 0.043600 255 254 254
-0.006521 -0.186605 0.018540 255 254 254
-0.105085 -0.230048 -0.083245 102 148 237
-0.089831 -0.103440 -0.001772 102 149 237
-0.103807 0.062832 -0.077522 101 150 236
0.143944 0.046056 0.030880 254 255 254
0.027899 0.160836 -0.000006 254 255 255
-0.110200 0.252934 -0.036988 101 150 238
0.101888 -0.026934 0.042660 253 255 255
0.144694 0.049020 0.007210 255 255 255
0.246516 -0.040240 0.059901 253 255 255
0.221166 -0.011247 0.064550 255 254 254
0.208011 -0.020194 0.045403 254 255 255
-0.108860 -0.066752 -0.020173 103 149 235
0.087893 -0.047858 -0.003379 254 254 255
0.071810 -0.085036 0.051094 255 255 254
-0.091864 0.151528 -0.075484 101 150 236
-0.091755 -0.100631 0.029474 102 151 236
-0.092363 -0.259093 -0.000894 102 149 237
0.166201 0.045824 0.029196 254 255 255
-0.109492 0.096486 -0.058378 101 150 238
-0.104830 0.191449 0.031572 102 150 237
-0.113630 0.069724 -0.045043 101 150 235
-0.089549 0.179848 0.051691 101 149 238
0.013048 -0.143621 0.010558 254 254 253
0.183879 0.065253 0.056064 254 255 255
0.064637 -0.078924 0.009898 254 255 255
0.120293 -0.003749 0.008441 253 254 254
-0.107888 0.060062 -0.036308 100 148 237
0.138118 0.071922 0.033835 254 255 255
0.057298 0.131132 -0.006360 254 255 255
0.148212 0.061397 0.027475 254 255 253
-0.090046 -0.036502 -0.056496 102 148 235
-0.105036 -0.117760 0.007406 103 150 236
0.171087 0.022973 0.025399 255 255 254
0.196688 -0.005401 0.034226 255 255 255
-0.113762 -0.195210 0.044204 103 150 237
-0.113904 0.228675 0.003490 102 149 235
0.071243 0.130475 0.060429 255 255 255
0.033266 0.154737 -0.007863 254 254 255
-0.084947 -0.056522 0.008256 134 137 145
-0.109987 -0.104547 -0.066619 102 150 236
-0.107632 -0.254253 -0.033470 101 148 236
0.291850 -0.087869 0.029160 255 255 253
0.091337 0.098734 -0.003512 254 254 255
-0.023120 0.209885 0.016615 254 255 255
0.011258 -0.145608 0.021406 254 255 255
-0.107390 -0.153673 -0.093706 101 149 236
-0.012382 0.213817 0.041918 254 255 255
0.044801 -0.120335 -0.015926 253 253 254
-0.083591 -0.113526 -0.093160 101 150 237
0.080133 0.122745 0.029735 254 255 255
-0.107942 -0.206156 0.020612 102 149 236
-0.002009 -0.161946 0.008147 255 254 254
-0.093503 -0.215108 0.019922 103 150 239
-0.068591 -0.263332 -0.034937 254 255 255
-0.028891 -0.191513 0.052182 255 255 255
-0.109721 0.059255 -0.093079 100 148 238
-0.089208 0.103000 0.009871 102 150 237
0.128067 0.002070 0.006337 254 255 255
-0.001090 -0.179654 0.046496 255 255 255
0.042404 0.161698 0.012760 253 255 255
0.209302 0.070316 0.019371 254 255 255
-0.088411 0.272688 -0.033891 103 150 236
-0.030491 -0.215760 -0.010919 255 255 255
-0.051671 0.250202 -0.029349 255 255 254
-0.112197 0.047511 -0.066986 100 150 238
-0.105930 -0.233315 -0.037719 100 150 238
-0.086872 -0.269689 -0.052461 100 150 238
-0.106506 0.264120 -0.058743 101 148 236
0.098571 -0.054208 0.004265 254 254 255
0.282757 -0.087363 0.037596 253 255 255
0.071397 -0.088045 0.024053 254 255 254
-0.020855 -0.182305 0.061256 254 254 255
0.230298 -0.042308 0.051049 251 252 254
-0.081708 -0.259983 0.047749 255 255 255
0.085533 0.123476 0.015109 255 255 255
0.140769 0.051671 0.013483 253 255 254
0.038139 0.166535 -0.020215 255 255 255
0.153452 0.037427 0.026302 255 255 255
-0.093398 -0.229498 -0.063451 101 149 235
-0.090304 -0.198784 0.047147 101 149 237
-0.083838 0.090301 -0.044525 103 151 236
-0.116631 -0.126994 -0.073656 100 149 238
-0.110652 0.145555 0.047574 101 149 238
0.013946 -0.157760 0.035916 255 254 255
-0.033488 -0.216296 0.009474 255 255 255
0.071867 0.133646 0.019677 255 255 255
0.136077 0.054939 0.020296 255 254 255
0.119498 -0.006114 0.055250 255 255 255
0.234390 -0.043415 0.063910 255 253 255
0.059783 -0.087871 -0.008316 254 255 254
-0.099510 0.071590 -0.092718 101 149 236
0.036881 -0.113849 -0.012949 254 255 255
0.056528 -0.087976 0.006538 255 255 255
-0.015895 -0.196476 0.015290 255 254 255
-0.093161 0.125666 -0.072349 101 149 237
-0.089575 -0.230235 0.051630 100 149 238
-0.030306 0.228429 -0.033319 255 255 254
-0.108009 0.046969 -0.075307 100 148 236
-0.091609 -0.199906 0.028672 100 149 238
0.117447 0.077993 0.006065 254 254 254
-0.108746 0.051864 0.035614 102 151 237
-0.071146 -0.245260 0.060768 255 255 255
-0.007404 -0.169232 0.001526 255 255 255
0.251553 -0.043199 0.058585 255 255 255
-0.103135 -0.193210 -0.071261 102 150 236
0.183615 0.015519 0.062247 254 255 255
-0.062784 -0.251361 0.061057 255 255 255
0.105240 -0.024672 0.023235 255 254 255
-0.015863 -0.197173 0.042298 255 255 255
-0.039240 0.240952 -0.028794 255 254 254
0.071553 0.116991 0.054734 255 254 255
0.028798 -0.122093 0.036040 255 255 255
-0.115054 0.231644 0.027393 101 151 236
-0.080061 -0.254427 0.037025 255 254 255
-0.107705 0.164351 -0.054802 102 150 238
-0.108394 0.161057 0.009280 102 149 236
-0.092814 0.256700 0.018288 102 150 238
-0.100991 0.111456 -0.095572 100 150 239
-0.029777 -0.196795 0.008134 255 255 255
-0.102759 0.202600 -0.055827 103 150 237
-0.110418 0.059035 -0.042557 101 149 237
-0.108398 -0.151403 0.019705 100 148 234
0.129140 0.062017 0.035634 253 255 254
0.038355 -0.128658 0.011569 255 255 255
0.003536 -0.156010 0.032478 254 255 255
-0.079901 -0.277487 0.007750 255 255 255
-0.055360 -0.231016 -0.009663 255 255 254
0.095375 0.095799 0.051974 255 255 255
-0.106832 -0.124875 0.031181 101 149 237
0.031356 0.173133 0.062096 254 255 254
0.106991 0.086494 0.028514 255 255 254
-0.103062 -0.162227 -0.078942 100 150 238
0.202188 0.083934 0.027820 255 255 255
-0.109675 0.068405 -0.078767 101 148 237
0.071427 -0.087845 0.012490 255 255 255
0.096345 -0.038137 -0.007029 254 255 253
0.098794 -0.049759 0.013332 254 255 255
-0.089150 -0.274758 -0.054049 100 149 236
-0.108761 -0.067843 -0.001724 103 150 238
-0.084667 -0.266200 -0.012371 255 255 255
0.014821 -0.142191 0.044551 255 254 255
0.156911 0.057637 0.060661 255 254 254
0.186682 0.069702 0.050607 255 255 254
0.139399 0.047220 0.042221 255 254 255
-0.087732 -0.183325 -0.065258 103 150 239
-0.086950 0.188293 -0.080427 101 149 238
0.022401 0.164414 0.062035 255 254 254
-0.106154 0.156069 0.032977 102 151 236
-0.084856 0.133882 -0.085417 133 138 146
0.170660 0.027910 0.054142 253 254 254
-0.087725 0.188109 -0.020446 102 150 238
-0.111880 -0.262127 -0.031912 139 141 150
0.056369 0.147696 0.004550 254 255 254
0.023454 0.162702 0.005068 255 255 254
-0.090829 0.184316 -0.050571 103 151 238
0.157868 0.034323 0.027490 254 255 255
-0.023536 0.210041 0.017480 254 255 255
0.173896 0.034028 0.021483 253 255 254
-0.042270 -0.209669 0.029793 254 255 255
0.062972 -0.098547 0.020476 254 255 255
0.153322 0.038120 0.067419 255 255 255
-0.112375 0.196872 -0.061337 101 146 229
-0.086117 -0.243197 -0.019772 101 149 237
-0.108926 0.108181 -0.063571 103 149 236
-0.091321 0.223210 -0.029599 102 149 237
-0.116325 -0.072383 -0.067705 102 150 237
0.061350 -0.079678 0.034339 254 255 253
-0.112014 0.194973 -0.020959 102 149 234
-0.092610 -0.177562 -0.054103 101 149 235
0.176972 0.056427 0.017354 254 255 255
-0.026038 -0.189159 0.041314 255 255 255
-0.091342 0.205062 -0.030192 101 149 238
-0.075388 -0.272841 0.040593 255 255 255
-0.092944 -0.212141 -0.046155 101 149 237
-0.102522 -0.067075 -0.063139 102 151 237
0.056887 -0.083143 0.028017 254 255 255
0.093072 0.102258 -0.004298 255 255 254
-0.112814 -0.135441 0.040929 100 151 237
-0.072174 -0.247281 0.053014 254 255 254
-0.091561 0.216625 -0.081931 100 150 236
-0.091737 -0.087000 -0.012643 102 151 236
0.014903 -0.140681 -0.002884 254 255 254
0.066046 -0.079876 0.065110 255 255 255
-0.084744 0.053319 -0.007074 103 150 237
-0.073629 0.257733 -0.020321 254 255 254
-0.089438 -0.168793 0.033441 102 150 237
-0.113338 0.081410 0.024287 101 148 233
-0.048137 -0.221875 -0.010605 254 254 253
-0.097484 -0.132273 0.047390 100 148 237
-0.088668 0.060066 0.019643 103 151 237
-0.091970 -0.229636 0.048080 102 149 238
-0.095659 0.181009 -0.083483 102 149 237
-0.089725 0.207009 -0.082570 100 149 237
0.078738 0.111810 0.004361 255 254 255
-0.025879 -0.188079 0.011143 255 255 255
-0.107889 -0.244549 -0.006112 100 149 235
-0.091051 0.198933 -0.018659 102 149 235
-0.030656 0.229756 0.017104 255 255 254
-0.096784 0.275376 -0.044277 102 149 238
-0.094592 -0.105327 0.037834 101 150 238
-0.077812 -0.272182 0.058114 255 254 255
-0.044407 -0.214608 0.003084 254 255 254
-0.094800 -0.162613 0.020473 102 149 237
-0.112137 -0.042324 -0.043036 101 149 236
0.160644 0.021610 0.038746 253 255 253
-0.092690 -0.276994 0.021469 255 255 255
-0.104924 0.129810 -0.064252 100 149 237
0.040993 -0.115656 0.069198 252 253 253
-0.011086 -0.189634 0.014638 254 255 255
0.048573 0.139522 -0.004484 254 255 255
-0.107270 -0.102579 -0.032228 102 151 238
0.185722 0.024036 0.044856 254 254 254
0.224939 -0.018296 0.061834 253 254 255
0.135158 0.074569 0.019158 255 254 255
-0.091082 0.071107 -0.003648 101 150 236
-0.112406 0.180934 -0.085154 102 150 238
0.081232 -0.064280 0.027536 255 255 255
-0.116336 -0.090804 -0.047637 101 149 238
-0.114259 -0.211577 0.001308 102 151 238
-0.092668 -0.130316 0.021371 100 149 238
-0.092990 -0.139231 -0.062045 101 149 236
-0.092121 -0.063112 -0.046750 101 149 236
-0.088308 0.068974 -0.095585 102 150 237
-0.111932 -0.069535 -0.019627 103 149 236
-0.054703 0.240674 -0.016716 255 255 255
-0.097512 0.017701 -0.048437 101 150 239
-0.068499 0.251875 -0.030477 254 254 255
-0.113554 0.086049 0.023358 101 150 237
-0.086094 0.176878 -0.078147 101 150 236
-0.091337 0.075655 -0.010549 103 150 237
0.071377 -0.086026 0.051304 255 254 254
-0.105388 0.099658 0.014231 101 150 237
0.025195 -0.147193 0.064079 255 254 254
-0.013862 -0.176637 0.027583 255 255 255
-0.084560 0.246112 -0.076777 113 160 238
0.012513 -0.152652 -0.006525 213 214 206
-0.102849 -0.291155 -0.019863 102 149 236
-0.017385 0.204640 0.001821 255 255 255
-0.089611 0.127525 -0.056581 103 150 238
0.222650 -0.034756 0.026603 254 255 255
0.140315 0.047818 0.056660 255 255 255
-0.055210 -0.247215 0.022169 255 255 255
-0.031973 -0.195804 -0.010566 255 255 255
-0.116687 -0.091973 -0.034054 102 151 238
-0.111118 -0.058267 -0.075588 102 149 238
-0.089952 0.087136 0.018310 101 149 236
-0.114231 -0.114640 -0.049940 100 148 235
-0.110801 0.105635 -0.096789 103 146 227
-0.107164 -0.143325 -0.076900 100 148 236
0.054232 -0.107881 0.007635 255 255 255
-0.010054 0.209709 0.057663 255 255 255
-0.041190 -0.229134 0.009020 254 255 255
-0.086557 -0.274597 0.022479 102 150 237
-0.110596 -0.287998 -0.019211 103 148 233
-0.090213 0.131492 0.001708 101 149 238
0.023827 -0.133411 0.064443 255 254 255
-0.108735 -0.070737 -0.095927 100 147 233
-0.092141 -0.272867 0.038300 253 255 254
-0.090510 0.153293 -0.015010 102 149 238
-0.103743 -0.110020 -0.083635 101 150 236
-0.088013 0.213583 -0.030633 101 149 236
-0.089789 -0.254417 -0.031022 102 150 237
0.142152 -0.002870 -0.000780 255 255 254
-0.027086 0.211932 0.028226 254 255 254
0.053586 0.154445 -0.024379 253 255 254
-0.074049 0.259203 0.005980 255 255 253
-0.033499 -0.198289 -0.021025 254 254 254
-0.095822 -0.206607 0.057035 103 150 237
0.123245 -0.016472 0.061409 255 254 255
-0.113568 -0.173313 -0.050501 102 149 236
0.007619 0.177082 -0.030909 255 255 255
0.042515 -0.123008 0.035883 254 254 254
0.006065 -0.168427 -0.005622 255 255 254
0.043276 -0.105384 0.005401 255 254 255
0.027019 0.176406 0.025878 255 255 255
-0.055736 -0.249106 -0.011629 255 255 255
-0.092929 -0.204465 0.038942 102 148 234
-0.068385 0.249939 0.050738 255 254 254
-0.085606 0.143753 -0.042392 103 148 238
-0.085886 -0.275960 -0.023034 255 255 255
0.042424 -0.123849 0.020258 255 255 254
-0.090339 0.061094 -0.073645 102 150 238
-0.104847 0.183352 -0.070006 103 150 238
-0.112148 -0.138606 0.012567 103 149 237
0.025367 0.163259 0.009580 255 255 254
-0.111784 0.150687 0.031886 100 149 238
0.089933 -0.065442 -0.003873 255 255 255
-0.091354 -0.101492 -0.085187 101 150 236
-0.091726 0.225674 -0.081469 104 147 234
-0.111821 -0.155379 -0.029642 102 150 236
-0.074375 0.261933 -0.036495 255 255 254
0.119363 -0.006126 0.054934 255 254 255
-0.089011 0.080893 -0.082298 103 150 238
-0.110931 0.096944 -0.089583 103 150 236
0.274995 -0.076379 0.037488 255 254 255
-0.074614 -0.249893 0.006925 254 254 255
0.136621 0.080151 0.048460 255 254 255
0.291881 -0.083912 0.018761 255 255 255
-0.096290 -0.232339 -0.016792 102 150 237
-0.106508 0.090747 -0.074453 102 149 238
0.113630 0.079813 0.033207 255 255 255
-0.005904 -0.182156 0.050384 255 255 255
-0.008096 -0.174612 -0.021080 254 254 255
0.067724 -0.070776 0.050532 255 255 255
0.215912 -0.000868 0.055838 255 255 255
-0.114576 0.066962 -0.026594 103 149 238
-0.096789 -0.190186 0.056581 103 150 237
-0.113450 0.113902 -0.034272 100 149 235
-0.085990 0.208076 0.017112 102 150 236
-0.104647 -0.246551 -0.078892 101 149 236
0.105406 0.104137 0.063385 254 255 255
0.108378 0.099895 -0.006806 255 255 255
0.047661 0.155416 0.037250 254 255 255
-0.103332 0.074180 -0.064851 101 150 238
-0.046456 0.243515 0.018690 255 255 255
-0.074403 -0.272199 0.014136 255 255 255
-0.112628 -0.100342 0.037457 102 149 238
0.243867 -0.037090 0.024468 254 255 255
-0.079313 0.201108 0.009137 102 151 237
-0.018513 -0.203811 0.036386 254 255 255
0.228039 0.096498 0.051682 255 254 254
-0.114366 -0.051234 0.003579 102 149 237
-0.112945 0.033097 -0.052177 102 150 237
0.094241 -0.039884 -0.000919 255 255 255
-0.108485 -0.264226 0.035221 103 150 235
0.071678 -0.084413 0.033270 206 207 206
-0.117604 -0.216739 -0.066264 102 149 238
-0.109202 -0.222513 0.051617 101 150 235
-0.091494 -0.270330 0.014548 253 255 255
-0.062883 -0.240312 0.057899 255 255 254
-0.089702 0.030118 0.020071 101 149 236
0.115746 0.071203 0.049021 255 255 255
-0.089906 0.248807 -0.061577 101 148 238
0.119870 0.089416 -0.005628 255 254 254
-0.090830 -0.087563 0.037273 100 148 235
-0.108754 0.252969 -0.066579 101 149 237
-0.029534 -0.215190 0.010558 255 255 255
-0.112323 0.169669 0.017771 102 150 236
-0.109151 -0.198101 0.023943 100 150 238
0.073697 -0.086050 -0.001699 253 254 255
-0.089227 -0.221821 -0.037121 102 150 238
-0.088490 0.155003 0.020850 102 149 238
-0.091472 -0.237499 0.017227 101 150 236
0.199492 -0.007684 0.032663 255 255 254
0.096583 -0.053334 0.047165 255 255 255
0.102890 0.102697 0.021647 255 255 255
-0.017150 -0.196371 0.023055 255 255 254
-0.088825 0.088124 -0.009964 100 149 235
0.258712 -0.050637 0.058864 255 255 254
-0.107168 -0.276341 0.024122 102 151 238
-0.098405 0.238609 0.056653 103 150 238
0.044459 0.154140 -0.021173 255 255 255
-0.091634 -0.050767 0.027795 102 147 232
-0.112330 0.041588 -0.037849 100 148 235
-0.085809 0.198243 -0.034653 100 150 237
0.018475 -0.153559 0.036088 255 255 255
-0.089987 0.222141 0.015281 101 149 238
-0.108668 0.257517 0.024160 100 148 237
-0.083744 0.078846 0.002729 101 148 238
-0.106837 -0.171763 -0.071961 100 150 235
0.041480 -0.124027 0.046634 255 254 254
-0.107354 0.163234 0.028009 102 150 238
-0.095364 -0.179516 0.010066 101 150 235
-0.117872 0.075022 0.002709 101 150 237
0.130348 -0.013335 0.005666 254 255 254
-0.090926 -0.101050 0.035480 100 150 238
-0.112396 0.193254 0.046390 102 149 237
-0.084865 0.208534 0.057032 104 151 236
0.097028 -0.032566 -0.004112 255 255 255
-0.112446 0.071623 -0.056282 101 149 236
-0.103855 0.230628 0.013279 103 150 236
-0.098122 0.034138 -0.082843 102 149 238
-0.115122 -0.089096 -0.059563 101 148 236
-0.090959 -0.103969 0.036101 101 151 236
0.120925 -0.004109 0.022208 255 255 254
0.137683 0.062512 0.062288 254 255 255
0.258245 -0.060327 0.055716 255 254 255
-0.038846 0.221965 0.054894 254 255 255
0.099503 -0.049007 0.031388 255 255 254
0.118623 0.074636 -0.001109 255 255 255
-0.105926 -0.170241 0.030680 100 150 238
-0.115275 -0.063778 -0.080552 100 148 238
0.276904 -0.067298 0.031358 255 255 255
-0.112266 0.214477 -0.068480 102 149 238
-0.082668 0.103207 0.018593 102 150 239
0.073910 0.115941 0.050910 255 255 255
0.036435 0.166023 -0.006379 255 255 255
-0.089337 -0.131391 -0.069933 101 151 238
-0.098447 0.115494 -0.020043 101 149 236
0.131917 0.077925 0.050024 253 255 255
0.016424 0.184853 -0.016670 254 254 255
0.244048 -0.041991 -0.004279 254 255 255
0.064562 0.140100 0.023189 255 255 254
-0.107681 0.163638 -0.042306 102 148 235
-0.108952 0.271193 0.000896 102 148 237
-0.084913 0.116044 0.040997 103 149 236
0.008240 -0.148199 0.002877 254 254 255
0.039305 -0.128654 0.036448 255 255 254
0.128563 0.004872 0.002222 255 255 255
0.043972 0.144922 -0.005579 255 255 254
-0.086335 -0.261478 -0.034576 253 254 255
-0.024283 -0.188291 0.013527 255 255 255
-0.102690 0.278653 -0.047914 101 150 238
0.087417 0.115024 0.016223 254 255 255
0.148020 0.043246 0.001615 255 254 255
-0.108596 0.247785 0.048236 101 148 236
0.272333 -0.061822 0.044241 255 255 255
-0.093852 -0.191963 0.013716 102 150 236
-0.107900 0.105874 0.044751 103 150 237
-0.104184 0.279586 0.014063 101 150 236
0.125131 -0.001232 0.061190 255 255 255
-0.091137 0.116764 0.029040 102 150 237
-0.074907 0.259171 0.014666 255 255 255
0.054491 -0.109306 0.021751 254 255 254
0.048066 -0.115366 0.012620 255 255 254
0.042697 -0.106612 0.017275 253 255 254
0.011835 -0.160646 0.063630 254 255 255
-0.087804 0.083380 -0.012292 103 152 238
0.082075 0.122977 0.043795 254 255 255
0.141833 0.053159 0.005354 255 254 254
0.026480 0.165485 -0.020653 255 255 253
0.294588 -0.092152 0.043906 255 255 253
0.103188 -0.046175 0.033117 255 254 255
-0.096799 0.115938 -0.093163 100 150 237
0.186717 0.020798 0.034283 255 255 255
-0.095123 -0.175987 0.017227 102 149 236
-0.045542 0.229182 0.051548 254 255 255
-0.030780 0.227596 -0.020713 254 255 254
0.022693 0.168827 -0.024265 254 254 255
-0.089544 0.157293 0.014535 101 149 238
-0.031094 -0.209110 -0.026504 255 255 255
0.189562 0.002813 0.037694 255 255 255
0.192713 0.015984 0.008794 255 253 255
0.240457 0.117664 0.050318 255 255 255
-0.090906 -0.118114 -0.078381 100 149 237
-0.113021 0.072041 -0.019762 103 151 239
0.095029 0.098535 0.002098 253 254 255
-0.092090 -0.081985 -0.039950 100 150 238
0.157228 0.027603 -0.005429 255 255 255
-0.088619 -0.190022 -0.080869 102 150 236
-0.092321 -0.232302 -0.073339 101 148 237
0.100452 -0.039429 -0.006891 255 255 254
-0.085446 0.203279 -0.081005 101 148 237
0.219055 0.102595 0.050331 255 254 255
0.162737 0.043836 0.025793 255 255 255
-0.110779 -0.283990 -0.050884 101 149 238
-0.115316 -0.102120 -0.094702 101 148 238
-0.042313 0.241632 -0.025917 254 255 254
0.077686 0.126517 0.047916 255 255 255
0.252151 -0.041044 0.059321 254 254 255
-0.089073 0.239684 0.060224 102 149 239
0.111008 -0.016311 0.001363 254 255 255
-0.072559 -0.247441 0.043463 254 255 255
-0.112170 -0.141560 -0.042068 103 151 237
-0.108923 -0.132362 -0.088866 134 139 148
-0.074900 0.269387 0.022697 255 254 254
0.214784 0.083143 0.046993 255 255 255
0.236738 -0.044995 0.019440 255 255 255
0.264296 -0.055913 0.047183 255 255 254
-0.103870 -0.233557 -0.036920 103 150 237
0.046495 0.159011 0.057744 254 255 255
-0.086411 0.229892 -0.001689 103 150 236
-0.018122 0.205916 -0.023311 255 254 255
0.053044 0.152379 0.063786 254 254 255
-0.098123 -0.266994 -0.067288 101 148 239
-0.092476 0.232676 -0.044412 100 150 237
-0.099171 -0.106062 0.036642 102 149 237
-0.081141 -0.276681 0.043825 255 255 255
-0.007412 0.191018 0.025786 255 255 255
0.117637 -0.009363 0.006854 254 255 254
-0.094532 -0.255520 0.035910 103 149 236
0.052226 0.138128 0.052213 254 255 254
-0.107791 0.269451 0.037157 101 149 238
-0.082738 0.267791 -0.029308 255 255 255
0.043174 0.148401 -0.022140 254 255 255
-0.009796 -0.172025 0.026304 254 255 255
-0.096103 -0.286335 -0.026603 101 150 236
-0.117111 -0.082051 -0.073814 101 149 238
-0.091982 0.061061 0.040715 104 150 237
-0.109674 -0.062371 -0.021661 102 149 236
-0.056126 0.237420 0.016603 255 254 255
0.289927 -0.080044 0.045832 254 255 255
-0.095879 -0.172770 -0.014040 102 150 237
0.141954 0.060370 -0.008936 254 254 254
-0.015382 -0.178669 0.041823 254 255 255
-0.102799 0.218720 -0.049582 100 150 236
-0.091567 -0.088301 -0.017176 102 150 238
-0.084234 -0.267446 -0.033391 254 255 255
0.057261 -0.087878 0.016973 254 255 254
-0.110760 -0.133535 0.041442 102 149 237
-0.102037 0.211100 -0.002653 102 150 235
0.000338 -0.174099 0.035325 255 254 255
0.167763 0.024792 0.045234 255 254 255
-0.040359 -0.209940 0.032200 254 255 255
0.001862 -0.173265 0.008347 255 254 254
0.050136 -0.103276 -0.018619 255 254 255
-0.090601 0.278677 0.022287 255 255 254
0.145526 0.052335 -0.002569 254 253 255
-0.104768 -0.220646 0.058477 101 149 235
-0.008872 0.208795 -0.021904 254 255 255
-0.093957 -0.164961 0.035835 102 149 236
-0.115293 -0.218693 -0.067900 102 150 234
-0.063135 0.262001 -0.034221 254 254 255
0.064429 0.126929 0.039281 255 255 255
0.044651 -0.103731 0.010219 255 254 254
-0.112723 -0.093141 -0.036944 101 148 234
-0.108004 -0.228254 -0.083031 103 150 238
0.042376 -0.122288 0.051814 254 255 254
-0.083507 -0.266234 -0.005781 254 254 254
-0.009446 -0.169343 0.057605 255 254 255
0.199466 0.082148 0.026550 254 255 255
-0.089725 -0.143110 -0.095852 102 149 238
0.267368 -0.060476 0.062486 253 254 255
0.001187 -0.176884 0.053695 254 255 254
-0.015154 0.212503 0.029036 255 255 255
-0.114901 0.124980 0.016976 102 150 236
-0.051538 0.235854 -0.005168 255 255 254
-0.098429 -0.283710 -0.028716 100 148 235
-0.029219 0.230622 -0.003057 255 254 255
-0.097565 0.013995 -0.040317 101 149 237
-0.081393 -0.275544 -0.033922 255 254 254
-0.091944 -0.063237 -0.021340 102 150 235
0.126069 0.067598 0.038912 255 255 255
-0.037298 0.236857 0.017140 255 255 254
0.003108 -0.173910 0.039004 255 255 253
-0.038057 0.219046 0.043167 255 254 255
-0.086328 0.086007 -0.055842 103 151 239
-0.089886 -0.228287 -0.062594 101 148 234
-0.086145 -0.207613 -0.019226 102 150 237
0.150227 0.059729 0.048963 255 255 255
-0.105134 0.174723 0.006059 100 150 235
-0.028472 0.228730 0.008517 255 255 254
0.055617 -0.090112 0.010022 255 254 253
0.208119 0.072256 0.036296 253 255 255
0.215075 -0.020953 0.036668 255 255 255
0.087042 -0.044761 0.023125 255 255 255
0.116351 0.079426 0.030094 255 255 255
-0.111529 -0.083952 -0.006315 101 150 235
0.116385 0.075936 0.042807 253 254 255
0.172935 0.022109 0.042989 254 254 255
-0.114544 0.083285 -0.011324 101 149 237
-0.063791 0.244014 0.060839 255 255 255
0.073336 -0.085311 -0.009250 255 254 254
-0.111170 0.195261 0.053547 102 149 237
-0.044827 0.237343 0.059591 255 255 254
-0.094572 0.138657 -0.035172 101 149 239
0.260486 -0.052551 0.042102 255 255 255
0.028241 -0.121418 0.053367 255 254 255
-0.097008 -0.159036 -0.091910 101 150 235
-0.110962 -0.227671 -0.068854 144 138 144
-0.087749 -0.278104 0.000634 101 149 235
-0.113398 -0.080868 -0.051445 101 150 237
-0.086029 0.267173 -0.007546 255 255 255
0.024742 -0.129354 0.066128 255 255 255
-0.075622 -0.275117 -0.024916 255 255 255
-0.093106 0.177925 -0.035197 102 149 236
-0.105596 0.109019 -0.036464 101 149 236
-0.004954 0.181377 0.014114 254 255 254
-0.028725 0.214701 0.015587 255 255 254
0.033091 0.171652 0.036431 254 254 255
0.039531 -0.127214 -0.008694 255 254 255
-0.094283 0.029185 -0.055350 101 150 236
-0.053388 0.236734 -0.014689 255 255 255
-0.092400 -0.157370 -0.018410 102 150 239
-0.072659 0.271520 -0.034589 255 254 255
-0.017578 -0.198846 0.022600 254 255 254
0.065075 0.126248 0.031127 254 255 254
0.172562 0.028081 0.031596 253 254 255
-0.029527 0.227553 0.005979 255 255 255
-0.093523 0.067956 -0.042264 101 150 238
-0.101098 -0.274464 0.030865 102 149 238
0.022227 0.163842 -0.018744 255 255 255
-0.013927 -0.176862 0.027846 254 255 255
-0.071351 0.266146 0.004243 255 254 254
0.072738 0.117799 0.054730 255 254 254
0.035988 -0.119820 -0.018693 253 254 254
0.034568 -0.118488 -0.002396 255 255 255
0.081053 0.123751 0.009996 255 255 255
-0.043304 -0.231320 0.017613 255 255 255
0.005050 -0.178517 -0.023716 254 255 253
-0.103331 -0.076584 -0.090295 101 148 239
0.149374 0.054767 0.065743 254 255 255
-0.052103 0.236014 0.016653 255 254 255
-0.112565 -0.167944 0.013940 101 149 236
-0.112154 -0.106291 0.038395 101 149 238
-0.045034 -0.205726 0.057290 254 253 255
-0.066222 -0.253818 -0.031016 254 255 254
-0.096783 -0.257355 0.049004 103 150 238
-0.041574 0.227177 -0.037179 254 255 254
-0.095169 -0.063505 -0.086136 101 150 238
0.271308 -0.060286 0.047074 253 255 254
-0.099850 0.028757 0.029001 100 150 237
-0.007261 -0.179143 -0.003871 254 255 255
-0.111679 0.102964 -0.090230 101 149 237
-0.080414 0.274027 0.001530 254 255 255
0.121748 0.069482 -0.002586 254 255 254
-0.105447 -0.175258 -0.064621 102 149 238
0.162276 0.034884 0.043777 255 254 254
0.129606 -0.012714 0.013518 210 212 213
-0.105297 0.098264 -0.096548 100 148 232
0.019258 0.182009 0.000029 255 255 255
0.059812 -0.084917 -0.012676 255 254 255
-0.053504 0.254663 -0.031040 255 255 254
0.090545 0.113079 0.027451 255 254 255
0.103165 -0.046516 -0.012429 254 255 254
-0.089275 -0.266226 -0.060196 103 150 238
-0.086464 -0.239610 0.054476 101 150 236
-0.092503 0.089976 -0.049815 101 150 238
-0.092607 -0.097833 -0.000755 103 150 236
-0.026169 -0.181622 0.015388 255 255 255
-0.069051 -0.265168 -0.015923 254 255 255
-0.109514 -0.188121 0.032582 103 150 236
-0.030054 -0.211815 0.060036 254 255 255
-0.000200 0.185869 -0.006009 254 254 255
-0.090398 -0.162596 0.051029 103 150 239
-0.091518 -0.087771 0.004380 101 148 237
-0.088036 0.059811 -0.031155 100 149 238
0.029586 -0.139805 0.058436 255 255 255
0.072768 0.117602 -0.018033 254 255 255
0.111749 0.088066 0.060120 254 255 255
0.084143 -0.068635 0.024634 255 255 255
-0.102291 0.093848 -0.094609 101 149 237
0.074579 -0.057352 0.037143 255 254 254
-0.055021 -0.226823 -0.023307 255 255 255
-0.091662 0.054580 -0.007026 102 150 238
-0.089483 0.079657 -0.016445 101 149 236
-0.066891 -0.244291 0.028598 255 255 255
0.203615 0.068606 0.035867 255 255 255
-0.014245 0.213347 0.046204 255 254 254
-0.117740 0.127507 -0.047282 101 150 236
-0.090876 0.031038 -0.066718 101 150 236
-0.023878 0.225073 0.005556 255 254 254
0.055248 -0.109956 -0.004496 254 255 255
-0.095773 0.241212 -0.081401 101 148 236
-0.112134 0.207759 -0.054014 102 150 237
-0.091318 -0.141041 0.027914 100 150 239
0.136182 0.049032 0.058921 255 255 254
-0.104850 -0.178884 0.020171 100 149 236
0.084633 0.109825 -0.015615 254 255 255
-0.091065 -0.042637 0.004563 100 148 234
-0.089700 -0.122555 -0.096349 102 149 237
-0.106375 -0.241660 0.009308 102 151 238
0.204495 0.085693 0.064452 255 254 255
-0.110204 -0.261206 -0.001160 100 148 237
-0.068087 0.254249 -0.015432 254 254 255
-0.110918 0.242220 -0.066734 100 150 236
-0.106118 0.178819 0.010007 102 150 238
0.024313 -0.146015 0.002716 213 216 214
0.126037 0.083943 0.000150 255 255 254
-0.090034 0.014510 0.014921 103 150 237
0.000244 0.188029 0.039901 255 255 254
-0.047133 -0.236931 0.010455 255 254 254
-0.099434 0.238127 -0.081403 102 150 237
0.244304 -0.051566 0.014192 253 255 254
0.023659 -0.129724 0.046847 255 255 255
-0.087309 0.104503 -0.002262 101 148 237
0.206140 -0.012474 0.023128 254 255 253
0.071173 0.122262 0.013112 255 255 255
-0.089384 0.149761 0.001913 102 149 237
-0.033859 -0.200100 0.041258 255 255 255
-0.111178 -0.035534 0.012422 102 148 236
-0.083863 0.110171 -0.056562 102 149 237
0.105063 -0.019610 0.064318 255 254 255
0.185975 0.068536 0.051459 254 255 255
-0.037601 0.240168 -0.037386 255 255 255
-0.115270 0.057535 -0.023818 100 147 233
0.161257 0.028193 0.005549 255 255 255
-0.089478 0.227030 -0.066151 101 149 236
0.036647 0.168525 0.057784 253 253 253
0.195764 -0.002899 0.035892 255 255 254
-0.087040 0.120425 -0.023210 142 136 143
0.081735 0.123840 0.033455 254 255 254
0.152978 0.058015 0.008171 254 255 255
0.081493 0.120309 0.060815 254 254 254
-0.076761 0.271576 0.024352 255 255 254
-0.021193 -0.201651 0.018478 255 255 255
-0.108491 -0.092546 0.027654 103 150 236
0.164546 0.050039 0.012291 255 255 254
0.015533 0.171738 -0.018204 255 254 255
0.266842 -0.061159 0.037232 254 255 254
0.055732 0.147254 0.040168 255 254 255
0.209792 -0.014485 0.045967 255 254 255
-0.011616 -0.178740 0.056406 255 255 254
0.100682 0.107115 -0.003892 255 255 255
-0.110039 0.115424 0.038383 103 150 238
0.181922 0.045649 0.048343 255 255 254
0.022819 -0.129125 0.058866 253 254 254
0.202343 0.003048 0.005129 255 255 255
-0.104527 0.171279 0.034776 102 150 238
0.269905 -0.061212 0.041539 255 254 254
-0.088741 -0.134147 -0.040147 102 150 238
-0.091014 0.211273 0.048074 103 149 238
-0.026517 0.212582 0.002951 255 254 255
-0.103206 -0.105153 -0.028371 103 151 239
-0.109834 -0.110214 -0.100126 101 149 238
0.236009 -0.028854 0.002452 255 255 255
-0.025243 0.223171 0.039587 254 254 255
-0.057475 0.255881 -0.004974 255 255 255
-0.093241 0.144298 -0.047745 102 150 236
0.011419 -0.149556 0.063397 255 255 254
-0.106627 -0.067046 0.034349 103 149 239
0.096468 -0.052126 0.039611 254 255 255
-0.060028 0.257380 -0.033718 254 254 254
0.101209 0.103261 0.018603 254 255 254
0.107934 -0.036765 0.028554 255 255 255
-0.106801 0.242371 -0.028170 101 150 237
-0.091179 -0.180691 -0.033423 102 150 236
0.176645 0.016784 0.051852 255 254 254
-0.113518 -0.198132 -0.042884 103 149 236
-0.091085 -0.211155 0.026185 102 150 236
-0.083693 -0.282685 0.019494 255 255 255
0.229151 -0.042194 0.011067 255 254 255
-0.092625 -0.061703 -0.005739 101 149 238
0.048850 0.135222 0.007499 255 255 255
-0.052271 0.249754 0.027584 254 254 254
0.080968 0.121584 0.033521 254 255 253
0.031576 0.157229 0.039878 254 254 255
0.229975 -0.038787 0.008736 255 255 254
-0.088773 0.243677 0.057117 102 149 238
-0.107516 -0.030380 -0.010074 101 148 237
-0.105054 0.074223 -0.007194 103 150 237
0.050797 -0.089269 0.064095 255 253 253
-0.095878 -0.247628 0.061960 102 149 234
0.127161 -0.009864 0.062565 255 255 255
-0.080799 0.273718 0.011295 255 255 255
0.185571 0.020753 0.011245 255 255 255
0.255155 -0.059918 0.006942 255 255 255
-0.015341 0.203182 0.037338 254 255 255
-0.075376 0.271572 -0.017141 255 255 254
-0.077902 -0.258244 0.012348 255 255 255
-0.109909 0.082454 -0.075155 102 150 237
-0.022674 0.212601 -0.035876 255 255 255
-0.087307 -0.270679 0.058844 254 254 255
-0.107830 -0.042520 0.004402 101 150 238
0.270491 -0.060989 0.039878 254 255 255
-0.106897 0.034058 0.019066 101 150 237
-0.107445 -0.122913 0.001898 102 149 237
0.006813 -0.174713 -0.018333 253 255 254
-0.092929 -0.084871 -0.028960 103 150 237
-0.104605 0.129625 -0.036236 101 149 238
-0.090260 -0.141031 -0.097103 102 149 238
-0.108789 0.185853 0.009788 101 150 237
0.077341 -0.062074 0.000445 254 255 255
-0.022032 -0.187817 0.042630 255 254 254
-0.089313 0.057856 -0.069938 100 149 237
0.020961 0.181230 0.048423 255 254 255
0.013988 -0.149980 0.062221 255 255 254
-0.108641 0.089454 -0.024791 100 149 237
0.087478 0.098572 -0.008236 255 254 254
0.185341 0.047929 0.038033 255 255 254
-0.107695 -0.205394 -0.015363 103 150 237
-0.108197 0.239360 0.022753 102 150 237
-0.004945 -0.186571 -0.012587 255 255 254
0.172127 0.038755 0.029498 254 255 255
-0.108830 0.077793 0.028531 100 149 238
0.023277 0.174203 -0.027722 255 255 255
0.013108 -0.141777 0.062248 255 255 255
-0.063656 0.245548 0.062757 255 255 255
0.011427 -0.169626 0.020153 255 254 255
-0.112130 0.037243 -0.000392 100 150 238
0.092224 -0.040137 0.000399 254 255 255
-0.107410 -0.069113 -0.021147 101 150 238
0.062200 0.126364 0.031214 255 254 255
0.157069 0.019001 0.052892 255 254 254
0.084435 -0.068952 0.029723 255 255 255
-0.112390 0.221076 0.051007 103 149 238
0.146303 0.007758 0.026005 254 255 255
0.278835 -0.074470 0.056537 255 255 255
-0.113737 0.133270 0.018946 101 150 237
-0.092438 -0.108565 -0.097423 100 147 234
-0.091509 0.198632 -0.019166 102 149 236
-0.088268 0.247085 -0.053046 102 150 238
-0.114486 -0.092719 -0.035199 102 151 238
-0.070299 0.254536 0.063599 255 255 255
-0.107909 0.215678 -0.055911 100 149 238
-0.046345 -0.244633 0.025741 255 255 253
-0.106404 -0.145727 -0.063637 102 149 238
-0.028778 -0.190463 -0.020022 255 255 255
0.042238 -0.123667 0.004217 255 255 255
0.036726 0.143435 -0.000502 255 255 254
-0.103602 0.240594 -0.051948 103 150 238
-0.094925 0.016390 -0.039376 102 149 235
-0.086988 0.043083 0.032844 100 150 235
-0.110466 -0.079502 -0.080301 102 149 237
-0.012828 -0.191764 0.048735 204 203 203
-0.111646 0.026318 0.026913 103 150 238
-0.049732 -0.220698 -0.011053 254 255 254
-0.112162 0.020591 -0.015531 102 148 235
0.090544 0.099566 -0.008133 255 255 255
-0.101438 -0.280392 0.020171 101 150 237
0.067755 -0.090659 0.053065 255 255 255
-0.102398 -0.149565 0.047597 103 149 236
-0.104140 -0.170106 0.041232 103 150 237
-0.027993 0.212114 -0.021675 254 255 255
-0.109377 0.240888 0.052116 103 149 237
-0.024404 0.227942 -0.023036 255 255 255
0.228843 -0.021701 0.017495 254 255 254
0.180304 0.027239 0.025934 255 254 255
0.047003 0.156384 0.035563 255 254 255
-0.096251 0.135669 -0.088972 101 148 235
-0.111841 0.187576 0.040882 102 150 237
0.011525 0.191900 0.024088 254 255 254
0.031088 0.172261 -0.000411 255 255 255
-0.092512 0.064293 -0.002480 100 150 237
-0.001891 0.188305 0.052231 255 254 255
-0.090293 -0.039408 -0.005839 101 148 236
0.131457 0.079575 0.058513 255 255 255
0.130088 -0.009777 0.053309 255 254 255
0.016219 -0.142002 -0.011173 255 255 253
-0.037766 -0.221447 0.041624 254 255 255
-0.090830 -0.040959 -0.000706 100 150 237
-0.089457 0.106142 -0.072530 102 150 238
0.142519 0.018077 0.063527 255 255 255
-0.060594 0.237689 0.042633 255 255 255
-0.071735 0.272255 -0.010287 253 254 254
0.098946 -0.031282 0.023219 254 254 255
0.186278 0.004844 0.014043 255 255 255
-0.083759 0.066612 -0.039438 102 149 236
-0.081871 -0.095428 -0.046586 136 139 144
0.076254 -0.080502 0.015682 254 254 254
0.192821 0.070400 0.050647 254 255 254
0.205722 0.005717 0.018353 255 255 255
-0.085967 -0.148935 -0.054263 103 151 237
-0.025642 -0.191012 0.005531 254 255 254
-0.092530 -0.092120 -0.080367 102 150 237
-0.092160 -0.132264 -0.043668 101 149 237
-0.106585 0.278458 -0.044068 103 151 237
0.164059 0.033030 0.035089 254 254 255
-0.084373 0.262269 0.010960 255 255 255
0.071062 -0.071275 -0.007102 255 255 255
0.172844 0.052353 0.035356 255 255 255
-0.112244 0.273108 0.030495 101 150 239
-0.099416 -0.218597 0.042996 102 151 237
-0.089675 -0.253763 0.013026 103 151 237
-0.089329 0.206404 -0.007346 103 149 237
-0.013857 -0.175285 0.050167 254 255 254
-0.011263 -0.189935 0.013533 254 254 255
0.148807 0.021223 0.012778 255 254 255
0.095312 -0.027134 0.042560 255 255 254
-0.094105 -0.240244 -0.079611 102 148 235
-0.106037 -0.182650 0.056401 103 149 237
-0.015315 -0.178178 -0.011019 255 255 255
-0.109996 -0.145199 0.024903 100 148 238
0.106748 0.092652 -0.013004 255 254 255
0.054238 0.135401 0.019023 255 255 255
-0.109294 -0.074174 -0.067075 100 150 238
0.131142 0.080219 0.043241 254 255 255
-0.089514 -0.044282 -0.042730 100 149 238
-0.104425 0.253187 0.029888 102 149 235
-0.102551 0.147521 0.043841 102 150 238
-0.093889 0.155464 -0.069704 102 150 236
-0.085563 0.188290 0.018198 100 149 237
0.024690 0.176186 0.014571 255 255 255
-0.105623 -0.148364 -0.074321 101 150 236
0.017110 0.171167 0.019467 254 255 255
0.039226 -0.115990 0.061962 255 255 254
-0.067662 -0.246098 0.018711 254 255 255
-0.001044 0.201865 0.043386 255 255 255
0.026664 -0.141276 0.001747 254 255 255
0.287384 -0.080308 0.017888 253 255 254
-0.114450 -0.104043 -0.088123 103 151 237
-0.094001 -0.221076 0.057249 100 149 238
0.255567 -0.049697 0.008253 255 254 255
-0.090988 0.087339 0.003648 101 151 239
-0.070564 -0.262106 -0.002782 255 255 255
0.222458 0.099016 0.021113 253 254 255
0.207050 0.090172 0.028533 254 255 255
-0.092306 -0.250537 0.038864 100 148 235
-0.099275 0.009968 -0.048021 104 151 238
0.039651 -0.110097 0.019565 255 254 255
0.202650 0.088614 0.049704 254 254 255
0.007826 0.197586 0.034136 255 254 255
0.082128 -0.051557 0.053932 254 255 254
-0.095920 0.067695 -0.094343 102 148 237
0.143655 0.011538 0.004505 255 255 255
-0.011053 0.210523 0.014055 255 255 255
0.210907 0.091593 0.011852 255 255 255
-0.078389 0.238629 -0.039795 100 149 235
-0.092218 0.092963 -0.036614 100 148 235
0.143998 0.048376 0.008817 255 254 255
0.100719 0.091829 0.032153 255 255 255
0.205507 0.002099 0.014392 255 255 255
-0.057812 -0.232642 -0.020857 254 255 254
-0.059479 0.244812 -0.024540 255 254 255
-0.105797 0.193731 0.043302 103 151 238
-0.090610 -0.188536 -0.091883 102 149 237
0.074104 -0.070424 -0.012864 254 255 254
-0.107334 -0.202885 -0.037727 102 149 236
-0.112755 -0.101921 -0.013308 102 150 237
-0.000852 -0.159341 -0.021419 255 255 255
-0.091359 0.228419 0.034814 100 149 237
-0.103319 0.175545 -0.062090 100 150 238
0.090274 0.098449 0.054012 255 255 254
0.206674 -0.009783 0.064885 254 254 255
-0.104887 0.178150 -0.089112 100 149 238
0.055890 -0.107115 0.007406 254 254 255
0.103219 -0.027857 0.043457 255 254 255
-0.059434 -0.256611 -0.003379 255 255 255
-0.034614 -0.202692 0.055417 254 255 255
0.046546 -0.101161 -0.000626 255 255 254
-0.054162 0.255233 -0.039431 254 255 255
0.081718 0.111297 0.000800 255 255 254
-0.106311 0.139286 -0.069123 102 150 236
-0.013550 0.212284 -0.019370 255 255 254
-0.076263 -0.258050 0.031592 254 255 254
0.003514 -0.171402 -0.005425 255 255 255
0.220249 0.086860 0.064118 255 255 255
-0.104478 -0.074391 0.033272 135 136 144
-0.090142 0.048879 -0.073257 102 150 236
0.204526 0.088945 0.053316 254 255 255
-0.096526 -0.282515 0.027237 101 148 238
-0.084745 0.065772 0.034593 101 149 236
-0.089576 0.221951 -0.058015 102 149 237
0.023212 -0.149721 -0.011421 255 254 254
0.149622 0.010233 0.013605 255 255 254
0.261809 -0.055937 0.044958 254 255 254
0.290356 -0.076317 0.046919 255 255 255
0.131878 -0.017409 -0.005677 255 255 255
0.294948 -0.091732 0.032837 254 255 253
0.136335 0.055126 0.055518 254 254 255
-0.097825 -0.057184 -0.081250 100 149 238
-0.085979 -0.064157 -0.086918 100 147 234
-0.089826 -0.026366 0.007924 102 150 238
-0.107915 -0.176546 -0.041244 102 149 236
-0.064481 -0.239263 -0.001799 255 254 254
0.006121 -0.153070 0.035511 254 255 255
-0.107866 0.205420 -0.009919 103 148 238
-0.091397 -0.158879 0.007094 101 149 238
-0.021664 -0.203933 0.004592 255 255 255
-0.091242 -0.180677 -0.033111 102 150 237
-0.088950 -0.282404 -0.033245 255 255 254
-0.087925 0.117927 -0.036298 102 148 235
-0.104719 0.200323 -0.012868 101 149 238
0.043627 -0.097407 0.027043 255 255 254
-0.107132 0.280042 -0.021221 100 149 237
-0.081313 -0.277278 -0.031301 255 255 254
-0.018144 -0.196150 0.063802 255 255 255
0.201328 0.087550 0.019461 255 255 255
0.200843 0.008169 0.044315 253 255 255
-0.087136 0.129686 -0.087575 102 150 238
-0.054932 -0.245728 -0.013541 255 255 255
-0.091415 -0.282389 0.003742 103 151 238
-0.111181 -0.232751 -0.037106 103 151 237
-0.092463 0.150291 -0.087418 103 151 238
-0.108157 -0.290629 -0.034522 101 150 236
0.050996 -0.113934 -0.008524 255 253 254
-0.092765 -0.259684 -0.033557 102 150 236
0.085488 0.123067 0.051927 255 255 254
-0.085523 -0.109525 -0.094345 101 150 237
-0.090372 0.225197 0.033245 100 150 238
0.213526 0.071536 0.054713 255 255 254
-0.105626 -0.251573 0.053264 103 149 236
-0.004182 0.190542 -0.027359 254 255 255
-0.104092 -0.252214 -0.018362 101 150 236
-0.088203 -0.267356 0.005239 103 150 235
-0.092377 0.235052 0.040182 101 149 237
-0.102751 -0.247572 -0.007366 102 151 237
-0.080089 -0.279479 -0.020296 255 255 255
-0.067388 -0.243719 -0.016417 255 255 255
-0.051868 0.250351 0.002264 254 254 255
0.022183 -0.134283 0.026786 254 255 254
-0.050300 -0.239381 0.017613 255 254 255
-0.086344 -0.276033 0.018671 102 149 236
0.011953 -0.164484 -0.013548 255 254 255
-0.088490 -0.160908 0.045417 102 151 237
