ply
format ascii 1.0
element vertex 1174
property float x
property float y
property float z
property uchar red
property uchar green
property uchar blue
end_header
-0.079230 0.159583 0.056368 103 149 235
-0.089161 0.020982 0.002255 100 148 235
-0.016745 -0.065736 0.015646 253 253 254
-0.065580 0.232390 -0.026055 254 254 255
-0.077776 0.258349 -0.008288 254 255 255
0.046700 -0.023375 0.021580 255 254 253
-0.045664 -0.114644 0.016410 253 254 252
-0.099435 -0.110272 0.048798 100 147 228
-0.042732 -0.148695 0.037389 255 253 253
0.064544 -0.088063 0.020987 254 253 254
0.073812 -0.089893 0.039625 253 253 252
-0.084720 -0.155066 -0.027762 102 146 226
0.038342 0.120298 -0.002908 254 253 253
-0.007368 -0.016311 0.061204 253 254 254
-0.043719 -0.111257 0.023326 254 255 254
-0.105694 -0.067354 -0.026420 100 148 233
-0.101718 0.255535 0.044083 100 147 235
-0.100639 -0.183051 -0.061867 101 149 235
-0.104162 -0.077902 -0.055346 102 149 235
-0.054736 -0.139228 0.015864 254 255 255
-0.104086 0.157728 -0.004803 100 149 235
-0.004935 0.085785 -0.012605 254 254 254
-0.074584 -0.233612 0.059638 255 255 255
0.046604 0.138637 0.062441 255 254 255
0.001671 0.018345 0.058249 255 253 253
0.001860 0.041718 0.032997 255 254 253
0.024661 0.033788 0.025264 253 253 255
-0.039205 0.171018 -0.035825 255 254 255
-0.106806 0.193139 0.005547 100 148 232
0.060864 -0.060078 0.012585 255 254 255
-0.097219 0.117500 -0.018565 139 138 144
-0.102531 -0.246046 -0.043533 102 149 235
-0.024921 -0.049618 -0.001015 255 254 253
-0.085832 -0.191917 0.038309 186 187 190
-0.046651 0.209497 0.043253 254 254 253
-0.083553 -0.127182 -0.062531 101 148 229
-0.080328 0.202086 0.040542 102 148 232
-0.080714 0.206650 0.023508 101 149 236
0.051241 0.217021 -0.003550 254 252 254
-0.085654 -0.248005 -0.003089 102 149 234
-0.100355 -0.054303 -0.039650 103 149 235
0.036825 0.124644 -0.009374 253 252 254
-0.034069 0.155238 0.019230 255 254 255
-0.097006 -0.232474 -0.075627 100 137 204
0.026561 0.069398 0.033596 254 255 255
-0.077138 0.242924 0.014015 101 147 234
0.020324 0.018034 0.050404 254 254 253
-0.046315 0.206918 -0.045148 253 253 254
-0.101337 -0.168194 -0.018903 100 149 235
0.044290 -0.013377 0.047299 255 253 254
-0.001452 0.104413 0.005926 255 254 255
-0.070909 0.266873 -0.028067 254 253 254
-0.077312 0.138385 0.017092 101 149 236
-0.048257 0.192222 0.006776 254 254 253
-0.086487 -0.095667 -0.084831 129 125 130
-0.083481 -0.166814 0.002000 102 148 232
0.028303 0.128439 0.009134 253 253 254
-0.102592 0.221440 0.017306 101 150 234
-0.047292 0.187384 0.058390 255 255 253
-0.005474 -0.019708 -0.017056 254 254 254
0.007449 0.046240 0.057471 253 255 254
-0.021033 0.152720 0.010844 252 253 255
0.030615 0.129158 -0.008783 254 254 255
-0.088859 0.132255 0.039958 101 146 231
-0.068852 0.230105 -0.000839 255 253 253
-0.020702 -0.026861 0.059414 255 255 254
0.041966 0.117015 0.044085 253 255 254
-0.081217 -0.184301 -0.078443 100 148 233
-0.101140 -0.149531 -0.071232 100 148 235
-0.056718 0.231251 0.055777 255 253 253
-0.084269 -0.237953 0.046832 101 148 236
0.033532 -0.020532 0.037218 254 253 255
-0.056976 0.200431 0.059231 254 253 253
-0.083204 0.242979 0.032964 102 150 235
-0.031971 -0.103100 -0.026375 254 254 255
-0.106429 0.220221 -0.063607 131 130 136
-0.097733 -0.236895 -0.010359 100 142 219
0.070186 -0.105395 0.029309 253 253 254
-0.087572 -0.161857 -0.064427 101 149 234
-0.018527 -0.023233 0.050000 254 255 253
-0.082079 -0.043636 -0.019043 101 148 234
-0.083444 0.034369 0.023791 100 149 233
-0.087534 -0.041312 -0.062955 102 149 235
-0.061326 -0.216911 0.053529 254 253 254
-0.050930 -0.168628 -0.011911 253 254 253
0.041877 0.118904 0.040445 253 253 254
0.035566 -0.001198 0.017823 253 253 253
-0.072125 -0.247109 -0.040640 253 254 254
-0.093850 0.163811 0.055100 101 148 229
-0.089724 -0.187475 -0.080319 102 147 228
-0.107159 0.264950 -0.039688 102 147 232
-0.070131 -0.256193 -0.024016 253 253 254
-0.084394 -0.226726 -0.029796 100 150 235
-0.013804 0.109063 0.059980 255 254 255
0.023119 0.010586 0.063319 253 254 252
-0.106083 0.153641 0.030984 100 150 235
0.021024 0.056781 -0.012456 254 253 253
-0.085407 -0.124140 -0.034146 101 149 234
0.007507 0.032934 -0.011967 254 253 253
-0.086536 -0.210455 0.006015 100 148 232
-0.080192 -0.131112 -0.075252 131 135 138
-0.101955 0.085108 -0.004239 102 149 233
0.091745 -0.142388 0.036194 253 252 255
-0.065331 -0.186012 0.009043 253 253 252
-0.072753 -0.199422 -0.024409 253 254 254
-0.007893 0.093405 0.038890 254 254 254
-0.085636 -0.180419 -0.009905 101 146 229
-0.006297 0.084499 0.035554 253 254 254
0.044235 -0.018472 0.022241 252 253 252
-0.073312 0.248426 0.035644 254 253 253
0.077435 -0.086301 0.021823 255 255 254
-0.107499 0.154187 -0.055164 100 147 233
-0.031945 -0.105107 0.005082 254 254 254
0.032668 -0.013040 0.056433 254 254 255
-0.100377 -0.157206 -0.000928 102 149 233
-0.016966 0.149624 -0.030126 255 254 254
-0.084298 0.182493 0.057984 101 148 235
0.081615 -0.113474 0.000948 253 254 252
-0.020884 -0.053361 0.062113 255 255 253
-0.104689 -0.105542 -0.087037 100 149 235
-0.010896 -0.037855 0.042055 254 255 253
-0.100385 0.041583 -0.072772 135 140 145
-0.104266 0.204776 0.025137 100 147 231
0.030131 0.081696 0.042080 255 254 254
-0.053790 -0.184427 0.023923 254 254 254
-0.103844 0.111459 -0.063726 102 150 235
-0.101368 -0.230781 -0.047104 103 148 232
-0.101482 -0.225600 0.041743 103 149 234
-0.094066 -0.036184 -0.028525 102 149 235
-0.027280 -0.098461 -0.010194 252 253 254
-0.079502 -0.247061 0.038936 101 146 229
-0.094573 0.161469 0.054808 143 146 152
-0.079618 -0.029736 -0.008238 101 143 221
-0.020471 -0.071257 -0.008350 253 253 253
-0.105182 -0.168597 -0.068677 102 150 236
-0.028498 -0.103392 -0.025020 253 254 254
0.093127 -0.143962 0.048792 255 253 255
-0.084728 -0.048776 -0.027742 129 133 138
-0.011342 0.134552 -0.010436 252 252 253
-0.097288 -0.091574 0.044623 102 149 235
-0.021533 -0.024344 0.043801 254 253 254
-0.079976 0.159482 0.042287 102 149 236
-0.104081 0.210437 0.013243 103 150 236
-0.101922 -0.085989 -0.085989 103 146 223
-0.000850 -0.012577 0.020579 254 255 254
0.048579 -0.059531 0.039749 254 253 253
-0.082836 -0.266473 0.010230 254 253 252
0.040923 0.126856 0.006588 254 255 254
-0.105818 -0.054678 -0.065210 103 151 235
0.012521 0.081099 0.049864 255 255 255
-0.108437 0.049326 -0.045117 101 148 233
-0.080061 0.103626 -0.068053 103 149 235
-0.000650 0.002659 -0.008596 255 255 254
-0.010310 -0.004436 0.059114 253 254 252
-0.081455 -0.202830 0.054901 102 149 229
-0.045099 0.205296 0.052682 253 253 254
-0.032531 0.178111 0.039158 253 254 253
0.009887 0.059660 0.026434 255 255 253
0.004307 0.038750 0.040761 254 253 254
-0.101584 -0.106901 -0.019837 101 148 236
-0.084868 0.087250 0.031482 101 150 236
-0.107574 0.132640 -0.076554 125 128 136
-0.020666 -0.047648 0.060944 253 253 253
-0.085550 -0.161268 0.013783 100 149 233
0.019722 0.042688 -0.014523 255 255 253
-0.084774 0.258008 0.049082 102 140 214
-0.032147 -0.105557 0.012051 254 254 252
-0.095980 -0.205950 -0.079819 102 149 236
-0.109785 0.111355 -0.046323 126 125 131
0.015100 0.032858 0.009696 254 255 255
-0.082745 -0.139561 -0.065483 101 149 233
-0.066537 -0.233670 -0.014995 253 252 254
0.022759 0.101057 0.000481 253 255 253
-0.096400 0.251900 -0.070114 102 147 234
-0.088175 -0.275387 -0.017015 101 137 199
-0.050410 0.211476 -0.046114 252 254 252
0.011281 0.032159 -0.004853 254 255 255
-0.000024 0.102123 0.012118 253 254 255
-0.105787 -0.065790 -0.045416 100 148 235
-0.105854 0.065408 -0.084697 104 151 236
-0.083799 0.141038 -0.075391 129 132 138
-0.082091 0.171751 0.000047 101 150 236
-0.080259 0.222697 0.051119 102 148 229
-0.083244 -0.085895 -0.044796 100 146 233
-0.034500 -0.119598 0.042911 255 255 255
-0.102477 0.058316 0.032931 100 148 234
-0.099189 0.146378 -0.050454 101 149 235
-0.060004 -0.209821 0.019270 254 255 254
-0.077820 0.240431 0.030646 100 147 236
-0.099443 0.130748 -0.010306 102 149 236
-0.100840 0.236470 0.041377 102 147 235
-0.061921 -0.236900 0.054249 255 255 253
-0.015685 -0.013646 0.005473 255 255 255
-0.096567 0.202516 -0.076209 100 147 234
-0.022017 -0.068958 0.027371 255 253 253
-0.091515 -0.113342 0.025206 129 129 133
-0.015110 0.141698 -0.016011 252 253 254
-0.064874 -0.184380 0.034675 253 254 254
-0.010918 -0.005721 0.050980 254 253 253
-0.096458 -0.187845 0.058734 101 146 228
-0.052658 -0.187230 0.016077 255 254 253
0.061789 -0.050663 0.034064 252 254 252
-0.078292 0.205815 -0.036476 133 136 140
-0.004658 0.027042 0.031777 253 252 252
-0.059446 -0.163209 0.039783 254 255 254
-0.046580 0.185582 0.040930 253 253 254
-0.028086 -0.090816 0.060438 253 254 255
0.045307 -0.020887 0.017378 255 255 253
-0.004904 0.095857 -0.021271 255 254 254
-0.023010 0.128122 -0.003426 254 254 253
-0.097554 -0.100117 -0.025354 102 148 232
0.027300 0.073168 0.007845 254 254 253
-0.088110 0.071122 -0.087455 101 135 195
-0.059540 -0.218279 0.033154 255 255 255
-0.099238 0.231891 -0.025631 100 147 229
0.105872 -0.164948 0.052201 254 255 254
-0.084185 0.253896 -0.008846 102 144 223
-0.036606 -0.124554 0.046229 254 254 254
-0.083355 -0.240807 0.045129 102 150 234
-0.081536 0.153484 0.041101 101 146 227
-0.108133 -0.083797 -0.006529 100 148 233
-0.094099 0.163948 -0.081782 100 148 234
-0.098304 -0.088277 0.045100 102 147 231
-0.083249 -0.249329 -0.059671 101 148 234
-0.085882 -0.234728 -0.013547 101 149 234
-0.051430 -0.175011 -0.032086 253 252 254
-0.106151 -0.159482 -0.052317 100 148 233
-0.082845 0.030895 -0.053112 102 150 233
-0.080236 0.216145 -0.078880 100 138 205
0.005133 -0.000479 -0.002305 253 253 254
-0.082940 0.197727 -0.006095 100 147 232
0.037574 -0.003079 0.044149 254 252 253
0.096096 -0.170557 0.027123 252 253 252
-0.099683 -0.134230 -0.023575 102 149 235
-0.082439 0.162686 -0.034290 102 143 218
-0.084559 0.082223 -0.087757 103 147 229
-0.086158 0.171600 -0.055201 100 149 235
0.035559 0.180543 0.019731 254 253 254
-0.059497 0.224478 -0.045890 252 252 254
-0.068783 -0.244364 -0.024799 253 253 254
-0.093455 -0.034845 -0.035969 129 132 138
0.009864 0.028798 0.008518 253 253 253
-0.106123 0.251170 0.012908 101 149 235
-0.103699 0.199688 -0.074836 102 149 233
-0.015316 0.135458 0.014505 253 255 255
0.088164 -0.128254 0.056703 252 252 254
-0.079917 -0.241542 0.046541 102 148 233
-0.080750 0.250975 0.039451 100 149 236
-0.109404 0.057264 -0.082203 103 149 233
-0.081667 -0.087842 0.033168 101 147 231
0.048321 0.166700 -0.005608 253 253 253
0.018719 0.063763 0.003870 253 253 254
0.048140 0.230993 0.001631 255 254 253
-0.070615 0.262378 0.061291 255 255 254
-0.104610 0.113045 0.039399 102 150 235
-0.030827 0.158148 -0.019925 252 254 254
-0.081567 -0.237518 -0.037668 184 188 192
-0.102637 0.210651 0.021941 101 148 235
0.006318 0.049981 0.033401 255 254 254
0.040455 0.121691 0.011807 254 254 254
-0.086336 0.056018 -0.032231 102 147 234
0.044816 0.206380 0.014135 254 252 254
-0.105644 0.027522 -0.052877 102 150 235
-0.100253 -0.206491 -0.066105 101 148 232
-0.005994 0.090374 -0.024974 254 255 254
-0.029788 -0.056862 0.009313 254 253 254
-0.083657 0.173837 -0.063972 132 135 139
0.028018 -0.009435 -0.009104 254 254 253
-0.001784 0.033486 0.038454 255 255 253
-0.069773 0.270276 0.012886 254 255 253
-0.081934 -0.219519 0.035651 101 148 235
0.048092 -0.030302 -0.006899 255 255 255
-0.105658 0.179756 0.031805 101 147 232
-0.015261 0.137224 0.047883 254 253 254
-0.108426 0.037792 -0.058743 101 149 235
-0.106276 0.202660 -0.074558 102 148 235
0.055539 -0.070803 0.005654 254 253 255
0.083360 -0.144725 -0.005849 252 253 253
-0.082122 0.141137 0.019243 100 144 223
-0.082098 -0.257867 0.034403 101 146 229
-0.103966 -0.187999 -0.028504 102 149 233
-0.041716 -0.139611 0.004157 254 254 255
-0.080971 -0.100273 0.045747 102 149 235
0.099527 -0.151422 0.048638 252 253 252
-0.080183 0.151785 0.032677 125 130 137
0.033261 -0.001152 0.042361 253 253 254
0.037907 -0.003859 0.031024 253 253 253
-0.106851 0.168727 0.021394 100 148 235
-0.081910 -0.090755 0.039895 100 141 217
-0.102581 0.020374 0.017266 101 147 236
-0.080762 0.032574 -0.010110 102 147 232
-0.083876 0.178050 -0.055511 102 147 228
0.013200 0.057010 0.061292 255 253 254
-0.067991 0.250578 0.060568 255 255 254
-0.018360 -0.034385 0.025306 190 190 191
-0.050923 0.225719 -0.006443 253 254 254
-0.079344 0.145906 0.042654 99 149 235
0.047060 0.197957 0.027602 255 255 254
0.004005 0.057354 0.036050 254 255 254
-0.102411 -0.040406 -0.053878 101 148 235
-0.075560 -0.227541 -0.023981 255 255 254
-0.031181 -0.104658 0.035441 255 253 253
-0.109078 -0.196542 -0.055382 101 148 232
-0.074907 -0.262656 0.028239 253 255 255
-0.064368 0.229335 -0.012516 255 254 253
-0.097473 0.247465 0.054729 101 150 236
-0.081836 -0.080140 -0.074293 100 149 235
-0.059063 0.237850 0.050527 253 253 253
-0.070349 -0.212335 0.036604 254 254 253
-0.097128 -0.262421 -0.046291 100 147 231
0.053646 0.212169 0.050938 255 253 253
-0.081749 -0.267811 -0.031114 255 254 252
-0.009017 0.118674 0.039230 254 254 254
-0.101520 -0.148385 -0.084479 100 148 234
-0.040619 0.174424 -0.032508 254 255 253
0.004126 0.037512 -0.002221 254 254 253
-0.102188 -0.139878 0.046419 100 149 235
-0.109883 -0.115751 -0.039395 102 148 233
-0.046824 -0.160240 0.020666 254 253 253
-0.082295 -0.128120 -0.002080 101 148 235
-0.011520 0.129959 0.037406 255 255 254
-0.062290 -0.215517 0.035113 253 255 254
-0.103624 0.135585 -0.042582 102 148 234
0.002826 0.034114 0.056014 252 253 252
-0.081501 -0.064026 0.032201 99 139 213
-0.107882 -0.064348 -0.040479 100 147 234
-0.092883 0.125876 0.045383 101 149 234
-0.098232 0.116084 -0.043276 101 150 234
-0.084287 -0.089036 0.030712 102 148 232
-0.051206 -0.177226 -0.004190 255 254 255
-0.097760 -0.031997 -0.019253 131 138 146
0.102987 -0.165867 -0.000875 252 252 252
-0.010438 0.107801 -0.024747 254 254 253
-0.058767 0.238907 -0.050944 253 253 254
-0.099005 0.113383 0.015174 100 149 235
-0.104527 0.198994 -0.043091 102 150 235
-0.098890 -0.050903 -0.070095 103 139 206
-0.102490 -0.074965 -0.083928 100 144 222
-0.031338 0.153079 0.004556 255 254 254
-0.081240 0.208182 0.023057 102 149 232
0.056908 -0.050312 0.016974 253 253 253
0.020893 0.049123 -0.004123 254 255 253
-0.107264 -0.100925 -0.015546 100 148 235
0.021857 0.028279 0.002250 255 253 253
0.025330 0.105436 -0.000931 253 255 253
0.026501 -0.008191 -0.002784 254 254 255
-0.105260 -0.148106 -0.039105 100 149 235
-0.108146 -0.101224 -0.078068 102 148 233
-0.078863 -0.256737 -0.020145 253 255 254
-0.097949 0.077180 0.046973 101 147 235
-0.046926 0.188960 0.011516 254 254 254
0.002804 0.033701 0.056790 255 255 254
-0.105232 -0.248661 -0.040065 100 148 231
-0.060079 -0.212893 0.008743 253 253 253
-0.082404 -0.044768 -0.067751 135 132 138
-0.047226 0.192550 -0.032751 254 255 254
-0.101289 0.036793 -0.040780 102 149 234
-0.082364 0.104853 -0.014044 102 148 235
-0.086179 0.132601 -0.039237 102 149 235
-0.058718 -0.151691 0.052524 253 253 254
-0.030410 -0.097697 0.060740 253 253 253
-0.025437 0.169470 0.011771 253 254 255
-0.080363 0.062125 0.028386 100 149 234
-0.083240 -0.229319 0.009381 101 149 233
-0.075280 0.269492 0.056140 255 254 255
0.046204 0.135031 0.059599 255 253 253
-0.080993 -0.114351 -0.073790 101 148 234
-0.081410 -0.244504 0.047245 254 254 253
-0.105404 0.222240 -0.019636 101 150 235
-0.082335 -0.229468 0.023984 100 149 232
-0.046186 -0.149192 0.061207 255 254 255
-0.102409 0.173313 -0.023462 100 148 234
-0.047697 -0.127448 0.004148 255 253 252
-0.105372 0.103039 0.010780 102 149 234
0.100241 -0.164542 -0.002163 255 255 253
-0.092289 0.086380 0.043786 102 150 236
-0.084346 0.056877 0.026416 102 149 236
-0.077785 0.111269 -0.040570 102 147 232
0.089049 -0.151002 0.053819 254 255 255
-0.102547 0.140848 0.051330 102 149 235
0.007833 0.059856 0.061818 254 254 254
0.009725 0.014246 0.050385 255 254 254
-0.075993 0.246044 0.046105 255 254 255
-0.087509 -0.256052 -0.019663 253 253 254
-0.088390 -0.033499 -0.024996 102 147 233
-0.083837 0.147305 0.018783 101 149 235
-0.008716 0.123891 -0.016447 253 252 253
0.089135 -0.125019 0.054908 251 251 253
-0.105774 0.049440 -0.074730 103 150 235
-0.007866 0.119304 0.002504 254 255 254
0.044126 -0.044259 0.020426 254 253 253
0.013842 0.033651 -0.010804 254 255 254
-0.080950 0.134656 0.045604 98 138 211
-0.078336 -0.231216 -0.012339 100 148 235
-0.100728 0.123525 0.009532 102 150 235
0.053783 0.218653 0.050842 255 255 254
-0.063727 0.242904 -0.052554 253 254 254
-0.105292 0.230495 -0.013150 105 133 186
-0.086538 -0.038009 0.032333 102 143 219
0.008921 0.052052 0.042859 255 254 254
-0.083156 -0.143676 0.013595 102 150 234
-0.017953 -0.057701 0.020752 253 255 252
-0.099170 0.109139 -0.060366 100 148 234
-0.099735 -0.135867 -0.059320 102 149 234
0.017046 0.071659 0.013288 255 254 255
-0.031262 -0.081907 -0.024085 253 254 254
-0.007760 0.121903 0.007106 255 254 253
-0.106317 0.207949 -0.034183 100 148 236
0.017937 0.049355 0.035120 254 254 253
-0.083448 0.080501 0.039033 101 150 235
-0.110385 0.262799 -0.043015 101 138 204
-0.108402 0.082629 -0.057564 100 139 211
-0.104376 0.093670 0.021039 102 148 235
0.005862 0.047944 0.049588 255 255 255
0.006745 0.078512 0.009983 255 255 254
-0.054203 -0.199092 0.016531 252 252 255
0.003622 0.092303 0.041408 254 254 254
0.027615 0.081550 0.003444 254 253 253
-0.027665 -0.044354 0.006378 254 253 255
-0.092815 -0.090183 -0.087381 101 148 235
-0.086953 -0.198291 0.005272 100 148 234
-0.087321 -0.205440 -0.048429 101 149 236
-0.041646 -0.103908 0.041234 254 254 253
-0.100444 -0.222232 -0.078283 103 149 232
-0.067061 -0.198851 0.033370 254 255 253
-0.033368 -0.113105 0.047989 255 255 255
-0.104496 -0.122848 -0.058060 101 150 236
-0.103105 0.044375 0.039611 128 132 139
0.045946 0.159744 0.003472 255 253 253
-0.016534 0.117346 -0.030138 254 254 254
0.006483 0.036486 -0.010965 252 252 252
-0.099108 0.173672 -0.038699 103 145 222
0.013783 0.046838 0.039227 253 253 253
-0.109841 0.132548 -0.061151 102 150 233
0.024760 0.022005 -0.021793 255 254 253
-0.099408 0.239079 -0.048249 100 147 232
-0.107374 -0.107141 -0.072170 100 149 235
-0.104796 0.189592 -0.037436 102 150 236
-0.099648 0.216484 -0.079987 103 149 234
-0.072240 -0.264434 -0.003914 253 253 255
-0.080876 -0.264581 -0.015341 101 145 227
-0.085378 0.144115 -0.037409 100 148 233
-0.043272 0.178288 0.059528 255 253 254
-0.017350 -0.019716 0.047676 255 255 254
-0.011979 0.129866 0.057875 253 254 255
-0.083144 -0.244929 -0.070597 102 147 234
-0.098650 -0.070109 0.041504 102 141 217
-0.079658 -0.160602 -0.008076 100 149 234
-0.077190 -0.200094 -0.021690 102 150 233
-0.082657 -0.183964 -0.074620 136 138 143
-0.078219 0.270650 -0.019800 254 254 254
0.097019 -0.171974 0.028070 252 255 253
-0.106293 -0.062704 -0.049879 100 149 233
-0.082868 -0.228929 0.044912 102 142 216
-0.062796 -0.171828 0.063070 253 255 255
-0.019901 0.116993 0.025428 253 254 253
-0.069288 -0.120312 -0.026291 193 193 197
-0.103702 -0.272465 -0.025665 101 148 234
-0.025165 0.126747 0.026699 255 254 254
-0.084103 0.165400 -0.007634 102 148 235
0.028932 0.079564 0.020269 253 253 253
-0.061559 -0.171417 0.043088 253 255 255
0.034558 0.092507 0.032135 254 255 254
-0.106601 -0.062392 -0.013940 101 149 234
-0.103206 -0.202620 -0.003636 100 146 226
-0.102812 -0.122644 0.050854 100 149 233
-0.039130 -0.131957 -0.023557 255 255 254
-0.076462 -0.254909 -0.035972 254 255 253
-0.054851 -0.185964 -0.021387 255 253 254
-0.066752 0.228198 0.046219 253 255 255
0.081050 -0.111639 0.027339 254 254 255
-0.050944 -0.132984 0.055973 255 253 255
-0.041528 -0.140795 0.013375 253 254 253
-0.057715 -0.152713 0.045312 253 254 254
-0.104546 -0.073516 0.018693 100 147 235
0.009338 0.072334 -0.006308 255 254 253
-0.046640 -0.126261 -0.025918 252 252 253
-0.059383 0.209438 0.033821 253 253 254
-0.032879 -0.118887 -0.015750 255 254 253
-0.082496 -0.257702 0.027731 101 149 235
-0.100384 0.225495 0.044369 100 148 235
0.090312 -0.129687 0.054327 252 252 252
-0.019739 -0.066163 0.031784 254 255 253
-0.083640 -0.160888 0.061893 145 175 233
-0.086290 0.259488 0.045315 101 148 236
-0.055307 0.203574 0.019913 253 253 253
0.048430 0.161631 0.029926 255 252 253
-0.085168 -0.169571 -0.020422 100 136 201
-0.079319 -0.243569 0.027771 253 253 253
-0.017666 0.140891 0.052025 253 254 254
-0.104306 0.084042 -0.020796 100 149 233
-0.055617 0.221478 -0.051379 254 254 253
-0.071457 -0.262577 0.017203 255 254 252
-0.099237 0.162163 -0.023952 101 149 233
-0.071702 -0.264632 -0.006116 252 252 254
0.018235 0.048199 0.053892 252 253 253
-0.013060 -0.050066 0.059511 255 254 255
-0.085100 -0.066055 -0.042242 101 136 201
-0.080451 0.233300 0.057849 130 128 135
0.022085 0.057761 0.020864 255 255 254
-0.097501 0.031970 -0.058195 134 138 144
-0.000107 -0.013924 -0.005571 253 253 254
-0.104437 -0.105085 0.009795 102 147 231
0.045311 0.129418 0.055997 254 252 254
-0.041740 -0.145019 0.029537 255 254 255
-0.085635 0.035540 0.037409 100 148 236
-0.080728 0.161749 -0.011056 100 149 235
-0.107116 0.115867 -0.080032 130 133 138
0.049331 0.159973 0.040462 253 255 255
0.031758 0.009880 0.032007 253 255 254
-0.044368 -0.105288 0.002471 254 254 255
-0.082950 0.210915 -0.015582 100 148 232
0.016436 0.060208 0.049331 255 254 254
-0.039102 -0.090694 0.005218 252 255 253
-0.071898 -0.260610 -0.042585 255 255 253
-0.056264 -0.149552 0.009501 254 255 255
-0.080998 -0.258953 0.049061 253 254 254
-0.015716 -0.028823 0.061722 254 255 255
-0.101427 -0.160666 -0.068195 103 149 235
0.090713 -0.139649 0.058525 254 254 253
0.046375 0.192940 -0.009614 254 255 255
-0.003016 -0.016471 -0.015347 254 255 255
-0.101668 0.028479 -0.000450 101 148 231
0.015651 0.079925 0.040801 255 253 254
-0.000822 0.069555 0.019698 255 255 255
-0.082011 -0.067153 0.033144 101 149 236
-0.081194 -0.112422 -0.023556 99 148 232
-0.062313 0.223039 -0.040280 255 255 254
-0.097991 0.268795 0.013383 102 148 234
0.033456 0.097108 0.013141 255 252 253
-0.079100 0.048057 -0.029686 102 148 234
0.026987 0.079315 0.002183 254 254 253
-0.053323 -0.196088 0.020846 254 253 252
-0.019130 -0.056702 0.064170 254 255 254
-0.018136 -0.023646 0.012895 254 254 254
0.043568 0.147165 0.060114 254 254 255
-0.020418 -0.050745 -0.015203 254 255 253
-0.079678 -0.051123 -0.017392 100 148 235
0.044034 0.202531 0.015913 251 252 252
0.033980 0.137157 0.033870 255 253 254
0.075584 -0.096866 0.039042 255 253 252
-0.082279 0.156129 -0.034091 102 150 235
-0.105493 -0.129436 -0.026835 103 150 235
0.049472 0.169422 0.022598 253 254 252
-0.086983 -0.269160 0.009206 100 145 224
0.020752 0.045199 0.032064 255 255 255
-0.083578 -0.146500 0.039684 100 149 235
-0.059816 -0.205489 0.055956 253 253 252
-0.013017 0.104246 0.040487 253 255 254
-0.093708 -0.269749 -0.033197 101 147 231
-0.048655 0.186952 0.061538 253 254 254
-0.079852 0.034034 0.035324 131 131 135
-0.103450 0.206214 0.006270 102 150 234
-0.085628 0.261033 -0.048308 254 254 254
-0.101798 -0.267672 -0.001879 102 149 232
-0.004471 0.075682 -0.010259 254 255 254
-0.047003 -0.117410 0.039078 255 253 254
0.041478 0.132058 0.015802 254 253 253
-0.108263 -0.146707 -0.053358 102 150 235
-0.100045 0.241618 -0.048409 138 143 148
-0.081969 0.068215 -0.066457 100 149 234
-0.096397 -0.244744 0.053439 100 150 236
-0.029072 0.142768 -0.023921 253 254 252
-0.102784 -0.076875 -0.064892 99 135 202
-0.104618 0.163894 0.031511 101 150 236
-0.088768 0.075224 0.046658 101 149 235
-0.077416 -0.231066 0.000213 253 254 252
-0.066567 0.231150 0.017074 254 254 253
-0.104176 -0.268611 0.000863 102 149 235
-0.073705 0.262762 0.053176 254 254 254
-0.001523 -0.016250 -0.003181 253 255 254
-0.097931 0.225829 -0.040525 100 149 234
0.017515 0.011260 -0.010566 253 254 253
-0.084498 -0.081391 0.047103 124 132 137
-0.101532 0.069843 -0.084705 100 144 217
0.037375 -0.008856 0.039296 255 254 255
-0.080135 0.265365 0.062346 255 254 253
0.067132 -0.070496 0.025473 255 254 255
-0.085631 0.224858 0.057595 101 144 224
0.085674 -0.132729 0.059262 252 253 253
-0.082283 0.057949 -0.069163 100 147 235
-0.087266 0.251603 -0.038944 100 147 233
-0.082580 -0.233609 0.031241 102 145 224
0.001701 0.067387 -0.005429 254 253 255
-0.105016 -0.121745 0.032209 100 150 235
-0.082289 0.109483 -0.031431 102 148 234
0.082335 -0.111085 0.029254 253 254 255
-0.074442 -0.153447 0.028849 183 189 187
-0.059457 0.244347 -0.001550 255 254 253
-0.043335 -0.160406 0.064439 253 255 253
-0.108032 -0.110766 -0.083998 100 148 232
0.017496 0.042684 0.051445 253 253 253
-0.099646 -0.216267 -0.016865 103 148 235
-0.083294 -0.048676 0.005815 100 147 234
-0.100221 -0.141868 -0.004956 101 149 234
-0.082743 -0.268726 0.018431 103 148 233
-0.104019 0.132880 0.028562 100 149 235
-0.056702 -0.202751 -0.032636 253 254 255
0.009061 0.021787 0.056860 254 254 254
-0.082642 0.202533 0.040133 100 148 235
-0.080715 -0.121947 -0.007338 135 139 145
0.046401 -0.030641 -0.009003 255 254 254
-0.103019 0.133734 -0.056228 101 149 236
-0.082090 -0.124760 -0.036390 102 150 236
-0.077166 -0.220062 0.046128 255 253 253
-0.048293 0.194450 -0.038996 255 254 252
-0.088204 -0.190144 0.058319 102 146 234
0.067279 -0.097854 0.023173 252 253 253
0.021960 0.071372 0.038450 253 254 253
-0.017309 0.105429 0.010410 252 251 254
-0.100246 -0.183952 -0.015962 100 149 234
-0.078874 0.237318 0.033927 101 147 234
-0.047870 -0.162316 0.039510 253 253 253
-0.083896 0.263415 -0.050064 102 147 230
-0.101589 0.129396 -0.034308 102 149 234
-0.079820 0.147314 -0.035362 101 149 236
-0.082818 0.101428 -0.016941 99 144 223
-0.074847 -0.221460 0.052143 255 254 255
-0.105803 0.262739 0.006953 105 134 190
-0.100775 0.125536 0.045927 101 144 225
0.077796 -0.100120 0.044183 253 255 253
-0.083531 0.180340 0.009480 100 148 230
-0.051378 0.206706 -0.049097 254 253 255
-0.076060 -0.222629 -0.003346 254 255 252
-0.083078 -0.136400 -0.086997 100 148 231
-0.103471 -0.064118 -0.079116 103 149 234
0.073592 -0.102988 -0.009304 253 253 253
-0.082709 -0.177147 0.049704 100 147 235
-0.053029 -0.187439 -0.004657 254 255 254
-0.105228 0.146582 -0.014362 100 149 235
-0.082767 -0.121045 0.052539 100 150 235
-0.081809 0.165109 -0.082600 103 149 234
-0.083540 -0.146480 -0.019066 100 148 236
-0.026532 0.127744 0.030945 253 255 254
0.015473 0.047780 -0.017622 254 253 254
0.006667 0.041284 0.030906 255 255 255
-0.047719 0.194531 -0.039827 254 253 253
-0.074567 -0.129577 0.054918 183 187 189
-0.084025 -0.180651 -0.009497 142 149 155
-0.085039 -0.095581 0.018158 100 147 235
-0.042890 0.177714 0.032679 255 254 253
0.008017 0.038806 0.024614 255 254 255
-0.024408 -0.088254 0.038540 253 255 253
-0.098975 -0.186720 0.001359 101 149 235
-0.093409 0.155540 -0.084588 99 135 202
-0.090808 -0.209593 -0.080507 103 150 234
-0.083814 0.237417 -0.046716 101 148 235
-0.031690 -0.072911 0.002993 253 254 252
-0.030959 -0.077150 0.061019 255 254 254
-0.091253 -0.248401 -0.066745 102 149 236
-0.015993 -0.013650 0.047691 253 254 254
-0.081038 0.235362 0.027521 100 150 235
-0.105143 -0.238739 -0.025469 100 149 232
-0.101579 0.067132 -0.083196 100 140 213
-0.104197 0.226079 -0.023993 101 148 236
-0.091474 0.233764 -0.077508 102 147 231
0.035778 -0.025117 0.023190 255 254 254
-0.110838 0.218673 -0.024301 101 131 186
-0.071658 0.245263 0.019260 253 253 254
0.040151 -0.009267 0.025690 255 253 254
-0.083761 0.137520 -0.008898 102 149 235
-0.076168 -0.231650 0.034083 254 253 254
-0.107525 0.072913 0.004091 103 143 218
0.001204 0.072022 0.014116 253 254 254
-0.084718 0.089073 0.032862 102 149 233
-0.067550 -0.248369 -0.027806 253 252 253
-0.107443 0.176476 -0.069460 119 129 136
-0.065494 -0.185532 0.045957 255 254 253
-0.102012 -0.130763 0.052923 136 141 148
-0.082593 -0.244835 0.033191 101 143 217
-0.103670 -0.225860 -0.013925 101 149 234
-0.084361 -0.255764 0.044712 101 150 235
-0.006565 0.010465 0.030528 254 255 254
-0.041694 -0.146531 0.029319 253 253 253
-0.064592 0.220833 -0.013628 254 253 254
-0.095820 0.111810 -0.086197 100 148 234
-0.034975 -0.082648 0.018348 254 253 253
-0.071877 0.015323 0.030447 252 252 253
-0.080286 0.193711 -0.062020 101 148 235
-0.083176 0.113789 0.019626 126 134 143
-0.100158 -0.225551 0.033414 101 149 235
-0.084696 -0.145355 0.003911 102 149 234
-0.005438 0.010591 0.055475 255 254 254
-0.105199 -0.208957 -0.065793 101 149 231
-0.100059 -0.232021 0.061606 102 148 234
-0.083967 0.156985 0.022684 101 150 235
-0.099188 0.085614 -0.088148 102 148 233
-0.060341 -0.165834 0.051014 255 254 253
-0.098873 -0.064661 -0.016127 101 149 235
-0.095585 0.071971 -0.084480 100 150 235
-0.076312 -0.266755 0.019398 253 254 254
-0.102224 -0.058393 -0.042490 101 144 224
0.038482 -0.014196 0.053427 255 254 254
-0.102424 -0.205213 0.017637 100 149 233
-0.108822 0.146175 -0.068993 100 148 233
-0.079889 -0.260494 0.044807 253 253 253
-0.017884 -0.035571 0.050168 190 192 196
-0.081563 0.127343 0.027789 101 149 236
0.025995 -0.000315 0.024700 254 254 253
0.042399 -0.040218 0.061631 253 254 253
-0.073983 -0.227616 -0.005088 254 254 254
-0.087848 0.188398 -0.025248 126 133 138
-0.026953 -0.092450 0.021134 254 253 253
0.022902 0.044202 0.023950 255 254 255
-0.086098 0.177497 -0.065507 100 147 229
-0.101793 0.092086 0.045491 101 146 225
-0.017480 0.143980 0.040366 255 254 255
-0.105293 -0.215906 -0.074966 101 148 236
-0.093420 -0.270572 -0.000929 103 149 231
-0.097502 0.174603 -0.080216 102 149 235
-0.101193 -0.096209 -0.085255 104 150 234
-0.096029 -0.177506 0.057149 103 150 236
0.066716 -0.096657 0.042905 253 253 252
-0.082761 0.174130 -0.046753 100 147 229
-0.048446 0.193992 -0.008194 255 255 255
-0.082966 0.167856 0.036226 102 149 236
-0.080770 -0.044993 -0.032560 100 148 235
-0.040682 0.215318 -0.012079 254 253 253
-0.020605 -0.033621 0.059544 255 253 254
-0.102295 -0.264463 -0.046109 102 149 233
-0.099100 0.266247 -0.046343 134 131 139
-0.081122 0.154188 -0.013302 101 147 235
0.104720 -0.167305 0.039185 252 253 252
-0.056250 -0.147922 0.010592 255 253 255
-0.022243 -0.037097 0.027845 253 254 253
-0.099011 0.124762 0.047603 101 150 235
-0.086501 0.017307 0.014391 127 133 138
0.075219 -0.121080 0.032833 254 253 254
0.012698 0.031074 0.029891 255 253 253
-0.107249 -0.213591 -0.027168 101 143 220
-0.084722 -0.157299 0.011076 100 150 235
-0.067895 0.256366 0.002407 253 254 255
-0.082947 -0.261313 -0.036259 100 148 234
-0.000052 0.071617 0.059931 255 254 254
-0.075868 0.228660 0.000638 100 144 219
-0.088105 0.222035 0.055236 102 149 237
-0.080684 0.221420 0.016017 102 150 235
-0.089644 0.083304 -0.063655 99 146 230
-0.021074 -0.068031 0.050414 254 254 255
-0.104467 0.192135 -0.051645 102 150 236
0.004787 0.056152 0.058085 255 254 255
0.024095 0.042251 -0.017531 254 255 254
-0.053680 -0.152890 -0.028164 254 254 254
-0.005606 0.105461 0.021560 254 254 254
-0.082072 -0.190202 0.020122 101 150 236
-0.107759 0.052786 0.011231 131 130 140
-0.052161 0.216194 0.023399 253 254 255
0.010429 0.028439 -0.001222 254 254 254
-0.054483 -0.183000 -0.004583 255 254 254
0.029115 0.101258 0.006107 254 254 255
-0.081674 0.147491 -0.044956 100 149 234
-0.084874 -0.160339 0.007459 102 141 212
-0.085030 -0.267530 -0.029930 103 149 235
-0.083478 0.077056 -0.041266 100 149 234
0.010763 0.014018 0.059037 255 254 254
-0.083029 -0.124871 -0.038665 101 150 234
-0.077520 -0.254950 -0.043521 104 136 195
-0.102775 -0.216696 0.014858 102 148 232
-0.002566 0.018487 0.034518 253 253 253
-0.104980 -0.157472 -0.084308 102 150 235
-0.087099 -0.266977 -0.025324 102 143 222
-0.107846 -0.104631 -0.020504 103 150 234
-0.108279 0.093028 -0.021928 102 145 226
-0.057092 0.214601 -0.024478 255 254 253
-0.039359 -0.135332 0.014486 253 253 252
-0.018783 0.147683 0.035275 253 253 255
0.002806 0.042611 0.005428 254 255 253
-0.099368 -0.264228 -0.045806 101 148 235
0.063759 -0.064866 0.015038 254 254 255
-0.022256 0.165098 -0.020567 252 252 253
-0.103856 0.155299 -0.044253 102 150 234
-0.082709 -0.079042 0.003210 102 149 236
-0.103066 -0.193988 -0.025055 102 149 233
-0.081382 0.249721 -0.009274 100 148 232
0.051610 -0.037924 0.046314 255 254 253
-0.108553 -0.232534 -0.043315 127 134 142
0.035672 0.001373 0.038906 255 254 254
-0.048506 0.214721 0.018631 254 253 255
-0.092205 0.111395 -0.085357 100 149 235
0.061030 -0.090164 0.004392 255 253 255
-0.102396 0.150778 0.050392 101 149 236
-0.080562 -0.225591 0.052707 188 191 195
-0.082490 -0.063015 0.012976 101 150 236
-0.092711 -0.144308 0.053654 101 147 233
-0.095832 -0.267108 0.026055 102 149 233
-0.087950 0.267342 -0.036721 100 147 230
-0.063669 0.231666 -0.041087 254 253 255
-0.068623 -0.250774 0.044350 254 254 254
-0.034268 0.180314 0.031141 194 202 201
-0.107883 -0.178584 -0.067110 101 148 231
0.093123 -0.143239 0.040644 254 254 255
-0.083211 0.045468 -0.015429 101 150 236
-0.047452 -0.122354 0.026462 254 254 254
-0.081319 0.100615 -0.006155 103 149 234
-0.038622 -0.138550 -0.003558 253 252 253
-0.082111 0.122690 0.012735 100 148 235
-0.083391 -0.060477 0.013777 102 148 235
-0.020132 -0.072783 0.035725 253 254 253
-0.036830 -0.088150 -0.019810 253 254 253
0.023975 0.035548 0.046337 253 254 254
0.061010 -0.056198 0.014999 254 253 253
-0.106509 0.162071 0.024835 126 131 137
-0.084128 -0.049160 -0.077350 102 149 236
-0.031360 -0.102331 0.055704 255 255 255
0.080436 -0.108073 0.050471 254 253 252
0.070083 -0.106165 0.042993 255 254 255
-0.102060 0.092995 -0.015954 101 147 234
-0.048822 0.206580 0.058099 255 253 255
-0.083080 -0.257087 -0.004903 99 135 200
0.003167 0.045461 0.053461 255 254 255
-0.103002 0.198647 -0.001971 100 147 236
-0.080644 0.140393 0.046840 100 148 232
-0.102627 0.158911 -0.047241 103 150 234
-0.108702 0.131674 -0.047247 102 149 234
-0.101657 0.249293 0.043016 131 137 144
-0.007276 -0.031121 0.053325 253 254 254
0.065143 -0.095526 0.004075 255 254 254
-0.104305 0.232093 0.009051 100 150 234
-0.006294 0.012438 0.032028 254 253 253
0.038286 0.123343 -0.002270 253 253 252
0.034554 0.100235 0.019820 255 255 255
-0.036009 -0.096122 0.048967 255 253 253
-0.084979 0.116435 -0.034833 102 149 235
-0.041713 -0.145994 -0.000467 255 255 255
0.025546 0.064732 0.001782 255 255 254
0.030733 0.133924 0.017545 253 253 252
-0.085232 -0.187119 0.005483 102 148 229
-0.104236 -0.215025 0.013415 101 148 232
0.026467 0.098440 0.056688 255 255 253
-0.037642 0.192604 0.026386 254 254 253
-0.103967 -0.094356 -0.067841 103 148 228
-0.083299 -0.154511 -0.081296 145 151 159
-0.106039 0.121342 0.000566 101 148 234
-0.111219 0.214533 -0.049564 100 143 219
-0.108880 0.232339 -0.035499 126 130 142
-0.052171 -0.135618 0.013354 254 254 254
0.047801 0.142839 0.060298 255 253 253
-0.090163 0.280381 -0.004587 101 148 231
0.044585 0.180748 -0.011797 254 255 254
0.037301 0.143508 -0.017039 254 255 255
-0.102715 0.267158 -0.026297 102 150 235
-0.038067 -0.121119 0.059869 255 254 255
0.045808 0.143530 0.035948 253 253 254
-0.091534 0.200536 0.054418 101 149 236
-0.080835 -0.128400 -0.034248 105 137 197
-0.107777 -0.074899 -0.055770 101 147 231
-0.039349 0.191653 0.049948 253 254 254
-0.084752 -0.132090 0.012825 100 148 234
0.044712 0.137395 0.030683 254 255 253
-0.052306 0.217953 -0.053032 253 254 253
0.007192 0.061439 0.061100 255 255 255
-0.036467 0.186397 -0.043038 253 253 253
-0.048214 0.184856 0.052543 253 253 254
-0.077123 0.257654 -0.024078 255 253 255
-0.039018 -0.128939 0.022414 253 253 254
-0.090591 -0.270014 -0.026988 103 147 233
-0.082341 0.117609 0.027193 101 141 214
-0.083354 -0.106159 -0.000145 101 150 235
-0.075878 0.263829 0.055736 255 253 254
-0.013145 0.104780 0.045846 254 254 255
0.037334 0.134993 -0.018203 255 255 253
0.093633 -0.174744 0.036700 253 253 252
-0.083716 -0.223990 0.053245 101 139 208
0.062469 -0.063082 0.010045 253 255 254
-0.104499 0.252959 -0.011927 138 141 146
-0.076970 -0.225558 0.038789 254 253 253
-0.097235 -0.127082 0.049753 100 147 235
-0.090491 0.214650 0.054279 101 147 235
0.096706 -0.149743 -0.003496 253 255 255
-0.083098 -0.042935 0.003849 101 147 233
-0.111888 -0.145145 -0.029502 100 145 220
-0.037884 -0.125735 0.034945 255 254 254
-0.078699 0.271162 0.012390 137 143 150
0.024032 0.001499 0.026333 254 254 253
-0.079362 0.169596 -0.004078 102 149 235
-0.107808 0.193175 -0.037886 102 148 234
-0.075751 -0.219623 -0.018714 253 253 253
-0.085051 -0.181971 -0.022147 103 148 234
0.032709 0.085645 0.047548 255 254 254
0.057810 -0.073388 0.022881 255 255 254
-0.062958 -0.181010 0.006333 254 255 255
0.061479 -0.084240 0.034585 254 254 253
0.040796 0.113263 0.035893 254 253 254
-0.077014 0.143649 0.033097 166 175 187
0.097065 -0.155599 -0.006210 254 253 254
-0.082520 -0.172677 -0.051998 101 139 211
-0.070368 -0.260023 -0.002140 254 255 252
-0.071012 -0.207864 -0.039008 254 254 255
-0.076090 0.245942 0.055230 253 253 253
-0.003817 -0.001785 0.047966 255 255 254
-0.108742 0.100695 0.011144 102 149 235
-0.097519 0.184934 0.057606 123 128 134
0.083843 -0.122445 -0.007147 255 254 254
0.020686 0.106583 -0.016404 253 255 253
0.037125 -0.029795 0.013886 252 255 253
-0.098737 -0.223074 0.043879 103 149 231
0.064824 -0.101580 -0.001935 253 253 255
0.033579 0.131280 0.049857 254 255 253
-0.047282 -0.140484 -0.003881 190 195 194
-0.081246 0.193155 0.013595 100 148 235
-0.033666 0.180391 0.036047 254 254 255
-0.081367 0.254413 0.017909 100 148 234
0.002000 0.009024 0.047622 254 255 254
-0.105746 -0.038408 -0.035981 126 130 137
-0.087981 0.127940 -0.070962 101 146 232
0.029434 0.016869 0.041639 254 254 254
-0.082246 0.261235 -0.000305 255 254 252
-0.083154 0.228123 -0.071410 126 129 135
-0.097104 -0.251154 -0.000752 102 150 235
0.038477 0.188610 0.014791 254 254 254
-0.095021 -0.191742 0.057928 103 147 230
-0.108338 0.104276 -0.019299 102 146 224
-0.082978 0.207796 -0.053314 102 150 235
0.075125 -0.120719 0.016919 254 253 253
-0.055950 0.201814 0.043562 254 255 254
-0.103250 -0.185291 0.016472 101 149 234
-0.085102 0.241191 -0.061107 125 131 137
-0.001589 0.104114 0.051583 254 254 255
-0.014394 0.104627 0.029230 253 253 253
-0.023717 0.121946 0.005723 253 253 254
-0.029974 -0.063375 0.028073 254 255 253
-0.106051 -0.117564 0.021787 102 149 234
0.095697 -0.167925 0.046237 252 252 252
0.006959 0.033705 -0.006981 253 254 254
-0.068285 -0.181451 -0.023582 253 255 254
-0.084224 -0.249762 -0.036415 255 255 255
-0.084280 -0.253785 0.028880 101 145 224
0.090195 -0.157813 0.033833 253 254 252
-0.056174 -0.144737 0.008416 255 254 255
-0.072440 -0.216321 0.016252 254 253 255
-0.102851 -0.257666 0.039872 100 142 217
-0.035010 0.182513 0.027546 254 253 254
-0.087342 0.090017 0.045403 99 146 233
-0.089099 -0.235262 -0.076702 101 150 235
0.025898 -0.001557 -0.022058 254 253 254
-0.001698 0.023257 0.042540 255 254 254
-0.102627 0.157682 -0.005719 104 133 186
-0.105732 -0.147205 0.001765 102 149 231
-0.097823 0.191656 -0.075891 101 147 235
0.089750 -0.135624 -0.004564 254 254 254
0.004618 0.087509 -0.002803 255 254 255
0.030945 0.126877 0.028502 253 253 253
0.002001 0.091542 -0.005581 255 253 254
-0.000762 0.101798 0.054438 255 253 254
-0.102826 0.057241 0.043923 100 148 235
-0.102788 -0.043668 -0.010333 101 150 236
0.014986 0.023756 0.023572 255 254 254
-0.061348 -0.172083 0.000125 254 255 255
-0.099306 0.062478 -0.079682 144 148 155
-0.054737 -0.179731 -0.012043 255 254 255
0.018914 0.017443 0.024769 253 253 254
-0.104799 -0.143468 0.018821 102 148 232
0.057722 -0.075116 0.053168 253 252 253
-0.106049 -0.184821 0.006992 103 146 222
-0.078792 -0.154248 -0.028155 101 148 235
-0.084300 -0.107039 -0.022062 134 138 143
-0.106572 -0.213660 -0.079867 101 149 232
-0.086875 -0.270665 -0.017520 100 147 235
-0.104854 -0.060020 -0.031664 102 149 233
-0.080760 -0.242988 -0.018187 254 253 252
0.012867 0.072411 -0.013555 254 255 254
0.057605 -0.052292 0.032034 253 254 254
0.014109 0.077160 0.044736 255 255 254
0.032194 -0.005569 0.060161 253 253 254
-0.101228 0.243415 -0.072514 103 150 236
-0.088389 -0.103684 -0.084815 100 148 231
-0.086846 0.017073 -0.010700 100 147 234
-0.028765 0.150582 0.053896 253 254 253
0.003778 0.041136 0.043210 254 255 254
0.039411 0.171555 0.038532 255 254 254
0.017043 0.046367 0.059979 255 254 254
-0.072353 -0.261318 0.008440 255 254 255
0.025886 0.022760 0.047665 253 252 254
-0.079913 0.105503 0.045697 103 149 234
0.021298 0.009081 0.058739 255 254 254
-0.102933 0.154580 0.015848 102 149 233
-0.003854 0.004188 0.043140 254 255 253
-0.075723 0.252108 0.037382 253 252 253
-0.031522 0.157409 -0.025079 253 253 252
-0.011170 -0.039079 0.050208 255 254 254
-0.086371 0.038710 -0.018517 100 150 236
-0.095305 -0.121947 -0.084073 102 150 235
-0.083601 0.180093 -0.082093 101 150 235
0.004020 0.035785 0.042068 255 255 254
0.050388 0.220606 0.032754 253 255 255
-0.100861 0.029882 0.009265 101 149 234
-0.000734 -0.009663 0.002832 255 255 255
0.079856 -0.107290 0.035066 255 254 254
0.068894 -0.068007 0.038809 196 196 201
-0.025041 0.128634 0.016867 255 255 254
-0.084460 -0.128703 -0.055864 102 150 236
-0.047848 0.185416 0.026897 254 254 254
-0.092438 -0.063190 0.039376 103 150 234
0.032095 0.008424 0.002627 253 253 253
-0.102624 -0.153860 -0.025427 101 149 235
0.037544 -0.003262 0.052862 254 254 254
0.061175 -0.052781 0.061484 253 253 253
-0.108639 0.097189 -0.031631 101 149 234
-0.042551 -0.146667 0.029911 255 253 254
-0.061780 0.252113 -0.033904 255 254 253
-0.067851 -0.200575 0.021820 253 255 253
0.094190 -0.169944 -0.007395 253 254 252
-0.048273 -0.167482 0.060050 254 255 255
-0.102152 0.273505 -0.003728 103 150 235
-0.107613 0.134269 0.001031 101 150 233
-0.107284 0.077689 -0.037426 102 149 235
-0.000376 0.080389 0.001733 253 254 253
-0.058113 -0.156560 -0.018886 255 253 252
-0.045045 0.186815 -0.035672 254 255 254
-0.100507 -0.271972 -0.012715 101 149 234
-0.082218 0.159210 0.037549 101 148 235
-0.081364 -0.206175 0.018029 102 149 234
-0.081035 0.182767 -0.020032 137 140 146
-0.069996 0.241529 -0.011017 253 253 253
-0.067263 -0.179614 0.005007 253 254 254
-0.014755 -0.043793 -0.006238 254 254 253
0.022558 0.000997 0.007387 254 255 252
0.056823 -0.077549 0.051722 255 253 254
-0.104365 0.026446 0.023516 100 143 215
-0.077677 -0.238649 0.024914 254 255 253
0.051114 0.157556 0.037346 255 255 254
-0.082521 0.103059 0.024301 101 149 233
-0.006921 0.128724 -0.015617 254 254 254
-0.063014 -0.190684 -0.033206 255 255 254
-0.085542 -0.113392 -0.049738 101 147 232
0.069078 -0.106478 0.029338 253 255 255
-0.105511 0.210002 -0.064930 102 150 235
-0.083984 -0.134814 -0.045097 102 143 219
-0.027815 -0.097387 -0.018955 255 254 254
-0.083877 -0.149552 0.057712 126 130 138
-0.079647 -0.210429 -0.052226 103 148 234
0.027499 0.019158 -0.012248 255 252 255
-0.100878 -0.135988 -0.085998 103 148 233
0.007536 0.012573 0.037865 253 254 254
-0.027529 -0.058057 -0.010376 251 250 253
-0.080612 0.258445 0.037776 121 129 134
-0.075747 0.250130 -0.007433 253 255 254
-0.058465 0.200966 0.043607 254 255 255
-0.110080 -0.188118 -0.079631 102 147 233
-0.080437 -0.160328 0.031308 179 181 188
-0.105738 -0.113162 -0.040640 101 147 231
-0.081838 -0.118701 -0.045028 101 149 236
-0.071615 -0.210087 -0.003982 254 254 254
-0.000134 -0.013878 -0.008556 255 255 255
-0.081121 -0.242513 -0.001264 129 134 139
-0.105442 -0.045419 -0.026372 101 149 234
0.069139 -0.080055 0.018120 253 254 255
-0.082410 0.264761 -0.046493 100 148 234
-0.090489 -0.266597 0.026925 101 150 233
-0.047844 0.222651 -0.040656 254 255 255
-0.106873 -0.032434 -0.014030 101 148 230
-0.083092 0.189279 0.001187 102 149 235
-0.104233 0.024365 0.005528 101 144 223
-0.042933 -0.148244 0.045667 255 254 254
-0.089918 0.077753 -0.087672 101 147 228
-0.070627 0.244165 0.026780 252 253 254
-0.083033 0.254340 -0.025672 100 147 232
0.033203 0.096738 0.014019 255 255 255
-0.085198 0.188450 -0.036175 101 147 232
-0.107738 -0.080056 -0.076606 101 148 235
-0.015599 -0.056682 0.050598 255 255 253
-0.080833 -0.195519 -0.014316 100 148 235
-0.088550 -0.136070 -0.060768 101 147 234
-0.084337 0.217840 -0.079178 101 149 235
-0.027333 0.186996 -0.032439 254 254 253
-0.085436 -0.113461 0.049876 102 149 235
0.017704 0.096656 0.008403 254 255 255
-0.085974 0.175864 -0.081685 101 148 231
-0.062707 -0.176158 0.033986 253 254 254
-0.003943 0.011902 0.060705 255 255 255
-0.084652 -0.031388 -0.006337 102 148 235
-0.105714 0.056261 -0.076373 101 148 235
-0.080691 0.241356 0.037843 103 138 205
-0.107082 -0.219698 -0.034905 101 149 234
-0.060264 -0.169923 -0.006924 255 253 252
-0.042495 -0.146462 0.028520 253 253 254
-0.102943 -0.179509 -0.006212 100 148 234
-0.102550 0.255169 0.025952 103 143 217
-0.083760 -0.090613 -0.072194 102 150 236
-0.072176 0.248170 0.008037 254 254 254
-0.015095 -0.046502 -0.012170 254 254 253
-0.105726 0.113340 0.010577 100 149 235
-0.090932 -0.270129 -0.033308 101 149 233
-0.011230 -0.037813 0.057016 254 255 254
-0.027148 -0.095003 0.008244 255 253 253
-0.104602 -0.140875 -0.051260 100 147 228
-0.111092 -0.129285 -0.068023 101 148 235
-0.083445 -0.048425 0.002097 101 147 233
-0.045355 -0.114978 0.028566 255 255 255
-0.078801 0.211592 0.038097 100 149 236
0.006814 0.044360 0.011038 254 255 253
0.082018 -0.099774 0.056927 255 252 254
-0.079477 -0.194195 -0.051154 102 142 216
-0.080541 0.248475 0.046353 102 149 236
-0.082798 -0.246222 -0.005621 128 131 138
-0.076101 0.254320 0.010286 253 254 254
0.039705 0.194366 -0.002173 252 252 252
-0.038610 0.202062 -0.017014 254 255 255
-0.104449 -0.117890 -0.010185 102 147 232
-0.079904 -0.237575 -0.008516 253 253 252
-0.023742 -0.055147 -0.022273 254 254 252
-0.049553 0.200545 -0.000292 253 255 255
-0.004026 0.116904 0.045634 255 255 255
-0.077160 -0.226679 0.043999 174 182 189
-0.098441 -0.261365 0.040440 102 149 235
-0.064149 -0.165174 -0.002078 193 198 197
0.099634 -0.176592 -0.002456 207 210 211
-0.106592 0.073164 -0.030222 102 150 235
0.060225 -0.068760 0.057660 254 255 254
0.049371 0.151074 0.056294 254 254 255
-0.052369 0.229562 -0.010713 255 254 255
-0.021561 -0.033980 0.056821 253 254 253
-0.001752 0.068879 -0.017050 255 255 255
-0.082075 0.199893 -0.006098 100 148 233
-0.048499 0.194050 -0.036952 254 254 254
-0.027763 -0.048971 0.055285 254 254 254
-0.082770 0.268215 0.030293 102 149 236
-0.106359 0.048184 -0.016193 100 150 233
-0.069122 -0.207621 0.032652 254 254 254
-0.107905 0.042318 -0.009760 102 150 234
-0.080594 -0.112813 -0.042790 100 148 235
-0.103407 -0.205253 -0.079415 101 149 235
-0.093946 -0.055565 0.034414 102 147 232
0.038661 -0.006958 0.013764 254 255 252
-0.108003 0.087429 0.017606 100 146 229
-0.099511 -0.223677 -0.051207 102 150 235
-0.107863 0.242943 -0.016497 102 149 235
-0.103636 -0.215483 0.002436 103 149 234
0.002962 0.032159 0.045308 253 253 253
-0.079383 -0.088315 -0.033281 100 149 236
-0.019684 0.150769 -0.001404 253 253 254
-0.082890 -0.253096 0.008792 254 253 254
-0.050584 -0.173615 -0.033903 255 254 253
-0.055231 -0.146981 0.041630 254 254 252
-0.054894 -0.146066 -0.011617 255 254 255
-0.019014 0.115444 0.038793 253 254 255
-0.061381 -0.166897 0.052228 254 253 254
-0.107323 -0.187204 -0.014922 103 150 235
-0.079758 0.038450 0.030084 127 131 137
-0.105899 0.040023 -0.061969 101 147 232
-0.102063 0.094066 0.044346 101 149 236
-0.024600 0.167876 -0.019619 255 255 255
-0.106027 0.066685 -0.056506 100 145 227
-0.083114 0.081417 -0.084092 99 144 220
-0.099992 0.089461 -0.030207 102 149 234
-0.082668 -0.122640 0.053032 101 149 236
-0.057792 -0.160642 0.030729 253 252 253
0.029432 0.125907 0.028752 254 253 254
-0.002826 -0.008089 0.021399 254 254 253
-0.081217 -0.245349 0.018779 101 149 235
-0.061691 -0.224920 -0.009533 253 253 254
0.041362 0.108065 0.047496 254 255 254
-0.014681 -0.017480 0.042030 255 255 254
-0.100946 0.201417 -0.035879 132 130 141
-0.105889 0.032951 -0.006175 130 131 141
-0.079450 0.098430 0.023630 99 148 235
-0.025296 0.139968 0.059109 253 254 253
-0.027408 0.172580 -0.027481 255 254 255
-0.104999 0.139615 -0.064155 100 140 210
-0.082526 0.078500 0.033055 102 148 232
-0.082940 0.178661 -0.002196 101 148 235
-0.070060 -0.240696 -0.038219 253 255 255
0.033528 -0.019636 0.028380 254 255 254
-0.102960 -0.161497 0.055780 101 149 233
0.078921 -0.142155 0.030828 252 253 252
0.052866 -0.061545 0.045190 254 252 254
-0.104807 0.140145 0.018807 100 148 234
-0.014047 0.099496 0.028911 253 254 253
-0.087093 -0.154790 -0.059690 102 150 236
-0.082574 0.262068 0.009710 100 143 219
-0.030406 -0.074768 -0.021252 254 254 254
0.018469 0.054995 0.060644 255 255 255
-0.094551 0.164059 -0.084714 102 149 235
-0.085375 -0.255130 -0.038089 254 254 253
