ply
format ascii 1.0
element vertex 1177
property float x
property float y
property float z
property uchar red
property uchar green
property uchar blue
end_header
-0.111128 -0.200533 0.034362 102 149 237
-0.112592 -0.052155 -0.044518 103 151 237
0.041820 0.176467 -0.005089 254 254 253
0.003064 0.059881 0.061453 254 254 255
0.004810 0.034232 0.056305 255 255 255
-0.072006 -0.226133 -0.012101 255 255 254
-0.085187 0.127352 -0.090426 102 149 236
-0.107775 0.059847 0.036071 103 150 237
-0.103730 -0.190445 0.014372 101 150 238
-0.086301 0.207645 0.048994 100 148 233
0.001424 0.007887 0.058733 254 255 255
-0.033268 0.147160 -0.027432 254 255 255
-0.109121 -0.069543 -0.016065 100 148 236
0.077712 -0.075071 0.017723 255 255 253
-0.035984 0.142270 0.060765 255 255 255
-0.087740 -0.106713 -0.035139 99 148 236
-0.083802 0.290930 -0.004864 131 133 144
0.041616 0.156065 0.030422 254 255 255
-0.109261 0.073179 0.027204 102 150 237
-0.064227 -0.221839 -0.024575 255 255 253
-0.058056 0.230820 -0.021046 254 254 255
-0.109922 0.035642 -0.078959 103 151 238
-0.108112 -0.130728 0.043337 102 149 236
-0.111129 -0.083197 0.001262 101 148 236
-0.027773 0.161038 0.054237 254 255 253
0.073265 -0.060769 0.047826 255 255 255
-0.093698 -0.044706 0.032308 100 149 234
-0.101289 0.056823 0.041335 101 150 237
-0.058317 -0.174606 -0.028381 255 255 255
0.053567 -0.047966 0.030333 255 254 254
0.010866 0.092143 -0.005951 255 255 255
-0.112364 0.021233 -0.043650 100 149 234
-0.088190 0.055606 -0.088404 102 149 236
-0.089861 0.093614 -0.073471 100 150 236
0.079711 -0.072546 0.063110 254 254 254
-0.045189 0.173108 0.061580 254 255 255
0.091905 -0.093586 0.068322 253 255 255
-0.116737 -0.083703 -0.058964 102 151 238
-0.111369 -0.226959 -0.024481 102 150 236
-0.084086 0.168840 0.052680 102 150 238
-0.097167 -0.091550 -0.087679 101 149 237
0.110348 -0.176464 0.038369 253 255 255
0.025742 0.103794 0.054149 255 255 253
-0.085655 -0.198366 -0.056029 101 148 236
-0.024650 0.145218 0.036673 255 255 254
0.019146 0.018438 0.020541 254 255 255
-0.000288 0.060380 0.027231 255 255 255
-0.041994 -0.115915 -0.002039 255 255 255
-0.106519 0.150379 -0.047000 102 148 237
-0.094302 0.123882 -0.038354 100 150 237
-0.068378 -0.181602 -0.014746 255 255 253
0.031614 0.129643 0.032696 254 255 254
-0.107349 -0.140074 -0.050318 101 148 237
-0.104365 0.040454 0.037224 103 150 237
-0.022892 -0.058701 -0.008292 255 254 254
-0.092497 0.141748 -0.017658 102 149 236
-0.111008 -0.198215 0.010793 101 149 237
0.110151 -0.165846 0.017357 253 254 255
0.098682 -0.115948 0.057755 254 253 255
-0.017740 -0.037503 0.018663 255 255 255
-0.105949 -0.173537 -0.004303 101 150 237
-0.054880 -0.172736 -0.019043 255 254 254
-0.004378 0.030024 0.035527 255 255 255
-0.093282 -0.227650 0.051178 102 149 234
-0.087444 -0.083520 0.032574 100 148 236
0.000552 0.066710 0.057379 255 255 255
-0.076803 -0.209781 0.038959 255 255 255
-0.013358 0.005339 0.007308 255 255 255
-0.046877 0.182010 0.013605 255 255 254
-0.034383 -0.061836 0.029093 255 255 255
0.001903 0.053340 0.045579 255 255 255
-0.107756 -0.157970 0.016049 103 150 236
-0.087157 0.120654 -0.011324 133 138 144
-0.103629 -0.173559 0.031061 101 149 238
0.001462 0.089215 0.055326 255 255 255
0.093932 -0.128900 0.050893 255 254 254
0.039670 0.001772 0.035126 254 255 254
-0.085573 0.120024 -0.091311 101 150 237
-0.104461 0.039089 -0.055424 100 150 238
-0.092784 0.025710 0.003349 101 150 236
-0.080736 0.273800 0.017633 255 252 255
-0.065734 0.223877 0.002929 255 255 254
-0.040670 -0.078782 0.058711 255 255 255
-0.085747 -0.273530 0.063989 254 254 254
-0.118112 -0.139986 -0.047383 101 149 238
-0.105719 -0.239949 -0.039176 100 149 236
-0.109812 -0.199965 -0.031857 103 149 237
-0.048021 0.195734 0.062711 254 254 254
-0.099015 0.165025 0.054295 101 149 237
-0.110936 -0.265462 -0.060889 101 150 236
-0.049672 -0.126860 0.061849 255 255 255
-0.085779 0.103789 0.043425 132 137 144
-0.094238 -0.188490 0.031597 101 150 237
-0.026951 0.127214 0.038061 254 254 254
0.041564 -0.022212 0.060460 255 255 254
-0.003750 0.025287 0.051640 255 255 254
-0.090955 -0.095179 0.011414 101 150 235
-0.106974 0.154794 0.049663 103 150 237
-0.053081 -0.126423 -0.014329 255 254 254
-0.072161 -0.246014 -0.008572 255 255 253
-0.092651 0.238591 -0.048170 100 148 237
0.074876 -0.089621 0.064042 255 255 254
-0.034783 -0.068192 0.017157 254 254 255
-0.085360 0.281288 -0.041360 136 136 144
-0.090826 0.093696 0.045868 102 150 237
-0.082053 -0.229589 0.001784 254 255 253
-0.011866 -0.019945 0.015197 254 255 254
-0.008230 0.112938 0.040575 254 255 255
-0.092077 0.124163 0.009251 101 150 236
-0.075037 -0.202656 -0.026685 254 255 253
-0.014621 0.007085 0.043590 255 255 255
-0.087893 0.239252 -0.008599 101 150 238
-0.014830 -0.035440 -0.006313 254 255 255
-0.096841 0.055096 -0.021074 102 151 238
-0.061757 0.210463 0.038980 254 255 254
-0.091892 0.113880 -0.055855 99 145 228
-0.086744 0.029866 -0.043147 100 148 235
-0.011260 -0.001467 0.019543 254 255 253
-0.090368 -0.180360 -0.015691 100 149 237
-0.076933 0.276755 -0.041133 255 255 254
-0.087179 0.218943 0.001972 101 149 235
-0.087073 0.102189 0.012059 101 149 237
0.010325 0.072588 0.056015 255 255 254
-0.068824 -0.223253 -0.029845 255 254 254
-0.004646 -0.001617 0.035217 255 254 255
-0.108620 -0.175029 -0.029102 100 148 237
-0.031093 -0.092415 0.022265 198 201 200
-0.110228 0.033768 -0.018429 102 149 235
-0.086515 -0.174314 0.000758 100 149 235
-0.098794 0.242258 -0.078762 100 150 238
-0.070648 0.237990 -0.018678 255 255 254
-0.093156 -0.275963 0.030408 100 150 236
-0.091254 0.216297 0.024637 102 151 236
-0.083056 0.264700 0.025363 255 255 253
0.083202 -0.111389 0.010550 253 254 254
-0.004602 0.030579 0.055989 255 254 254
-0.075542 0.261183 0.063144 255 254 255
0.045155 -0.003065 0.036637 255 254 255
-0.099776 -0.030426 -0.008221 100 148 236
-0.103562 0.227354 -0.014937 102 149 235
-0.090817 -0.142711 0.038758 101 148 237
-0.092654 -0.244706 0.031278 101 149 237
-0.048186 0.210928 0.001020 254 255 255
-0.018423 0.112106 0.029300 254 255 254
0.030635 -0.001504 0.062972 255 254 255
-0.041207 -0.111238 0.033220 255 255 255
-0.088570 0.076069 -0.086232 100 148 238
0.053728 -0.050427 0.045003 254 255 255
0.031332 0.084631 0.055444 254 255 254
0.029144 0.000145 0.016711 254 254 255
-0.087783 0.276734 -0.006369 102 149 237
-0.113321 -0.279150 -0.000062 101 150 237
-0.112218 0.026709 -0.020667 101 149 235
-0.053152 -0.151843 -0.008144 254 255 254
-0.106958 0.191237 -0.000337 103 150 237
0.099368 -0.151194 -0.004030 255 254 255
-0.064077 -0.188755 0.023721 255 255 254
-0.095403 0.046675 0.038701 100 150 237
-0.082557 -0.204753 0.048969 255 254 254
-0.075196 -0.254885 -0.015025 255 255 255
-0.058443 0.231981 -0.014469 253 253 255
-0.107840 -0.105411 0.010538 101 149 237
-0.037280 0.179782 -0.015693 254 255 254
0.029049 0.129114 0.005825 254 255 254
-0.072889 -0.180530 0.050943 254 255 255
-0.067685 -0.170657 0.030457 254 255 254
-0.030932 0.142472 -0.007479 254 254 254
-0.039319 -0.075703 0.044501 254 255 255
-0.086123 0.163626 0.029698 100 149 237
-0.099239 -0.106583 -0.088186 101 149 237
-0.055170 -0.134902 -0.010422 254 254 254
-0.017104 -0.007838 0.058419 255 255 255
-0.091780 -0.177443 -0.045930 100 148 237
-0.035458 0.176746 -0.022912 255 255 255
-0.109542 0.200054 0.037708 102 150 235
0.002471 0.082481 0.002935 255 255 254
0.013183 0.095958 -0.006597 253 255 253
-0.043852 -0.121211 0.042740 254 255 254
-0.088446 -0.069287 0.015184 102 149 237
-0.086827 0.103592 -0.025723 102 150 236
0.023696 0.101606 0.028929 255 255 253
-0.008278 0.107676 0.015150 255 255 254
-0.109817 0.068814 -0.003685 100 149 238
0.033477 0.013879 0.029061 255 254 255
-0.022104 0.115261 0.052205 255 255 254
-0.032064 -0.067075 -0.023210 254 255 253
-0.034287 -0.108071 0.011480 255 255 255
0.077689 -0.073815 0.014354 254 254 254
0.054255 0.162302 0.055393 255 255 255
-0.079699 0.261961 -0.037930 255 255 255
-0.089079 0.222359 0.038237 100 148 234
-0.017811 0.115687 -0.026730 255 255 255
0.020447 0.074154 0.025655 255 254 254
-0.037109 0.165153 -0.031586 255 255 253
-0.109624 -0.032908 -0.018117 102 149 236
-0.010121 0.082865 0.024790 254 255 254
-0.112800 -0.058506 -0.005192 102 149 236
0.047413 0.202496 0.030839 255 254 254
-0.111570 0.231863 -0.029542 102 149 237
0.042730 0.177187 -0.000032 255 255 255
0.064524 -0.071887 0.002573 253 255 255
0.064935 0.196671 0.036244 255 255 255
0.012116 0.079468 -0.014603 255 255 254
0.001713 0.033450 -0.010332 255 254 254
-0.088065 0.107980 -0.052680 100 148 237
-0.087172 0.234388 0.013298 101 149 237
0.059559 0.219796 0.036705 254 255 254
-0.013941 -0.034794 0.009160 255 255 255
0.042751 0.176965 0.035068 255 255 255
-0.106490 0.103600 0.029130 100 149 237
-0.112994 -0.192403 -0.061003 101 149 236
-0.094685 -0.250630 0.018898 100 150 235
-0.090461 -0.240680 -0.012131 102 150 236
-0.087197 -0.095346 -0.060240 103 145 225
-0.075398 0.268767 0.007168 254 255 255
-0.107311 -0.102684 0.031919 102 150 237
-0.086149 0.109699 -0.005275 103 151 236
-0.087094 0.249684 -0.051828 102 150 236
-0.106715 0.128826 -0.034528 102 150 235
-0.088898 -0.046273 -0.018404 101 150 237
-0.087527 -0.274511 0.038251 102 150 235
-0.107117 -0.263747 0.018671 100 150 237
0.051049 -0.053937 0.013575 216 216 220
0.113780 -0.177827 -0.002748 253 253 255
-0.086062 -0.177089 -0.057148 101 149 237
0.117542 -0.162319 0.057981 253 254 254
0.094259 -0.142947 -0.011950 255 254 254
0.044773 0.186328 0.000182 255 255 255
-0.017918 -0.036171 0.060400 255 255 255
0.049335 -0.006159 0.053679 253 252 255
-0.018338 0.132136 0.057335 255 255 255
-0.105289 0.153555 -0.074868 101 149 236
-0.088952 -0.279416 -0.014604 103 150 234
-0.109968 0.098824 -0.032331 101 150 238
0.056112 0.169687 0.033193 255 254 255
-0.101366 -0.034179 -0.051655 102 148 238
-0.105771 -0.173037 -0.083152 102 150 238
-0.010945 -0.019009 0.047646 255 254 254
0.128569 -0.176826 0.018378 254 254 254
0.082522 -0.102928 0.050110 255 254 254
-0.052275 -0.148998 0.045331 254 255 254
-0.022030 -0.029968 -0.019849 255 255 255
0.002842 0.043124 0.017854 255 255 254
-0.022785 -0.024490 0.038248 254 254 254
-0.090347 0.099366 0.045764 101 149 237
0.014573 0.050295 0.019570 255 255 254
-0.086705 -0.207441 0.032741 101 150 237
0.022592 0.099378 0.048496 254 254 254
0.029937 -0.003738 0.032509 255 255 254
-0.087811 0.197784 0.008924 132 135 143
-0.086254 -0.175278 -0.017355 101 148 236
-0.104989 -0.161150 -0.002205 102 150 237
-0.090470 -0.205039 -0.070233 102 149 235
-0.057281 -0.160951 -0.029637 255 254 254
-0.079469 -0.270735 0.027475 255 255 254
0.011839 0.064117 -0.008358 254 254 254
-0.004150 0.098234 0.028049 255 254 255
-0.105293 -0.231001 0.050705 100 149 235
-0.075701 -0.263875 -0.021217 254 255 255
-0.096638 -0.207471 -0.047122 101 148 236
-0.104951 -0.057240 -0.059048 102 146 227
-0.071910 -0.240849 0.000636 255 255 255
-0.079546 -0.216175 0.033585 255 254 255
-0.040582 -0.086057 0.028046 254 255 255
0.042409 0.126422 0.051093 255 255 255
-0.109153 -0.135356 -0.050207 102 150 236
0.025536 0.016580 0.017405 255 255 253
-0.073399 0.261733 0.012138 255 254 254
-0.110172 0.216420 -0.060633 100 148 237
-0.050922 0.197536 0.023032 255 255 255
-0.082292 0.198813 -0.026833 101 149 237
0.046287 0.165562 -0.003163 255 255 255
0.042200 0.158085 0.035844 255 254 254
-0.018714 -0.011355 0.052011 255 255 255
-0.096036 0.188027 0.059082 101 148 233
-0.025641 -0.044218 0.062109 255 255 255
0.079932 0.231428 0.053048 255 254 255
-0.005039 0.111670 -0.018489 254 255 255
-0.088492 0.270700 -0.017343 255 255 255
-0.078521 -0.218846 0.053448 255 254 254
0.046769 -0.000010 0.024631 255 255 253
-0.036780 -0.064857 0.021848 254 255 254
-0.087015 -0.152232 -0.019292 101 149 236
-0.088218 0.158008 -0.013760 102 148 236
-0.045234 -0.097130 -0.009411 255 255 255
0.053760 0.153835 0.062669 254 254 253
-0.111262 -0.099628 -0.015886 100 150 237
-0.087227 0.152814 -0.017164 100 149 235
-0.016484 0.117441 -0.026930 254 255 254
-0.110688 0.169830 -0.081171 101 148 234
0.017803 0.058558 0.061331 255 254 254
0.078352 -0.096741 0.056203 255 254 255
0.030200 0.027885 0.055672 255 253 253
-0.112857 0.120617 0.006601 101 148 236
-0.052649 -0.116269 0.038185 255 255 255
-0.086553 0.030305 -0.060339 100 149 238
-0.044290 -0.126368 0.010855 255 254 255
0.111221 -0.165158 -0.005649 253 254 254
-0.089246 0.064549 0.043311 138 143 151
-0.111334 0.211723 -0.070148 102 149 238
-0.096134 0.057781 -0.030220 100 149 237
0.129692 -0.178051 0.028897 253 254 253
0.023095 0.100761 0.061480 255 254 254
-0.105847 -0.275182 -0.032190 100 149 237
0.046598 -0.039849 0.012279 254 255 255
-0.059418 0.229128 0.062513 255 254 255
-0.094256 0.091836 -0.042114 100 148 234
-0.010484 -0.000233 0.061815 255 255 254
-0.113542 0.064279 -0.071747 100 149 237
0.001054 0.031253 0.059425 254 254 255
-0.088013 -0.160941 -0.045582 100 149 236
0.101516 -0.141797 0.007103 254 253 254
-0.054353 -0.125354 0.061175 255 255 254
-0.114838 0.234105 -0.011607 101 150 237
-0.061644 0.216466 0.002826 254 254 254
-0.108841 0.088332 -0.068048 102 149 236
-0.107365 -0.184090 0.057059 103 150 237
0.032203 0.022252 0.016757 255 255 254
-0.038532 -0.105731 0.054167 255 255 255
-0.057080 0.210018 0.060755 254 253 254
-0.022750 0.130446 -0.004800 254 255 254
0.049656 0.147702 0.029591 255 255 255
-0.112456 0.038466 0.018851 103 150 237
-0.096123 0.186577 0.052646 102 149 238
-0.109252 0.019836 -0.013175 101 149 236
0.008424 0.041511 0.014153 255 255 255
0.015873 0.052519 -0.015424 254 254 254
-0.006342 0.011944 0.019184 254 255 255
-0.073983 -0.255336 0.012134 253 255 254
0.033581 0.142020 -0.002705 254 254 255
-0.036795 -0.092673 0.061902 255 255 255
-0.024578 -0.025582 0.019654 255 255 255
-0.036181 0.170837 0.044368 255 255 254
-0.085493 0.126958 0.044893 139 145 153
-0.045297 -0.102058 0.037901 255 254 255
0.030616 0.022337 0.040988 253 255 255
-0.080825 0.170655 -0.019890 102 148 233
-0.075677 -0.253360 -0.002030 254 255 255
-0.108443 -0.271250 0.036554 101 150 236
-0.003498 0.047352 0.053924 255 254 254
-0.087597 0.066362 -0.084450 101 151 238
-0.042277 -0.119076 0.060672 255 255 255
-0.005639 0.067059 0.009458 255 254 255
-0.046870 0.200085 0.013578 255 255 255
-0.043087 -0.086262 0.037363 255 255 254
-0.088699 0.196203 0.012998 103 151 237
-0.112429 -0.245522 0.016628 102 149 236
0.069884 -0.055892 0.027217 255 255 255
-0.084619 -0.197069 -0.019018 100 149 236
0.059420 -0.058717 0.042408 254 254 254
-0.105679 -0.074046 0.029577 101 149 237
-0.090669 0.124820 -0.079323 101 149 236
-0.001317 0.095392 0.051477 255 255 254
-0.098788 0.159946 0.049381 100 149 238
-0.093352 0.086985 -0.033417 102 150 236
0.036320 0.106578 0.056664 254 255 255
0.009515 0.053002 0.032913 255 255 255
-0.012629 -0.022600 -0.000274 253 254 254
-0.059610 0.225524 0.061319 254 254 254
-0.110282 0.101731 0.002971 101 149 236
0.083035 -0.107698 0.015346 255 255 253
-0.045844 -0.090729 0.055067 254 255 254
-0.007910 0.084071 -0.009943 254 255 253
-0.090065 0.270575 -0.061635 100 145 228
0.074381 0.244925 0.046658 255 255 254
-0.090177 0.082905 0.021621 100 148 238
0.055129 0.196838 0.039234 255 255 255
-0.089913 -0.092495 -0.066988 100 149 237
-0.088849 -0.066594 0.002184 101 150 237
-0.109796 0.012293 0.010900 102 150 236
-0.087047 0.185571 -0.079264 100 148 237
-0.014790 0.009903 0.021471 255 255 255
-0.074085 -0.191877 0.033939 254 255 254
-0.047633 -0.104666 0.056801 255 255 255
-0.107333 0.136068 -0.045600 100 149 236
-0.087478 -0.135465 -0.064191 100 149 238
-0.091923 -0.171548 -0.023159 100 149 237
-0.099629 -0.084563 0.043737 100 148 237
0.046301 0.174396 -0.009117 254 254 254
-0.057992 0.211660 -0.017851 254 254 254
0.009662 0.079295 -0.010236 255 254 254
-0.029831 -0.039667 -0.000630 254 254 253
-0.078409 -0.270480 0.009919 255 253 254
-0.085206 -0.252026 0.020331 255 254 254
-0.082703 0.261651 0.015977 103 151 236
-0.110416 0.223136 -0.063538 101 148 230
-0.108058 0.023438 -0.049743 101 149 235
0.051860 0.187872 0.062033 255 254 255
-0.019755 -0.041981 -0.001174 254 254 253
-0.034368 -0.098073 -0.023899 254 253 255
-0.085561 -0.069348 0.007052 100 150 237
-0.102132 0.256254 0.056080 102 149 237
0.018488 0.093065 0.010065 255 254 255
-0.012612 0.006236 0.002538 255 255 255
0.014323 0.044871 -0.012950 255 255 255
-0.092079 0.134524 -0.056852 102 149 238
-0.019613 -0.001988 0.012162 255 255 255
-0.086288 -0.123074 -0.048541 138 141 146
-0.085993 -0.179675 0.037651 101 148 234
0.010605 0.027979 0.019795 255 253 253
0.027709 0.110214 0.048619 254 255 255
-0.077601 -0.212894 0.045041 255 255 255
-0.085098 -0.234236 0.056612 254 254 254
-0.054046 -0.162219 0.033427 254 255 255
-0.085942 -0.171500 0.012673 100 148 235
-0.102075 -0.050254 -0.074346 100 149 237
0.011455 0.024622 0.053096 255 254 255
0.052402 -0.025969 0.008063 255 255 255
-0.108827 -0.183429 -0.041478 101 150 236
-0.020597 -0.023281 0.054345 252 252 253
-0.091582 -0.090368 -0.024933 101 148 237
-0.022434 0.151092 -0.018002 255 255 254
-0.010101 0.111640 0.016083 255 254 255
-0.083630 0.223609 -0.052103 100 149 237
-0.021158 -0.014311 0.003079 255 255 255
-0.048604 0.210975 0.005213 255 255 254
0.052506 -0.026578 -0.008670 254 255 254
0.003465 0.048520 0.036116 255 255 255
-0.060704 0.234333 0.020790 255 255 255
-0.088837 0.251700 0.046369 101 148 236
-0.083686 -0.235527 -0.021135 101 149 237
0.048876 -0.009001 -0.007000 255 254 254
-0.082024 0.126811 -0.067676 99 150 236
0.012048 0.080271 0.045235 255 255 255
-0.052034 0.189680 0.026860 254 255 255
-0.055797 -0.131813 0.063428 255 255 255
-0.102005 -0.042361 -0.074338 101 149 237
-0.089660 -0.059161 -0.084995 99 148 235
-0.087418 -0.198358 0.044078 101 149 237
-0.017799 0.129230 0.055163 254 255 255
-0.104965 -0.226967 -0.028846 100 150 237
-0.081614 -0.241083 -0.037704 255 255 255
-0.107994 -0.051475 -0.039883 100 149 236
-0.088390 0.193157 0.054179 101 149 237
0.018634 0.050145 0.046230 255 254 255
0.111764 -0.167266 -0.011595 254 254 254
-0.050081 -0.153628 0.062567 255 254 253
-0.113326 -0.098641 0.001439 100 149 237
-0.051495 0.215703 0.018357 254 255 255
-0.111768 -0.183295 -0.009178 100 150 237
0.127490 -0.173565 0.053126 253 254 255
-0.104837 -0.115181 0.004877 101 149 235
-0.106464 -0.180348 -0.070431 100 150 236
-0.111616 0.125254 0.026738 100 149 237
-0.108204 -0.107368 -0.090780 102 148 237
-0.098118 -0.209170 -0.083321 100 149 237
-0.111683 -0.227880 -0.032706 102 149 236
0.013250 0.056671 -0.015198 255 254 254
-0.107422 -0.066873 -0.031784 100 148 237
-0.081667 -0.227870 0.051716 255 254 254
-0.013066 0.007147 0.000772 254 255 253
0.001255 0.042336 0.035231 255 254 255
0.062496 0.220130 0.046512 255 255 253
-0.039389 0.159301 0.024014 253 253 255
-0.026852 -0.032036 0.046982 255 255 255
0.028682 0.116593 0.048936 255 255 255
0.048123 0.126140 0.063582 255 254 255
-0.059501 -0.140604 0.050715 255 254 255
-0.104305 -0.278551 -0.048763 141 143 149
-0.112273 0.192765 -0.046983 102 150 238
-0.068259 0.248405 -0.011380 253 254 255
-0.081936 0.206983 -0.065664 100 149 237
-0.105517 -0.160210 0.053442 102 149 236
-0.088058 -0.103553 -0.084700 100 149 237
-0.107165 0.268236 0.000719 102 150 237
-0.104070 -0.178426 -0.087498 101 149 238
0.084339 -0.112774 0.029750 254 255 253
-0.109681 -0.246554 0.044364 100 149 235
-0.087973 0.273293 0.017825 102 150 237
-0.057441 0.204169 0.004432 254 254 254
0.124553 -0.187836 0.038647 253 253 255
0.020780 0.101130 0.012519 254 255 254
0.061764 0.220142 0.024648 255 255 253
-0.109558 0.187342 -0.027666 102 150 236
-0.085998 -0.062777 -0.018424 100 148 236
-0.042136 -0.109119 0.062177 254 255 255
0.002617 0.031304 0.059425 255 255 254
-0.056531 0.222302 0.055291 254 254 254
-0.082574 -0.186732 -0.046976 102 150 236
-0.105977 -0.101601 0.008203 100 149 236
0.038331 0.016865 0.056143 254 255 254
-0.084094 -0.233880 -0.013739 255 254 254
-0.073620 0.238492 -0.001572 254 254 255
-0.104924 -0.144071 0.022973 103 150 237
-0.059467 -0.141250 0.014447 255 255 255
-0.110162 -0.215118 0.047214 100 150 234
-0.105238 0.224289 -0.037684 102 149 237
0.061360 0.227087 -0.001539 254 254 255
-0.085608 0.135801 0.043381 133 138 146
-0.115198 -0.138869 0.015040 102 149 238
-0.088765 0.187592 0.054249 101 150 237
-0.033387 0.138818 0.031626 254 255 255
-0.080641 -0.215049 0.025165 255 255 255
-0.109376 -0.070550 -0.040795 102 150 237
-0.056519 0.201726 0.001330 255 255 255
-0.108944 -0.184405 0.025353 101 150 235
-0.087592 -0.103805 -0.019597 101 149 238
0.058242 0.230132 -0.001083 255 254 254
-0.006769 0.110209 0.028438 255 254 255
-0.112566 0.187794 -0.000039 102 150 235
-0.062129 -0.156649 0.008928 255 255 253
-0.089148 0.151528 -0.018375 101 150 237
-0.047847 0.184075 -0.023293 254 255 254
-0.060100 -0.162523 -0.025079 255 254 255
-0.090618 -0.204586 -0.072215 101 149 238
-0.091552 0.243164 -0.020962 101 148 236
-0.084047 -0.103579 -0.005983 101 150 236
-0.088543 0.145063 0.024059 100 148 236
-0.100984 -0.125254 0.047901 101 149 236
-0.054791 -0.132026 0.004328 255 255 254
-0.026501 -0.038318 0.000874 254 254 254
0.032084 0.089133 0.044270 255 255 255
-0.012793 0.122729 -0.008838 253 254 254
0.016874 0.050271 -0.007000 255 255 255
-0.078094 -0.214397 -0.003231 255 255 254
0.019958 0.047684 0.048356 255 255 255
0.086880 -0.090001 0.069263 254 253 255
-0.092230 -0.214870 -0.038227 102 150 237
0.001236 0.014528 0.038718 255 255 255
0.041023 0.148415 0.057091 254 255 255
0.024312 0.045976 0.017669 254 254 254
0.080838 -0.099624 0.033052 253 255 254
-0.109335 -0.173917 0.039168 100 148 235
-0.024710 -0.057407 0.007028 255 254 255
-0.107312 -0.262039 0.007707 102 150 235
0.119471 -0.182556 0.042292 253 255 253
-0.033831 0.175882 -0.030649 254 254 255
-0.071371 -0.205905 -0.031337 255 255 254
0.011255 0.052911 0.051307 255 255 255
-0.117333 -0.112194 -0.074113 101 149 236
-0.089625 0.238862 -0.031049 100 149 237
0.013178 0.039935 0.020415 255 255 255
-0.050782 0.185721 0.062673 255 255 255
-0.092977 -0.200427 0.056405 100 150 237
0.018625 0.026067 0.005158 254 255 255
-0.089937 -0.058259 -0.084025 102 148 238
-0.091037 0.170828 -0.066176 99 148 236
-0.111698 0.171413 0.005850 100 149 237
-0.090762 0.128200 0.030115 102 150 238
-0.015737 -0.048893 0.028103 253 253 253
0.045000 0.118026 0.053599 254 254 253
-0.049081 -0.117133 -0.003044 255 255 254
-0.085246 0.101915 -0.007443 101 148 237
-0.083501 0.070645 0.005794 102 150 236
-0.110956 -0.185522 -0.007799 102 150 238
-0.079585 -0.267042 0.046989 255 255 253
-0.043646 -0.127920 -0.007631 254 254 254
-0.029508 0.138226 0.008931 255 255 255
0.047035 0.174716 0.049494 255 255 255
-0.096096 -0.208420 0.053710 102 149 237
-0.091454 0.159493 -0.016816 102 150 237
-0.041071 -0.081466 0.062803 255 255 254
-0.085112 -0.125478 0.002536 148 153 159
-0.061649 -0.205294 0.022446 254 254 255
-0.087894 -0.176332 -0.001706 101 150 237
-0.082387 -0.259526 0.031853 255 255 254
-0.109829 0.209906 -0.048396 101 149 235
-0.000761 0.060430 0.020938 255 254 254
-0.106409 0.216936 0.017102 100 148 232
0.044557 0.167814 0.034093 254 255 254
-0.048691 0.208820 0.034993 255 253 255
-0.075617 0.243929 0.032488 254 255 255
-0.087336 0.071716 0.045585 102 150 237
-0.080207 -0.197901 -0.063205 144 144 149
-0.110773 0.025641 -0.043431 103 150 236
-0.082072 -0.247271 -0.037135 255 254 253
-0.101319 -0.279241 0.021626 100 150 237
0.012004 0.056131 0.064237 254 255 255
-0.090955 -0.116268 -0.013765 102 150 236
-0.105916 -0.109619 0.046555 102 149 235
-0.088457 0.053601 0.040522 101 148 237
-0.087495 0.100600 -0.093484 103 150 237
-0.067568 -0.206086 -0.007362 255 255 253
0.039202 -0.016623 0.053916 255 255 255
-0.017188 -0.002564 0.033389 207 213 217
-0.101770 -0.188263 0.054327 101 148 236
-0.033549 0.129854 0.061531 255 254 255
-0.102877 0.277674 -0.051902 101 148 233
-0.091874 -0.240177 -0.007171 100 149 237
-0.108355 0.147782 0.050740 102 149 238
-0.094409 0.039916 -0.080267 99 147 234
-0.087997 0.187989 -0.016997 100 149 237
-0.048924 0.209351 0.009648 255 255 254
-0.114501 0.178831 -0.006689 102 150 238
-0.103040 0.277994 0.006193 102 150 237
-0.012099 -0.014883 -0.008956 255 255 255
-0.033940 -0.093083 0.057728 254 254 255
-0.080003 0.270222 0.032946 255 255 254
-0.109905 -0.185639 0.045532 101 150 235
0.012110 0.045631 0.035508 255 254 255
-0.020400 -0.013193 0.018133 255 255 255
-0.069097 0.229519 0.037105 254 254 255
0.034513 0.097474 0.000922 255 254 255
-0.074851 -0.254258 -0.022062 254 255 255
-0.107248 0.207740 -0.031633 100 148 237
-0.009127 0.002444 0.056953 255 255 255
-0.027578 0.157874 -0.005814 255 254 255
-0.045280 -0.096407 -0.011134 255 255 255
0.048232 0.150757 0.038041 254 255 254
-0.003490 0.104971 0.011514 255 255 254
-0.088499 -0.270959 -0.028069 255 254 255
-0.085833 0.194811 0.033320 100 149 235
0.086992 -0.117996 0.033548 254 255 255
-0.108065 -0.026393 0.012739 101 150 237
-0.115839 0.205000 -0.023524 101 149 237
0.042187 -0.025750 0.019394 254 255 255
-0.107668 -0.145173 -0.049373 100 149 235
-0.001492 0.091488 -0.004868 255 255 255
-0.086572 0.265288 0.035729 103 151 236
-0.087416 -0.212058 -0.061882 101 149 235
-0.087412 0.258507 0.045688 101 150 237
-0.025525 -0.072719 0.031512 255 255 255
-0.089362 0.167766 0.032010 102 148 235
0.019649 0.069802 0.062363 254 253 255
-0.036045 0.174443 -0.035461 254 255 254
-0.087191 0.190440 0.045590 131 135 144
-0.110318 -0.070567 -0.033061 101 149 237
-0.097029 0.067142 0.044991 102 150 237
-0.016785 -0.004615 0.052565 255 254 255
0.080756 -0.103011 0.012469 255 255 253
-0.092505 -0.265859 0.024539 255 255 255
0.036823 0.108488 0.021436 255 255 254
-0.111562 -0.199303 -0.008166 102 150 237
0.041108 0.123695 0.062311 255 255 255
-0.088964 0.198704 -0.013736 102 142 216
0.038721 0.168664 0.009567 254 254 255
0.054895 -0.027987 0.021297 255 254 254
-0.087373 -0.066746 -0.045333 101 149 237
-0.066462 0.215606 0.042199 255 254 255
-0.091464 -0.263098 -0.042850 102 149 236
-0.115024 -0.078740 -0.074742 101 147 233
-0.071225 0.256824 0.039791 254 255 253
-0.111682 0.019119 0.005158 100 149 237
-0.090675 0.227461 0.020612 100 148 235
-0.025823 -0.037521 0.061197 254 255 255
-0.087369 0.230326 -0.042132 126 133 143
-0.033394 0.170173 -0.012097 254 255 254
-0.104276 -0.178906 0.015337 100 148 237
-0.059876 -0.147809 -0.017362 255 255 255
-0.087565 0.206493 0.004716 102 149 237
-0.041424 0.187438 0.061130 255 254 254
-0.004981 0.048469 0.007088 255 254 255
-0.101329 0.275209 -0.014438 100 147 234
-0.094263 0.034706 0.022403 101 149 237
-0.066681 -0.206246 0.031146 255 255 254
-0.090782 0.087651 -0.030367 100 148 235
-0.105916 -0.036309 -0.064069 100 148 238
-0.111362 -0.058262 0.035879 102 149 234
-0.107305 0.095932 -0.083145 100 148 236
-0.054647 -0.110628 0.030393 255 255 255
-0.108817 -0.225876 -0.078151 102 149 235
0.038566 -0.016815 0.027455 255 253 255
0.060990 0.181304 0.054739 255 255 255
-0.089941 0.213620 0.057102 100 148 234
-0.092716 0.086861 -0.066790 101 151 237
0.032032 0.137912 -0.011195 254 254 255
-0.091350 0.226385 0.022557 103 151 237
-0.089819 -0.261270 -0.025540 103 148 236
-0.090646 0.166309 -0.028645 102 149 235
0.049530 -0.040479 0.009358 253 253 255
-0.078615 -0.230755 0.058519 255 253 253
-0.067675 -0.187436 0.062002 255 255 255
-0.113525 -0.081526 0.041376 101 150 237
-0.114056 0.097927 -0.032686 100 150 237
0.012747 0.065390 0.045604 255 255 255
0.066009 0.199403 0.031446 255 255 254
-0.058292 0.228170 0.045081 255 255 255
-0.037968 0.153356 -0.001117 254 255 255
0.004235 0.062144 0.058147 255 255 255
-0.108940 0.220777 0.005705 102 148 238
-0.108686 0.069509 -0.022966 101 149 237
-0.066293 -0.199579 -0.004589 255 255 254
0.043521 -0.003507 0.009737 254 255 255
-0.086009 -0.255046 0.038581 255 255 255
-0.112574 0.220410 -0.048870 102 150 237
-0.089045 -0.251304 0.024380 255 254 254
-0.089080 0.120164 -0.090051 103 150 237
-0.106430 0.156541 0.020647 100 149 238
0.073357 0.216970 0.034864 255 254 255
-0.052802 0.220978 0.012946 255 254 255
-0.096647 -0.196518 -0.082347 102 150 236
0.033818 0.134199 -0.013823 255 254 255
-0.091767 -0.152888 -0.037582 102 149 236
-0.078414 -0.248212 -0.037871 255 255 255
-0.108417 0.027508 -0.059537 102 149 236
-0.074252 -0.262467 0.012463 253 253 255
-0.104065 -0.131339 -0.030328 100 149 236
0.050427 0.163141 -0.006334 255 255 255
-0.087492 0.223726 -0.052013 102 149 236
-0.031212 0.173809 -0.001641 255 254 255
0.041036 0.002528 0.021261 255 255 255
-0.037398 -0.072585 0.033720 255 254 255
-0.089846 -0.264228 0.041860 255 253 253
-0.105726 -0.250999 -0.037928 101 149 238
-0.088025 0.229670 -0.014762 133 137 143
0.072340 -0.083840 0.056657 255 254 255
-0.091577 -0.274034 -0.050831 100 148 236
-0.115046 -0.126048 0.020029 101 150 237
-0.113293 -0.160966 -0.000871 100 148 237
0.019027 0.056387 -0.007959 255 255 254
-0.089932 -0.054687 -0.054916 103 151 237
0.119874 -0.183323 0.020392 255 254 253
-0.035605 0.183007 -0.000123 255 253 255
-0.107253 0.259753 -0.066086 102 150 238
-0.054236 -0.123739 0.022820 255 255 254
-0.101534 0.229378 -0.081109 101 149 235
0.086189 -0.090317 0.038438 255 254 254
0.024823 0.102943 0.039946 255 254 254
-0.104833 0.066186 -0.037716 102 149 237
-0.036189 -0.100060 0.017727 255 255 254
-0.041129 0.195030 -0.038087 255 254 255
-0.035001 -0.103917 -0.016925 255 255 253
-0.115557 0.094296 -0.059537 100 148 236
0.026671 0.111768 0.000600 254 254 255
-0.093517 0.086696 -0.050807 102 149 235
0.047534 -0.013318 0.044669 255 255 255
-0.093763 -0.115500 -0.025522 102 150 237
-0.087481 -0.273477 -0.013662 255 255 253
-0.112940 0.207474 0.001886 100 148 236
0.068887 0.243137 0.033499 255 255 255
-0.106979 0.147016 -0.006390 100 148 237
-0.053855 0.197143 0.014040 255 254 255
-0.091003 -0.182777 0.041323 99 148 235
0.008958 0.053688 0.036134 255 254 255
-0.006533 -0.006068 0.054650 254 254 254
-0.037876 0.172221 0.059166 254 255 255
0.001978 0.081527 0.030796 254 255 255
-0.110285 0.145135 -0.042563 102 150 235
0.055264 0.192399 -0.002937 254 253 254
-0.040033 -0.079294 -0.009156 255 255 254
-0.039049 -0.114887 -0.001061 254 255 255
-0.060696 0.240114 -0.014734 253 254 255
0.054739 0.159984 0.038335 254 254 254
0.039739 0.166485 0.002562 254 254 254
-0.104330 0.030378 -0.029078 100 149 236
-0.109205 -0.037792 -0.030493 101 150 236
-0.099788 -0.283116 0.008587 102 150 236
-0.052978 0.225552 -0.039181 255 255 254
0.045446 -0.002870 0.042445 253 255 255
0.112982 -0.172334 -0.000643 253 255 255
0.011124 0.049676 0.064229 255 255 255
-0.099816 0.015548 -0.033213 102 150 236
-0.073489 0.235965 0.058431 255 254 254
-0.114808 -0.076005 -0.052159 100 150 235
-0.096550 0.201928 0.056454 100 150 238
-0.085719 -0.277418 -0.004181 144 179 231
0.052828 0.193998 0.057964 255 253 255
0.004120 0.087959 0.050233 254 254 254
0.126110 -0.170665 0.028585 253 255 253
-0.092615 0.098338 0.030827 101 149 238
0.107231 -0.137518 0.041573 255 255 255
-0.104214 -0.143274 -0.030398 102 149 235
-0.009867 0.019532 0.000321 254 254 255
-0.089346 -0.250347 0.000452 102 150 237
0.043039 0.155747 0.063961 254 255 255
-0.011845 0.091655 0.056121 254 255 255
0.062784 -0.064212 0.032068 255 254 254
-0.023972 0.119449 -0.018940 254 254 254
-0.088839 -0.269411 0.022770 255 255 255
-0.101980 -0.174463 -0.084234 101 150 235
-0.087302 0.272546 0.026129 100 146 227
-0.069786 0.252891 0.055262 253 255 255
-0.095443 -0.203753 -0.037466 100 150 238
0.029191 0.085167 0.030087 254 255 253
-0.112703 0.256018 -0.009450 101 150 236
-0.104121 0.177330 -0.081245 101 149 237
-0.028440 0.159190 -0.020115 255 254 254
-0.086840 -0.143820 -0.090407 100 149 235
0.062819 0.184629 0.040599 255 255 254
-0.115978 0.132457 -0.062891 100 149 235
0.095591 -0.136187 0.003412 253 254 254
-0.086693 0.112457 -0.038581 103 149 235
-0.108985 0.208532 -0.011626 101 150 238
-0.088824 -0.239845 0.017721 102 150 238
-0.106684 0.252038 -0.048617 101 149 235
-0.105012 0.104690 0.032980 103 150 238
0.084961 -0.112672 0.037901 255 255 255
-0.085184 -0.187315 0.019815 102 150 236
-0.078210 -0.269748 -0.037404 255 255 255
-0.089116 -0.248404 0.040468 102 149 237
-0.011747 -0.001369 0.062041 254 255 255
-0.106813 0.101886 -0.066044 100 150 238
-0.105180 -0.251946 0.001187 102 149 234
0.044670 0.179722 0.011662 254 255 255
-0.089269 -0.037766 -0.065621 100 148 236
-0.115556 -0.087330 -0.057724 102 150 237
-0.031076 0.167981 -0.026523 253 253 253
-0.107992 0.064012 0.008599 101 148 236
-0.102980 -0.212737 0.030731 100 148 233
-0.107865 0.066765 -0.084917 101 150 238
-0.095234 -0.224197 0.057597 101 148 237
-0.107632 0.200083 -0.069039 101 149 237
-0.006359 -0.005734 0.015206 254 255 255
-0.011647 0.009867 0.026315 254 254 254
0.015688 0.021831 0.010723 254 254 254
0.039408 0.132722 -0.006704 254 255 255
-0.112768 -0.185927 -0.022158 103 149 235
-0.107106 -0.116321 -0.091121 101 149 236
-0.088357 0.185241 -0.037142 127 134 142
0.070326 0.215660 0.004769 255 255 255
-0.052261 0.219879 0.031508 253 255 255
-0.106995 0.207803 0.051631 103 151 238
-0.025372 -0.067959 0.015261 255 255 253
-0.072078 0.261795 -0.042477 254 255 255
-0.106152 -0.140102 -0.019006 100 139 206
-0.093536 0.094067 -0.001275 100 148 235
-0.069795 0.255049 0.004648 254 253 254
-0.088368 -0.041388 -0.001480 101 150 237
-0.028816 0.152734 0.029352 254 255 254
-0.109200 -0.279978 -0.019780 101 150 236
-0.103525 -0.253438 -0.057260 101 149 235
0.021267 0.072967 0.007544 255 255 255
-0.038290 -0.069040 0.038353 255 255 253
0.014211 0.064375 0.059215 254 255 255
0.064329 0.206334 0.022712 255 255 254
-0.061598 -0.155322 0.003903 255 255 255
-0.079768 -0.271666 0.030871 255 255 255
-0.091897 -0.154217 -0.057805 102 150 237
-0.106676 0.265909 -0.054028 100 149 237
-0.104884 0.203303 -0.003899 100 148 235
-0.113299 0.036071 -0.067480 102 144 223
-0.085862 0.189672 0.043814 102 148 234
0.011464 0.067054 0.043985 254 254 254
0.048331 -0.012794 0.001926 254 253 253
-0.089932 -0.171713 -0.031312 100 149 236
-0.085964 -0.125211 -0.086534 100 149 236
-0.044140 0.200775 -0.032755 254 255 254
-0.096648 0.020482 -0.040866 102 150 235
-0.110548 0.037267 -0.005393 100 148 237
-0.091859 0.240144 0.030968 101 150 237
-0.017254 -0.037647 0.024246 255 254 255
-0.110279 -0.222722 0.049801 102 149 235
0.002030 0.012506 -0.001784 255 255 254
0.017480 0.074174 0.036126 255 255 255
-0.093827 -0.238203 0.024699 101 150 237
0.037126 0.105435 0.037376 254 254 255
-0.058461 -0.171519 -0.015365 254 253 255
-0.091137 -0.228247 0.057315 101 147 230
0.010635 0.067672 0.043843 255 255 255
-0.117155 -0.233286 -0.030076 100 150 235
0.057013 -0.052545 0.063362 255 253 255
0.045236 -0.003683 0.055780 255 255 254
-0.073198 -0.196540 0.020194 255 255 255
0.115576 -0.160153 0.003807 253 253 254
-0.112182 0.099626 0.037536 101 149 237
-0.058584 -0.186756 -0.028179 254 254 254
0.054797 0.152383 0.058354 255 255 255
-0.112398 0.258951 -0.032557 102 150 236
-0.021615 0.107312 0.037870 255 255 255
-0.106895 0.041268 0.020988 101 149 237
-0.066882 -0.214503 0.048877 255 255 255
-0.083970 0.199878 -0.024481 124 133 143
-0.045953 -0.136853 0.032784 254 255 255
-0.024883 -0.055491 0.001504 255 255 255
-0.077776 -0.264332 0.029592 255 255 254
-0.091402 -0.227747 0.054807 101 148 237
-0.036439 0.172524 0.030527 254 254 255
-0.104887 -0.263700 -0.006676 102 150 235
-0.014642 0.005596 0.060337 255 255 255
-0.108192 0.221189 0.045730 102 150 238
0.003382 0.055822 0.039715 254 254 255
-0.082655 -0.236414 -0.001347 255 254 254
-0.086667 -0.266596 -0.018930 102 150 237
-0.091007 -0.118702 -0.095553 101 149 237
-0.087419 0.050894 -0.037210 100 149 236
-0.032256 -0.054439 0.029657 255 254 255
0.096156 -0.137280 0.043043 253 254 254
-0.088516 -0.258483 0.014966 254 255 255
0.009126 0.070150 -0.009962 255 255 254
-0.005484 0.079933 0.033369 255 255 255
0.129359 -0.175491 0.047525 255 255 255
-0.088847 -0.218260 0.029915 102 150 235
-0.085080 0.203077 0.019553 100 148 237
-0.115121 -0.055714 -0.046201 101 149 235
-0.091784 0.108596 -0.020322 102 151 238
-0.046047 0.196813 0.026329 255 255 254
-0.004694 0.102378 0.027604 255 255 255
0.002032 0.091152 0.001928 254 255 255
-0.112199 -0.064265 -0.079495 100 149 235
-0.083319 -0.276882 0.026081 255 255 255
-0.037315 0.178164 0.020650 255 255 253
-0.094697 -0.136438 0.011771 103 146 228
-0.076117 -0.204976 0.018516 255 255 254
-0.116007 -0.145795 -0.011391 102 150 237
0.035915 0.105264 0.035474 254 255 253
-0.055248 -0.138303 0.061276 255 254 254
0.009331 0.066254 0.019917 255 255 254
-0.089084 -0.154556 -0.023604 101 149 238
-0.051922 0.217348 0.014002 255 255 255
0.040701 0.112502 0.017835 254 255 253
0.038271 0.107646 0.063076 255 255 255
-0.106974 0.273549 -0.042832 101 149 234
-0.054167 0.191195 0.045206 254 254 254
-0.108977 0.092681 -0.089603 102 150 237
-0.088985 -0.163247 -0.036828 100 150 237
-0.033981 -0.094197 0.006823 253 255 253
-0.089936 0.130010 -0.003891 102 150 236
0.099082 -0.139609 0.056255 253 255 255
0.095834 -0.144630 0.043395 253 255 255
-0.088170 -0.033249 0.012956 102 150 237
-0.104621 0.056521 0.009549 101 148 235
-0.040772 -0.108700 -0.023657 255 255 255
-0.013038 0.121275 -0.025245 255 255 255
0.026873 0.027485 0.047894 254 255 255
0.017037 0.060396 -0.015324 255 255 255
-0.089184 -0.124633 0.042240 100 149 236
0.005614 0.079621 0.052739 255 255 255
0.006496 0.045906 0.041967 255 255 255
-0.032761 -0.100057 -0.025496 254 253 254
-0.074963 -0.201129 -0.028458 255 255 253
0.021151 0.065284 0.061094 254 255 254
-0.056312 -0.160067 0.021170 255 254 254
-0.092905 -0.247243 -0.027033 102 149 235
-0.114144 0.070962 -0.016352 102 149 237
-0.042639 0.191021 0.008635 254 254 255
-0.080443 -0.213184 0.019321 255 255 255
-0.016336 -0.003346 0.027698 254 255 254
-0.093267 -0.259403 0.009527 101 149 236
-0.104963 -0.069212 0.037202 101 150 238
-0.112437 0.044405 -0.004072 100 150 237
-0.032322 -0.061517 -0.017035 254 254 255
-0.068202 -0.206946 0.017897 254 255 254
0.054342 -0.046972 0.045637 253 255 255
-0.047352 0.187074 0.059921 254 255 254
0.128936 -0.180238 0.013254 253 253 253
0.049176 -0.018676 0.038469 255 255 255
-0.111324 -0.099918 -0.011302 100 145 229
0.049421 0.149788 0.048583 255 255 255
-0.032047 -0.092782 -0.003553 255 255 255
-0.013142 0.100058 0.059650 255 255 254
-0.069392 -0.232915 -0.001275 255 255 254
-0.087773 0.140038 -0.013245 101 148 237
-0.091793 -0.195147 -0.085980 101 150 237
-0.103661 -0.029276 0.008401 101 150 237
-0.082771 -0.280711 0.017073 255 255 254
-0.086434 -0.134117 0.015337 101 148 236
-0.109041 0.133742 -0.046637 129 132 139
-0.089436 0.113995 0.045295 133 138 144
-0.115432 -0.109446 -0.055802 101 149 237
-0.095420 -0.200803 -0.085630 102 150 236
-0.105075 -0.261227 -0.018544 130 134 142
-0.050104 0.218093 -0.007534 255 255 254
0.005579 0.051609 0.062512 254 255 255
0.024149 0.041498 0.045179 255 254 254
-0.108148 -0.063368 -0.086433 100 149 236
-0.060570 -0.196516 -0.014703 255 255 254
0.000444 0.021376 0.024510 255 255 254
-0.112497 0.133413 0.005339 100 149 236
-0.005321 0.078160 -0.011985 253 254 254
-0.090150 0.225773 -0.013011 101 150 237
-0.106689 -0.150107 0.037651 102 150 237
-0.116539 0.053088 -0.064311 102 150 237
0.057150 0.179226 0.002699 255 255 254
-0.116393 -0.058332 -0.064749 102 150 238
0.044329 0.189592 0.004245 254 253 255
-0.113079 -0.277558 -0.000940 102 149 235
-0.024550 -0.070754 -0.017983 255 254 254
-0.113009 -0.105448 0.001700 103 150 238
-0.086322 -0.126702 -0.023868 101 150 237
-0.031747 -0.077701 -0.022355 255 255 255
-0.089602 -0.084774 -0.090009 101 148 236
-0.086495 0.093003 -0.068754 99 149 236
-0.079665 -0.221465 0.034002 255 255 255
-0.106679 0.146438 -0.030932 102 150 236
-0.097285 0.252244 -0.076040 101 147 232
-0.088141 -0.092693 -0.063885 99 148 235
-0.111959 0.129268 0.003741 100 149 236
0.044978 0.147774 0.017811 255 255 254
-0.086517 0.136379 -0.030341 101 149 237
0.077739 0.221925 0.052132 255 255 255
-0.087456 -0.255117 -0.031236 100 149 236
-0.090159 0.174913 0.007398 101 150 236
-0.082721 -0.090018 -0.017690 100 150 236
-0.086484 0.078230 0.011757 103 151 236
-0.087816 -0.225530 -0.080555 102 148 235
-0.080689 -0.224990 -0.001865 254 254 254
0.117024 -0.179503 0.011857 255 254 255
-0.066736 0.231020 -0.038123 254 254 254
-0.088240 -0.039335 0.002581 103 150 236
-0.084224 -0.132830 0.033747 100 148 235
-0.004032 0.000521 0.059654 254 254 254
-0.107286 -0.232220 0.002573 102 150 237
0.043555 0.174486 0.014911 255 254 255
-0.093398 -0.236990 0.017643 102 150 235
-0.052424 0.218793 0.006259 254 255 254
-0.088077 0.056934 0.027854 102 149 237
-0.071037 0.263941 -0.046689 255 255 254
-0.068832 0.228373 0.058812 254 255 255
-0.108837 0.196675 -0.035401 102 149 236
-0.108307 -0.229869 -0.024840 101 149 236
-0.111331 -0.164976 0.011742 101 150 236
-0.083875 0.229837 -0.061289 133 139 147
-0.075822 -0.249319 -0.015698 253 255 253
-0.040833 0.159580 0.024406 254 254 255
0.023656 0.105900 0.012706 255 255 253
-0.029416 0.166783 -0.025192 255 255 253
-0.077065 -0.207459 0.043582 255 254 255
0.098672 -0.118289 0.010135 254 255 255
-0.095519 -0.209096 -0.018538 101 148 238
-0.041751 0.195345 -0.034021 255 255 255
-0.092996 -0.117230 0.020032 101 150 237
-0.113609 0.100128 0.002436 135 142 151
0.008206 0.053429 0.051251 254 254 255
0.039579 -0.026452 0.061120 254 254 255
-0.071795 -0.193946 -0.017946 255 255 254
0.000079 0.020961 -0.014090 254 254 254
-0.089832 0.136127 -0.045387 102 148 237
-0.032920 -0.079360 0.026389 255 254 255
-0.061375 0.243266 -0.046176 254 255 255
-0.084632 0.114389 0.020728 128 132 140
-0.110152 -0.042788 0.023769 101 149 237
0.002020 0.079882 0.057551 255 255 254
-0.065961 0.247577 -0.012428 255 255 253
-0.086906 -0.077281 0.018545 102 150 237
-0.027421 0.153223 0.006888 255 255 254
-0.113849 -0.071624 -0.030604 101 149 236
-0.100383 0.189032 0.055313 101 149 236
-0.016124 0.101520 -0.004258 255 255 255
-0.091187 -0.271924 -0.010828 255 254 253
-0.108511 -0.135405 -0.069951 103 147 231
-0.092636 -0.116780 -0.027225 100 149 237
-0.012479 -0.027276 0.052506 254 255 255
0.116986 -0.180467 0.000817 255 254 255
-0.075862 0.248877 -0.019302 255 254 255
-0.077284 -0.267863 -0.015119 255 254 254
-0.106907 0.239168 -0.010699 102 149 234
0.119458 -0.182022 0.004260 253 254 253
0.032824 -0.004447 0.042565 255 255 254
0.089170 -0.089191 0.017845 255 254 253
-0.090839 0.083723 0.037359 102 151 237
0.089375 -0.089950 0.054509 254 255 255
0.055365 0.187242 0.062702 255 255 255
-0.087775 -0.066179 -0.017423 137 139 145
-0.048642 -0.110821 0.030331 255 254 255
-0.084686 -0.059748 0.000264 102 150 238
0.006011 0.058574 -0.002537 255 255 255
-0.103813 -0.242807 0.040066 102 148 236
0.028192 0.077597 0.032269 255 255 255
-0.092550 -0.142928 0.039985 103 150 236
0.014243 0.066059 -0.009910 255 255 255
0.073268 0.215234 0.060882 255 255 255
-0.031885 -0.057480 0.033114 255 255 255
-0.033030 -0.054700 0.025198 255 255 254
-0.105603 0.051334 -0.064420 100 150 238
-0.043207 0.197250 -0.030787 255 254 253
-0.058224 0.241272 -0.006376 254 255 255
0.021351 0.016631 0.051267 255 255 255
-0.112745 -0.138687 0.018606 102 144 220
0.045017 0.181380 0.006407 253 253 253
0.026324 0.095598 0.027547 255 255 255
-0.089302 0.233804 0.034234 100 149 235
-0.094277 -0.164686 0.055941 103 151 236
-0.001399 0.066207 -0.000345 255 254 254
0.001359 0.087160 0.006100 255 255 254
0.029067 0.013099 0.031546 254 253 253
-0.087457 0.206126 0.037498 103 150 237
-0.085195 -0.188915 -0.031402 99 149 236
-0.087049 -0.050349 -0.031875 102 150 238
0.022406 0.102780 0.053918 255 254 255
-0.106401 -0.032943 -0.044911 99 149 239
-0.107650 0.051520 0.017704 102 150 237
-0.106873 0.276969 0.007442 102 149 238
-0.030195 -0.083033 -0.010130 254 255 255
-0.088761 -0.208805 -0.003656 100 148 235
-0.113115 -0.133920 -0.027983 100 149 237
-0.030703 0.142636 -0.023145 255 255 254
-0.110703 -0.261012 0.017352 102 150 238
-0.062601 -0.180015 -0.028289 254 255 255
-0.064338 -0.201245 0.058315 255 255 254
-0.084033 -0.238611 0.028618 102 150 237
-0.043895 0.194693 -0.019521 254 254 253
-0.091240 -0.141234 0.031758 101 150 235
0.020950 0.026773 0.028815 255 255 255
0.048021 0.160650 0.040423 255 254 255
-0.092060 0.143937 -0.060480 99 148 238
0.102644 -0.121152 0.048333 255 254 255
-0.113592 0.188264 -0.042849 101 148 233
0.042605 0.177825 -0.005072 255 255 254
-0.091898 0.104702 0.017328 102 150 237
-0.086945 -0.083327 -0.062364 99 146 232
0.033071 0.108491 0.004488 255 254 254
-0.093463 -0.099392 -0.078508 101 149 236
-0.102765 -0.253964 -0.072091 103 150 234
-0.024414 0.124461 -0.006093 254 254 254
-0.102595 -0.238824 -0.074856 100 148 237
-0.088309 -0.187409 -0.006713 101 149 234
-0.016896 -0.035294 0.062931 255 255 255
-0.082539 0.020978 -0.027767 103 151 238
-0.115207 0.119399 -0.017036 100 149 237
-0.043869 -0.124297 0.024052 255 255 255
-0.082359 -0.256081 -0.037404 253 254 253
-0.089956 0.170990 0.028971 101 150 238
-0.093155 -0.198442 -0.065186 102 149 237
-0.112713 -0.136489 -0.084706 102 148 235
-0.114859 -0.092514 -0.032172 103 150 237
-0.107508 -0.088499 0.034302 100 148 236
0.020369 0.070926 0.008182 255 255 255
-0.087443 -0.227116 0.043528 102 150 237
0.093543 -0.099304 0.055373 255 254 255
-0.087384 0.210078 0.041486 102 150 238
-0.091392 -0.155806 -0.018602 102 149 237
0.110856 -0.163024 0.038276 253 254 253
0.038114 0.155846 0.006605 255 255 254
-0.103877 0.263492 -0.022371 101 149 236
-0.087886 0.016629 0.005417 101 147 233
-0.018189 0.102432 0.002653 255 255 255
-0.089823 -0.034917 -0.057421 101 148 237
-0.089201 -0.256372 -0.054745 100 149 235
-0.063371 -0.161027 0.006723 255 255 255
-0.110461 -0.105348 0.044416 102 150 238
-0.109703 0.153979 -0.082227 101 149 235
-0.111246 -0.215146 -0.062427 133 136 143
-0.091929 0.213179 0.057891 100 148 236
-0.076707 -0.206135 -0.029036 255 254 254
-0.087661 -0.252463 0.012406 102 149 236
-0.110488 0.051956 -0.078792 100 150 235
0.125700 -0.169642 0.008372 255 254 255
-0.006869 0.018796 0.044153 255 255 254
0.063928 0.223446 0.049540 254 254 255
-0.032945 0.144449 0.002122 254 254 255
-0.087105 0.092252 -0.081460 138 143 151
0.005800 0.059208 0.061021 254 255 254
0.015855 0.083262 0.023821 254 254 254
-0.086231 -0.225596 0.026480 102 149 237
-0.112441 -0.120151 0.037746 100 149 236
-0.098562 0.206607 0.052968 102 150 237
0.029694 0.024722 0.069751 255 253 255
-0.047212 -0.105243 -0.016038 255 255 253
-0.104727 0.206907 -0.033340 101 148 236
-0.094829 -0.119153 -0.090434 103 149 236
-0.108895 -0.104647 -0.073431 102 148 234
0.013586 0.036465 0.010890 255 255 255
-0.095629 0.228619 -0.080103 103 149 237
-0.013211 0.085498 0.034399 254 254 254
-0.053017 0.194428 0.028024 255 255 255
-0.077700 -0.201036 0.047140 255 255 255
0.086190 -0.092196 0.045585 253 253 253
0.052898 0.193538 0.034370 254 255 255
-0.048750 0.190091 -0.019134 255 254 255
0.043485 0.187979 0.021554 254 255 254
0.003601 0.083474 0.010601 255 255 255
0.108777 -0.164803 0.046253 255 253 253
0.026017 0.129613 -0.005110 254 254 255
0.011299 0.038613 0.047467 255 255 254
-0.000421 0.056063 0.025322 255 255 255
-0.060505 -0.192306 0.035047 255 254 255
0.094490 -0.110843 -0.002503 253 255 255
0.025251 0.112601 0.063764 255 255 255
-0.109391 -0.215900 -0.074494 100 150 238
-0.104346 -0.208399 0.022247 101 148 237
0.022891 0.100291 0.028471 254 254 255
-0.110766 -0.191310 0.055874 102 150 236
-0.106270 -0.282086 -0.034593 101 148 234
0.063395 -0.062958 0.047820 254 255 255
-0.073837 -0.230833 0.038792 255 255 255
-0.029830 -0.044852 0.027697 254 254 254
0.112999 -0.175424 0.002009 254 254 255
-0.069561 -0.191556 -0.028578 254 255 255
-0.010802 -0.017047 0.011524 255 254 255
-0.011657 0.091855 -0.005250 253 253 253
-0.079389 0.256092 0.011404 255 254 255
-0.046393 -0.139170 -0.015363 254 254 255
-0.107384 0.196407 -0.064660 103 150 235
-0.031739 -0.060369 0.061846 254 255 255
0.022603 0.091174 0.025713 254 255 255
-0.096109 -0.130271 0.051801 102 151 237
-0.107111 -0.089916 -0.089107 101 148 237
-0.105159 0.239810 0.022217 102 150 235
0.005648 0.026932 0.036235 255 255 254
-0.087419 0.078059 0.022462 102 150 236
-0.089142 0.118408 0.037361 100 150 238
-0.110574 0.173534 0.046999 100 149 237
-0.089161 0.014053 -0.022234 102 148 235
-0.107283 -0.281291 0.001422 100 149 236
-0.062325 -0.186728 -0.007913 254 255 255
0.054187 0.200978 0.024230 255 255 255
-0.087722 0.137405 -0.041262 102 151 238
