ply
format ascii 1.0
element vertex 1175
property float x
property float y
property float z
property uchar red
property uchar green
property uchar blue
end_header
-0.057645 -0.161024 0.038946 255 255 253
-0.024452 0.117008 0.045111 255 254 255
-0.088354 0.085894 -0.055914 102 151 239
-0.089770 -0.227557 -0.061886 100 148 235
-0.087707 -0.208171 -0.019181 102 150 237
0.025740 0.105066 0.048774 255 255 255
-0.106285 0.175587 0.007108 100 150 235
-0.056484 0.204060 0.008483 255 255 254
-0.021974 -0.017494 0.012342 255 254 253
0.034937 0.099748 0.033553 254 255 255
0.088101 -0.087132 0.038863 255 255 255
-0.012703 0.011909 0.024857 255 255 255
0.009218 0.076588 0.030122 255 255 255
-0.111104 -0.082881 -0.005739 101 150 236
0.005518 0.053894 0.042304 254 254 255
0.049438 -0.006114 0.041425 254 254 255
-0.114726 0.084433 -0.010044 100 149 237
-0.047582 0.171038 0.061276 255 255 255
-0.028956 -0.075888 -0.013012 255 254 254
-0.109582 0.193707 0.053792 102 149 237
-0.061619 0.218983 0.060172 255 255 254
-0.093040 0.138761 -0.034886 101 149 239
0.080797 -0.064366 0.046381 255 255 255
-0.028849 -0.038156 0.052839 255 255 255
-0.098994 -0.157834 -0.086646 101 150 235
-0.090516 -0.224739 -0.022347 196 194 195
-0.088564 -0.276829 0.000558 101 149 235
-0.115053 -0.079610 -0.048892 101 150 238
-0.084747 0.261543 -0.008177 255 255 255
-0.035241 -0.069130 0.063120 255 255 255
-0.082972 -0.275811 -0.024640 255 254 255
-0.090706 0.178680 -0.034883 101 149 236
-0.106965 0.110921 -0.036221 101 149 236
-0.019383 -0.002227 0.019108 254 255 254
-0.035354 0.151054 0.018003 255 255 254
-0.028694 0.157166 0.037063 255 254 255
-0.044896 -0.126858 -0.012311 255 255 255
-0.095497 0.026783 -0.055939 100 150 236
-0.033265 0.143290 -0.011393 255 255 255
-0.094235 -0.154972 -0.017614 102 150 239
-0.077790 0.270797 -0.038061 255 254 255
-0.069253 -0.214392 0.022190 254 255 254
0.001003 0.065175 0.033264 254 255 255
-0.089455 0.026223 -0.014372 103 151 238
-0.055079 0.226055 0.005039 255 255 255
-0.094865 0.068613 -0.041562 100 150 238
-0.103648 -0.274951 0.031151 102 149 238
-0.002511 0.064669 -0.008870 255 255 255
-0.048514 -0.108033 0.029323 255 255 255
-0.081120 0.257356 0.003952 255 254 254
-0.003522 0.104623 0.053752 255 254 254
-0.032854 -0.071898 -0.019217 254 254 254
-0.031239 -0.049085 0.000110 255 255 255
0.040136 0.168011 0.017149 255 255 255
-0.075444 -0.242237 0.018046 255 255 255
0.121552 -0.181718 -0.009362 254 255 254
-0.103959 -0.073354 -0.088206 101 148 239
0.021540 0.087748 0.063588 255 255 255
-0.055087 0.199376 0.018449 255 254 255
-0.113439 -0.168397 0.014237 101 149 236
-0.111611 -0.105456 0.040006 101 150 238
-0.043328 -0.078792 0.059291 255 254 255
-0.082265 -0.236293 -0.029529 254 255 254
-0.098766 -0.257180 0.051226 102 150 238
-0.046568 0.186773 -0.035269 255 255 254
-0.096171 -0.058878 -0.085057 101 150 238
0.103737 -0.113748 0.050539 253 255 255
-0.100396 0.030745 0.032282 100 150 237
-0.051642 -0.153745 -0.003881 254 255 255
-0.112211 0.103400 -0.088414 101 149 237
-0.086377 0.268955 0.001209 254 255 255
0.003370 0.043789 -0.004518 255 255 254
-0.108250 -0.173667 -0.063351 101 149 239
0.020859 0.039671 0.041471 255 254 254
-0.088139 -0.091528 -0.051900 103 151 238
-0.105418 0.099349 -0.093434 100 148 232
-0.039583 0.189555 0.000920 255 255 255
-0.024409 -0.025165 -0.011462 255 254 255
-0.067814 0.258360 -0.033973 255 255 254
0.036434 0.148980 0.029027 255 254 255
-0.016077 -0.046554 -0.020533 254 255 254
-0.089030 -0.264716 -0.059749 102 150 238
-0.089570 -0.240296 0.055747 100 149 236
-0.094501 0.091178 -0.048954 101 150 238
-0.094873 -0.096536 -0.000764 103 150 236
-0.039021 -0.058237 0.018824 255 255 255
-0.086459 -0.254427 -0.015673 254 255 255
-0.111309 -0.187534 0.032178 103 150 236
-0.069504 -0.207299 0.060405 255 255 255
-0.011567 0.096229 -0.001099 254 255 255
-0.092334 -0.161464 0.050966 103 150 239
-0.090422 -0.087364 0.003916 100 149 237
-0.092903 0.060813 -0.029806 100 149 239
0.111558 -0.159389 0.059769 255 255 255
-0.000650 0.082341 -0.016435 255 255 255
0.017205 0.091465 0.060847 254 255 255
-0.024244 -0.050430 0.024845 255 255 255
-0.103669 0.094667 -0.092263 101 149 237
-0.016157 0.005879 0.038599 255 254 254
-0.062761 -0.148626 -0.020069 255 255 255
-0.096062 0.055792 -0.006054 102 150 238
-0.089888 0.079506 -0.015707 101 149 236
-0.078456 -0.208787 0.029432 255 255 255
0.034338 0.099309 0.033203 255 255 255
-0.046257 0.198624 0.046800 255 254 254
-0.117639 0.126253 -0.045591 100 150 236
-0.090244 0.031263 -0.066896 100 151 237
-0.054432 0.200409 0.005738 255 255 255
-0.035867 -0.097609 -0.006875 254 255 255
-0.096943 0.242246 -0.080604 101 148 236
-0.114248 0.206503 -0.051870 102 150 237
-0.093103 -0.139748 0.028819 100 150 239
0.001660 0.036365 0.060856 255 255 254
-0.106378 -0.179275 0.020737 100 149 236
-0.000552 0.090893 -0.018542 254 255 255
-0.088669 -0.041605 0.004437 100 148 234
-0.091222 -0.119865 -0.092376 102 149 237
-0.107372 -0.239597 0.009574 102 151 238
0.055291 0.170287 0.062416 255 254 255
-0.113688 -0.260970 -0.000911 100 148 237
-0.065947 0.230174 -0.016516 255 254 255
-0.111485 0.242027 -0.065983 100 150 236
-0.107051 0.177818 0.011253 102 150 238
-0.093472 -0.163334 -0.045586 103 151 237
0.025733 0.128503 -0.000551 255 255 254
-0.093124 0.016206 0.015256 103 150 237
-0.034855 0.148163 0.041396 255 255 254
-0.075623 -0.245285 0.010698 255 254 254
-0.101217 0.238923 -0.080984 102 150 237
0.108247 -0.130826 0.012163 253 255 254
-0.040699 -0.078882 0.047194 255 255 255
-0.087944 0.103194 -0.001802 100 148 237
0.075450 -0.065492 0.024074 254 255 253
-0.009676 0.118374 0.014501 255 255 255
-0.089018 0.149813 0.001968 102 149 237
-0.068097 -0.167700 0.041663 255 255 255
-0.110823 -0.031348 0.012897 102 148 236
-0.086389 0.110157 -0.056829 102 149 237
-0.008575 0.016169 0.062962 255 254 255
0.052161 0.156629 0.051968 254 255 255
-0.064933 0.256615 -0.041070 255 255 255
-0.115790 0.058770 -0.022827 100 147 234
0.024806 0.019979 -0.000929 255 255 255
-0.089858 0.227045 -0.066779 100 149 236
-0.090663 0.236226 0.051503 103 150 236
0.076463 -0.061579 0.038195 255 255 254
-0.086271 0.118675 -0.018356 143 136 142
0.057130 0.210817 0.036447 254 255 254
0.018084 0.087098 0.001153 254 255 255
0.029050 0.123300 0.059557 254 254 254
-0.082386 0.273345 0.024177 255 255 254
-0.067916 -0.201932 0.018857 255 255 255
-0.111742 -0.090825 0.028723 102 150 236
0.021277 0.084434 0.004873 255 255 254
-0.021972 0.121171 -0.016312 255 255 255
0.114973 -0.145330 0.036992 253 255 254
0.043220 0.173476 0.040883 255 255 255
0.088544 -0.083208 0.049541 255 254 255
-0.061535 -0.148720 0.056240 255 255 254
0.035227 0.159996 0.002196 255 255 255
-0.109876 0.118203 0.038780 103 150 238
0.021721 0.066603 0.047617 255 255 254
-0.032848 -0.051911 0.058109 254 254 254
0.055305 -0.020526 0.000015 255 255 255
-0.104755 0.172248 0.035854 102 150 239
0.108451 -0.125244 0.043383 255 254 254
-0.088829 -0.132630 -0.039799 102 150 238
-0.100045 0.211604 0.052338 102 149 238
-0.045627 0.181573 0.003974 255 254 255
-0.106757 -0.100897 -0.026991 103 151 239
-0.110691 -0.105619 -0.093410 101 149 238
0.075320 -0.063538 0.003652 255 255 255
-0.053487 0.213949 0.040422 254 254 255
-0.074604 0.244201 -0.006650 255 255 255
-0.093943 0.144847 -0.047660 101 150 236
-0.046516 -0.111766 0.061816 255 255 254
-0.109393 -0.064024 0.037121 103 150 239
0.090418 -0.113920 0.044824 254 255 255
-0.071488 0.244632 -0.035603 255 255 254
0.015657 0.099954 0.018696 255 255 254
0.051796 -0.039517 0.030557 255 255 255
-0.107074 0.241784 -0.027880 101 150 237
-0.092447 -0.179710 -0.033109 102 150 236
0.049008 -0.032888 0.053767 255 254 254
-0.082695 -0.212415 -0.002090 207 206 206
-0.092008 -0.210359 0.025376 102 150 236
-0.086601 -0.280102 0.020221 255 255 255
0.112175 -0.163311 0.003793 255 254 255
-0.092479 -0.059688 -0.005688 100 149 238
-0.014048 0.012245 0.012665 255 255 255
-0.065717 0.242889 0.027850 254 254 254
0.031479 0.139543 0.034046 254 255 253
-0.003311 0.070863 0.041325 254 255 255
0.105709 -0.129693 0.004352 255 255 253
-0.090740 0.244751 0.055131 102 149 238
-0.108102 -0.030056 -0.009743 101 148 237
-0.106656 0.076366 -0.006388 103 150 237
-0.021411 -0.012035 0.061793 255 254 254
-0.096775 -0.249551 0.060839 102 149 235
0.036510 -0.010265 0.063189 255 255 255
-0.086601 0.268897 0.011143 255 255 255
0.039969 0.009714 0.004589 255 255 255
0.117251 -0.149828 0.002459 255 255 254
-0.041333 0.164927 0.038986 254 255 255
-0.083202 0.263626 -0.018971 255 255 254
-0.083037 -0.241883 0.013228 255 255 255
-0.112572 0.084664 -0.074188 101 150 237
-0.043620 0.185920 -0.035680 255 255 255
-0.091236 -0.251342 0.059583 254 254 255
-0.106392 -0.040544 0.005508 101 150 239
0.100821 -0.106177 0.043071 254 255 255
-0.109007 0.036256 0.020281 101 150 237
-0.107060 -0.122245 0.002463 102 149 237
0.121478 -0.181783 -0.002270 253 255 254
-0.091758 -0.082377 -0.028807 103 150 237
-0.105601 0.130553 -0.035516 100 149 238
-0.091835 -0.139592 -0.091626 101 149 238
-0.109163 0.184710 0.010943 101 150 237
-0.017239 -0.032783 0.000512 255 255 255
-0.058344 -0.139130 0.042937 255 255 254
-0.090194 0.056420 -0.068589 99 149 237
0.056744 0.212520 0.048136 255 255 255
-0.047356 -0.124790 0.061310 255 255 254
-0.110275 0.091317 -0.024204 100 149 237
0.000291 0.045880 -0.005247 255 254 254
0.021601 0.070522 0.035724 255 255 255
-0.110585 -0.203301 -0.014561 103 150 237
-0.107130 0.238691 0.024002 101 150 237
-0.058087 -0.169248 -0.013861 255 255 254
0.022405 0.047518 0.025698 255 255 255
-0.109502 0.080902 0.029633 100 149 238
-0.035123 0.178439 -0.034473 255 255 255
-0.041217 -0.085140 0.061959 255 255 255
-0.056439 0.193525 0.062299 255 255 255
0.131114 -0.194726 0.030109 255 254 255
-0.114270 0.038943 0.000561 100 150 238
-0.011418 0.017203 -0.000205 255 255 255
-0.104847 -0.066333 -0.020808 101 150 238
-0.006058 0.029133 0.033494 255 254 255
0.041951 -0.016409 0.053650 255 254 255
-0.023991 -0.050691 0.030205 255 255 255
-0.112420 0.220140 0.050968 103 149 238
0.035166 -0.002787 0.023781 255 255 255
0.125495 -0.160838 0.061329 255 255 255
-0.113155 0.132766 0.019838 101 150 237
-0.093441 -0.105380 -0.091960 99 147 235
-0.090526 0.198678 -0.018585 102 149 236
-0.090696 0.247479 -0.053445 101 150 238
-0.116411 -0.089554 -0.032804 102 151 238
-0.068082 0.221768 0.061632 255 255 255
-0.109845 0.214062 -0.054781 100 149 238
0.133618 -0.198666 0.034284 255 255 254
-0.109650 -0.144276 -0.062029 102 149 238
-0.045185 -0.090219 -0.016634 255 255 255
0.109739 -0.158562 0.014189 255 255 255
-0.016562 0.006634 0.005986 255 255 254
-0.067110 0.230292 -0.017726 254 254 255
-0.096469 0.018436 -0.037802 102 149 236
-0.089581 0.043784 0.034005 100 150 236
-0.112052 -0.078224 -0.077521 101 149 237
-0.050833 -0.138718 0.050232 205 204 204
-0.111318 0.029423 0.027664 103 150 238
-0.062897 -0.149924 -0.009005 254 255 255
-0.113245 0.021783 -0.013978 102 148 235
0.002571 0.069721 -0.006081 255 255 255
-0.102243 -0.280204 0.020366 101 150 237
0.094083 -0.120893 0.055892 255 255 255
-0.104761 -0.147619 0.050415 103 149 237
-0.107946 -0.169251 0.041069 103 150 237
-0.035460 0.150530 -0.019433 254 255 255
-0.108698 0.241511 0.052479 102 149 237
-0.056364 0.241328 -0.023609 255 255 255
0.064157 -0.037108 0.015828 254 255 254
0.034120 0.018630 0.021548 255 254 255
-0.022495 0.142802 0.036267 255 255 255
-0.098393 0.135876 -0.089347 100 148 235
-0.112100 0.186799 0.041969 102 150 237
0.067418 0.243894 0.030325 254 254 253
-0.030907 0.167079 0.000395 255 255 255
-0.095729 0.065840 -0.001295 100 150 237
-0.035261 0.145470 0.052963 255 254 255
-0.090805 -0.038673 -0.008893 100 148 237
0.040696 0.150709 0.059138 255 255 255
0.043350 -0.021398 0.054951 255 254 255
-0.034342 -0.056791 -0.008331 255 255 253
-0.067316 -0.205577 0.041715 254 255 255
-0.090738 -0.040741 -0.002967 100 150 237
-0.092030 0.106489 -0.071807 102 150 238
0.020682 0.021050 0.065671 255 255 255
-0.010289 0.031507 0.044001 255 255 255
-0.078556 0.274659 -0.012044 254 254 254
-0.010059 -0.009800 0.022306 254 254 255
0.064204 -0.042215 0.013273 255 255 255
-0.085682 0.066320 -0.039185 101 149 236
-0.085924 -0.088137 -0.044763 137 139 144
0.073106 -0.084568 0.022245 254 254 255
0.045012 0.137814 0.050804 255 255 254
0.036801 0.022024 0.011930 255 255 255
-0.088642 -0.148535 -0.054144 103 151 237
-0.060102 -0.144682 0.007295 255 255 254
-0.090767 -0.089722 -0.080631 101 150 237
-0.093516 -0.130887 -0.042622 101 149 238
-0.106255 0.277967 -0.043599 103 151 237
0.027811 0.033731 0.032064 255 255 255
-0.069805 0.228430 0.012775 255 255 255
-0.022699 -0.018333 -0.006641 255 255 255
0.027523 0.090473 0.032187 255 255 255
-0.111539 0.271559 0.031695 101 150 239
-0.100947 -0.219491 0.047428 101 151 237
-0.091096 -0.251955 0.012695 103 151 238
-0.088660 0.206344 -0.007309 103 149 237
-0.041411 -0.078874 0.050547 255 255 255
-0.063947 -0.184465 0.013408 254 255 255
0.021723 0.022381 0.007994 255 255 255
-0.016662 0.003919 0.045502 255 255 254
-0.094746 -0.240057 -0.080241 102 148 235
-0.107073 -0.179966 0.056105 102 149 237
-0.056315 -0.131333 -0.010256 255 255 255
-0.111670 -0.145584 0.025485 100 148 238
0.002515 0.093302 -0.018574 255 254 255
-0.000061 0.052661 0.023075 255 255 255
-0.112559 -0.072197 -0.064640 100 150 238
0.032321 0.131225 0.042625 254 255 255
-0.088472 -0.042867 -0.043745 100 149 239
-0.104205 0.253874 0.030984 102 150 235
-0.104368 0.150383 0.045880 102 151 238
-0.093187 0.156029 -0.069567 101 150 236
-0.088252 0.188653 0.018927 100 149 237
-0.035258 0.178455 0.016057 255 255 255
-0.109551 -0.146226 -0.072792 101 150 236
-0.020714 0.115522 0.022033 254 255 255
-0.035847 -0.089144 0.060746 255 255 254
-0.078600 -0.206497 0.020084 255 255 255
-0.043539 0.192649 0.044235 255 255 255
-0.048716 -0.136009 0.000361 254 255 255
0.129980 -0.171532 0.009089 253 255 254
-0.115065 -0.101415 -0.083894 103 151 237
-0.094599 -0.220457 0.054540 100 149 239
0.106601 -0.126497 0.006692 255 254 255
-0.093559 0.088659 0.004834 101 151 239
-0.083185 -0.245409 -0.002106 255 255 255
0.055600 0.183041 0.014469 254 254 255
0.059321 0.195593 0.025046 254 255 255
-0.092747 -0.249945 0.038693 100 148 235
-0.101189 0.020963 -0.052853 103 151 238
-0.033892 -0.057542 0.021251 255 254 255
0.071148 0.216623 0.050880 255 254 255
0.071315 0.249977 0.036555 254 254 254
-0.015581 -0.016352 0.053717 254 255 255
-0.096933 0.068404 -0.092676 101 148 237
0.026893 0.013754 -0.001990 255 255 255
-0.042800 0.195410 0.015144 255 255 255
0.057527 0.196432 -0.001622 255 255 255
-0.082848 0.241645 -0.039775 100 149 235
-0.093013 0.093947 -0.035825 99 148 235
0.010902 0.050957 0.005473 255 255 255
0.006575 0.075252 0.033269 255 255 255
0.047005 -0.001391 0.008465 255 255 255
-0.071317 -0.183576 -0.018918 254 255 254
-0.049448 0.187201 -0.022792 255 255 255
-0.107983 0.193055 0.044736 104 152 238
-0.092309 -0.190377 -0.088288 102 149 237
-0.018464 -0.019710 -0.016871 255 255 255
-0.109145 -0.202507 -0.036992 101 149 237
-0.106805 -0.099501 -0.012703 102 151 237
-0.034026 -0.052100 -0.017987 255 255 255
-0.091333 0.228887 0.036189 100 149 237
-0.106061 0.175260 -0.061016 100 150 238
-0.004077 0.033697 0.055514 255 255 254
0.079852 -0.073011 0.066890 254 254 255
-0.105692 0.175833 -0.085241 100 149 238
0.097691 -0.131832 0.016269 253 253 255
-0.009633 -0.015020 0.042671 255 254 255
-0.077190 -0.268085 -0.004139 255 255 255
-0.067654 -0.165169 0.056160 254 255 255
-0.032578 -0.051882 0.000650 255 255 254
-0.071218 0.262788 -0.041433 255 255 255
0.001425 0.070519 0.003455 255 255 254
-0.109287 0.140455 -0.067749 101 150 236
-0.044295 0.199443 -0.021556 255 255 254
-0.082224 -0.234812 0.032212 254 255 255
-0.060556 -0.179397 -0.008220 255 255 255
0.053989 0.153710 0.064900 255 255 255
-0.105553 -0.076035 0.036853 135 137 145
-0.090712 0.048595 -0.073153 101 150 236
0.063293 0.192802 0.054207 254 255 255
-0.096768 -0.281555 0.028550 101 149 238
-0.088962 0.066900 0.035617 100 149 236
-0.089936 0.222049 -0.058727 102 149 237
-0.052816 -0.151769 -0.015615 255 254 254
0.037108 -0.007760 0.010336 255 255 254
0.106518 -0.124882 0.046733 254 255 254
0.124353 -0.150333 0.051944 255 255 255
0.080861 -0.092430 -0.003488 255 255 254
0.139938 -0.188272 0.028735 254 255 253
0.007108 0.049817 0.055768 255 254 255
-0.098706 -0.053918 -0.080361 100 149 238
-0.087130 -0.060165 -0.085092 99 147 234
-0.090645 -0.027546 0.005273 102 150 238
-0.109608 -0.175839 -0.040319 102 149 236
-0.071686 -0.176440 0.000896 255 254 255
-0.049561 -0.110431 0.036281 255 255 255
-0.109011 0.203623 -0.009463 103 148 238
-0.091922 -0.157429 0.006640 101 149 238
-0.069712 -0.217395 0.003836 255 255 255
-0.092310 -0.179059 -0.032432 102 150 238
-0.090639 -0.277151 -0.034796 255 255 254
-0.088423 0.118121 -0.036325 102 148 235
-0.107583 0.198962 -0.011647 101 149 238
-0.022544 -0.013981 0.029611 255 255 255
-0.106478 0.281045 -0.020606 100 149 237
-0.088516 -0.271448 -0.032033 255 255 254
-0.065729 -0.193977 0.064042 255 255 255
0.066204 0.210484 0.014820 255 255 255
0.052702 -0.019487 0.044196 254 255 255
-0.088737 0.130426 -0.087101 102 150 238
-0.079545 -0.228473 -0.012766 255 255 255
-0.092868 -0.281198 0.004033 103 151 238
-0.113412 -0.230650 -0.036020 103 151 237
-0.021523 0.143094 -0.026900 254 254 255
-0.107298 -0.286694 -0.033597 101 150 236
-0.042061 -0.120394 -0.013299 255 254 254
-0.093445 -0.258585 -0.032815 101 150 236
0.069203 0.231072 0.051995 254 255 254
-0.088136 -0.106650 -0.091440 100 150 237
-0.090762 0.225658 0.034613 100 150 238
0.029992 0.081588 0.055229 255 255 254
-0.107556 -0.250385 0.054274 103 149 237
-0.027203 0.130263 -0.024341 254 255 255
-0.107705 -0.251317 -0.018061 101 150 236
-0.089727 -0.266201 0.004768 103 150 235
-0.093081 0.235740 0.041499 101 149 237
-0.106741 -0.245823 -0.007217 102 151 237
-0.087478 -0.277121 -0.020430 255 255 255
-0.071564 -0.176210 -0.013903 255 255 255
-0.065805 0.245412 0.000870 254 254 255
-0.037974 -0.072411 0.028240 254 255 254
-0.081083 -0.217123 0.018191 255 255 255
-0.087295 -0.275789 0.018421 102 149 236
-0.055789 -0.164262 -0.017312 255 255 255
-0.089121 -0.158618 0.045494 102 151 237
0.034720 0.146694 0.024222 254 255 255
-0.109378 0.262038 -0.070303 101 149 237
-0.105747 -0.153871 -0.050709 100 150 237
-0.054396 -0.143056 0.062776 254 254 255
-0.065140 0.245708 -0.004220 255 255 255
-0.107553 0.258686 0.000717 101 148 236
0.049982 0.202717 0.017684 255 254 255
-0.089318 0.147674 0.047149 140 144 151
-0.107243 -0.252442 -0.059008 103 150 237
0.003282 0.038228 0.050342 255 255 255
-0.065714 -0.160786 0.027771 255 255 255
-0.095696 0.095689 -0.033516 103 149 234
-0.104455 0.078795 0.042600 102 150 236
-0.055435 0.196870 0.040792 255 255 255
-0.089026 -0.061037 -0.007508 103 151 239
-0.107246 -0.218624 -0.003309 103 150 236
-0.058047 -0.175285 -0.019529 255 255 254
-0.032466 0.170234 -0.021734 255 254 255
-0.091708 0.057760 0.002392 101 149 236
0.022363 0.093588 0.043905 254 255 255
0.004020 0.067315 -0.001182 255 255 255
-0.107062 0.205485 -0.072516 100 149 237
-0.109204 0.161903 -0.079090 103 151 237
-0.107401 -0.157232 0.036588 102 151 237
0.081855 -0.073737 0.039245 255 255 254
0.020416 0.020316 -0.009712 254 253 255
-0.089321 0.133538 -0.079747 137 140 148
-0.028030 -0.075553 0.009879 255 255 255
0.052307 0.168483 0.016326 255 255 255
-0.040806 0.161883 0.042320 255 255 255
-0.049745 -0.135459 0.033865 255 255 255
-0.094838 0.098871 -0.049913 102 149 236
-0.091942 -0.203269 -0.014563 101 149 238
-0.105303 0.077458 -0.057067 100 149 238
-0.102864 0.187820 -0.081293 102 148 239
-0.089086 0.151573 0.017258 101 150 236
0.036095 0.149548 0.024507 255 255 254
-0.092304 0.051923 0.003623 103 151 237
-0.047568 -0.137757 0.016281 254 255 254
-0.109763 0.261386 0.045028 102 150 237
0.002438 0.064778 -0.014587 255 254 255
-0.109591 -0.279994 0.019383 103 151 238
-0.112611 0.231027 -0.006453 102 150 238
-0.092386 -0.228498 0.025472 103 151 235
-0.001298 0.100423 -0.019590 255 255 255
-0.091171 0.217853 0.047205 102 150 237
0.057758 -0.047784 0.066882 255 254 254
-0.050458 0.188872 0.022437 255 255 255
-0.110545 -0.038795 -0.015881 102 150 236
0.098696 -0.118031 0.065219 254 255 255
-0.004927 -0.008081 0.046767 255 255 254
0.121057 -0.180038 0.029635 254 254 254
-0.044458 -0.094616 0.026837 255 255 255
-0.083430 0.226494 -0.075927 136 139 147
-0.108539 0.047706 -0.055348 101 149 237
-0.066332 0.247492 0.012915 255 255 255
0.017218 0.092632 0.040001 255 255 254
-0.095292 -0.283977 -0.002750 101 151 238
0.068711 -0.038526 0.054823 255 255 255
-0.051310 0.196224 -0.007233 253 253 254
-0.086473 0.099506 -0.042378 103 150 237
-0.081723 0.274475 -0.037725 255 255 255
-0.023235 -0.044992 0.015068 255 255 255
-0.034105 -0.092335 -0.010515 255 255 255
-0.051504 -0.130050 0.061391 255 255 255
0.013070 0.028225 0.009153 255 254 255
-0.109605 0.086790 -0.074798 102 150 238
-0.111842 0.125419 0.041144 102 149 238
-0.086659 -0.161057 -0.036499 100 149 239
-0.049998 0.181927 -0.036715 255 255 254
-0.112389 -0.045401 -0.064642 100 148 238
-0.021430 0.140790 0.033040 255 255 255
0.037405 -0.007122 0.015227 255 255 254
-0.089292 0.249327 0.048939 102 150 236
0.054022 0.206301 0.042780 255 255 255
-0.093379 0.093240 -0.078360 103 151 238
-0.104766 0.171017 -0.042316 101 150 237
-0.086254 0.047780 0.001089 102 150 239
0.110163 -0.166146 0.009939 255 253 254
-0.111376 0.062684 -0.053382 102 150 237
-0.039236 0.156820 0.046069 255 255 254
-0.090268 -0.225492 0.054493 103 148 238
-0.040799 -0.108205 0.037865 255 254 255
-0.106642 -0.160020 0.017949 103 149 237
-0.087037 -0.057928 -0.076599 100 149 238
0.052361 0.196759 0.053802 255 255 255
0.012233 0.085896 -0.007481 255 255 254
0.052131 -0.047662 0.021021 255 255 254
-0.098606 -0.096942 -0.091098 103 150 238
-0.090478 -0.237152 -0.017673 102 150 237
-0.113963 0.039860 -0.076499 102 150 237
-0.072554 -0.185162 -0.022606 254 255 255
0.081271 -0.065530 0.046703 255 255 255
-0.109056 -0.134181 -0.039910 101 150 236
-0.021480 0.120345 0.005310 255 254 254
-0.087562 0.053203 -0.027035 99 148 236
-0.091215 -0.268048 0.019911 255 255 254
-0.018766 -0.006874 0.039529 254 255 255
-0.111344 0.130466 0.043608 101 149 235
-0.087930 0.266522 0.016882 102 149 236
0.063804 -0.041889 0.011622 254 254 255
-0.114554 -0.074879 -0.025939 101 149 237
0.022742 0.066186 0.050763 255 255 255
-0.037704 -0.106665 0.016214 254 254 254
-0.065499 -0.190918 0.018782 255 254 254
-0.051701 -0.146120 0.001736 255 255 255
-0.109172 0.277101 0.002244 102 149 237
-0.000930 0.074003 0.011788 255 255 255
-0.112450 -0.237861 -0.057399 103 150 237
-0.084661 -0.229113 0.049969 254 255 255
-0.041395 -0.111463 0.054697 255 255 255
-0.114317 -0.083140 -0.040279 101 150 238
-0.110071 -0.280445 0.001164 102 150 238
-0.112869 -0.244589 0.023260 101 150 236
-0.060881 0.244964 -0.030374 255 255 255
0.054561 0.201362 0.053550 254 255 255
-0.105384 0.227866 0.053937 102 150 237
0.007136 0.048270 0.023777 255 255 255
0.028702 0.097583 0.008892 255 255 255
0.059307 0.189165 0.018993 255 255 255
-0.035460 -0.064077 0.021734 255 255 254
-0.080775 -0.265798 0.052117 255 255 254
-0.089156 0.228736 -0.063624 102 149 233
-0.040347 -0.082408 0.063232 255 255 255
0.046789 0.147366 0.032165 255 255 254
-0.114086 0.235319 -0.067745 100 149 237
-0.021519 0.144409 0.033502 255 254 255
-0.109285 -0.244498 -0.011492 102 150 236
-0.085893 -0.229678 -0.080179 101 147 233
-0.041145 0.184705 0.024143 255 254 255
-0.090476 -0.168981 -0.010854 101 151 237
-0.109647 -0.190879 0.022536 101 149 238
0.009499 0.076743 -0.013337 255 255 255
-0.114144 -0.107016 -0.004348 101 150 236
-0.107205 0.201830 -0.018858 100 150 238
-0.096131 0.270029 0.034958 100 150 238
-0.109711 -0.179577 -0.017250 103 150 239
-0.041680 -0.081227 0.028320 255 255 255
0.065664 -0.046122 0.014135 255 254 255
-0.112374 0.018790 0.008565 101 149 238
-0.032904 -0.085991 0.024304 255 255 255
-0.114042 -0.249157 0.011131 100 149 239
0.032987 0.000214 0.048868 255 255 255
-0.059718 0.234475 0.022889 255 255 255
-0.061605 0.223090 -0.018493 255 255 255
-0.076527 0.244524 0.033601 254 254 254
-0.028835 0.156485 0.049848 255 255 254
-0.082211 -0.229835 0.002892 255 255 254
-0.031848 0.146637 0.061434 255 255 255
-0.030671 -0.046806 0.031864 254 255 255
-0.044006 -0.090706 0.003314 255 254 255
-0.019476 -0.050840 0.018513 203 205 205
-0.064980 -0.188759 0.040321 255 255 255
-0.104575 0.253124 -0.031172 101 149 236
-0.031504 -0.050427 -0.004537 254 255 254
-0.033271 -0.054986 -0.007419 254 254 255
0.088435 -0.111836 0.021616 255 254 255
-0.103811 0.283366 -0.003863 101 149 238
-0.092565 -0.226714 -0.063095 140 141 148
0.038530 0.156642 0.036151 255 255 254
-0.062752 -0.154756 0.032322 255 255 255
-0.086469 0.251066 0.018745 100 148 236
-0.043742 0.171174 0.028413 255 254 255
-0.081023 -0.283438 -0.007517 255 255 254
-0.109484 -0.240659 0.034543 101 148 234
-0.096067 0.067502 -0.007438 100 150 237
0.063825 -0.040152 0.057087 253 255 255
0.069668 -0.072530 0.062689 255 255 255
0.060312 -0.036498 0.015748 255 255 255
0.046007 0.189806 0.012717 255 255 255
-0.110205 -0.151402 0.009370 141 136 144
-0.090946 -0.115542 -0.071195 100 150 239
0.048348 -0.003915 0.042163 254 255 255
-0.028765 -0.039002 0.031035 255 255 255
0.035848 0.136386 0.047529 255 253 254
0.050677 0.163036 0.025494 254 255 254
0.107168 -0.149318 0.060641 253 255 255
-0.104417 -0.034589 -0.006105 101 150 237
-0.106963 -0.103570 0.006226 103 150 238
-0.086537 -0.279539 -0.004203 255 255 255
-0.110807 -0.253607 0.047328 101 150 238
-0.029518 -0.076905 0.039940 255 255 255
-0.061141 0.236967 -0.004425 254 255 254
-0.091214 0.049908 0.012956 102 149 238
0.035881 -0.005678 0.009922 255 255 254
0.079008 0.238515 0.045896 253 255 255
-0.117552 -0.111055 -0.064047 100 149 236
-0.089343 -0.051165 -0.061328 101 151 237
-0.097368 0.063553 -0.047018 102 149 239
-0.083232 -0.225479 0.051295 254 255 254
0.055575 -0.025984 0.037891 255 255 254
-0.096729 0.119160 -0.090747 100 149 237
-0.087793 0.190468 0.004670 102 151 238
-0.086777 0.257275 -0.032690 103 151 237
-0.106622 -0.132272 0.036488 103 150 237
0.108844 -0.154651 0.040983 253 255 255
-0.061278 -0.173960 0.041776 255 255 255
-0.096414 -0.219480 0.021837 101 150 235
-0.109333 -0.038110 -0.062266 102 150 237
-0.111437 0.110580 -0.024721 101 150 236
-0.036590 -0.107488 0.011013 254 255 255
0.019874 0.058332 0.063375 255 255 255
-0.089215 -0.124452 -0.079084 102 150 238
-0.104842 -0.033807 0.019290 103 151 238
-0.094665 0.110351 -0.051274 102 150 237
-0.087991 0.090930 0.023707 100 149 237
-0.061869 -0.149542 0.013161 255 255 255
-0.000460 0.066402 0.051352 255 255 255
0.106550 -0.147664 0.049128 255 255 255
-0.110367 0.279537 -0.041960 102 150 238
-0.048213 -0.137759 0.018591 254 255 255
-0.060827 -0.146644 0.014375 255 254 255
0.011646 0.087353 0.005839 255 255 255
0.122419 -0.161407 0.024836 254 255 255
-0.022283 0.114286 0.059717 255 255 255
0.011986 0.051048 0.040246 255 255 255
-0.090614 0.081776 0.017828 101 150 237
0.074901 -0.073096 0.006069 254 255 254
-0.110988 0.248094 0.014708 100 150 237
-0.014233 0.127665 0.011612 255 254 255
-0.109672 0.146628 -0.009302 101 150 238
-0.108442 -0.121984 -0.064607 101 150 238
-0.042917 -0.120271 0.052994 255 255 255
-0.007270 -0.003023 0.006922 205 204 200
-0.051524 0.196509 -0.020772 254 254 254
-0.064187 0.219846 0.052681 254 254 255
0.018750 0.093705 0.033548 255 255 255
-0.084326 -0.243868 0.028665 255 255 255
-0.031655 0.138082 0.018698 254 255 255
-0.049731 0.211964 0.012729 255 254 255
-0.069016 -0.169184 0.041498 255 255 255
-0.089095 0.127126 -0.085311 100 150 237
0.055890 -0.024772 0.037112 255 255 255
0.025225 0.101615 0.063206 255 255 255
-0.037138 -0.095345 -0.014534 255 255 255
-0.112592 0.113765 0.020954 101 150 236
-0.104823 0.239893 -0.012475 102 150 238
-0.078965 0.270486 -0.022155 254 253 255
-0.115654 -0.076724 -0.033709 101 151 238
-0.011551 0.010337 -0.000210 255 255 255
-0.014661 0.126443 0.028078 255 255 255
-0.030705 -0.073809 0.010746 255 255 255
-0.074452 0.241816 0.020508 254 255 255
-0.104212 -0.158850 0.050811 102 150 237
-0.092424 0.056219 0.030231 100 149 237
-0.107600 0.178104 -0.010410 101 150 237
-0.035077 -0.106966 0.022668 253 255 254
0.005983 0.033964 0.002189 255 254 255
0.014748 0.035966 -0.007102 254 255 255
-0.115160 -0.161348 -0.016923 102 151 238
-0.028059 -0.071293 0.037612 255 255 255
-0.115561 -0.234441 -0.029155 102 149 237
0.030488 0.104740 0.006218 254 254 255
-0.074720 -0.216155 0.052776 255 254 254
-0.117543 -0.092888 -0.072127 101 150 238
-0.019706 -0.039821 0.013373 255 255 255
-0.088623 0.275789 -0.012404 255 254 255
-0.109792 -0.193223 -0.066997 102 151 239
-0.103123 -0.210869 -0.084448 103 149 237
-0.115777 0.059115 -0.068732 103 151 239
-0.087958 0.028289 -0.043226 100 149 235
-0.090408 -0.151080 -0.089372 102 150 238
-0.112104 0.206351 -0.050538 103 151 237
0.056985 0.229929 0.004620 255 255 255
-0.068963 -0.165203 0.020345 254 255 255
-0.115649 -0.072362 -0.050723 100 149 237
-0.036792 -0.078788 -0.017759 255 255 255
-0.006858 0.029602 0.001298 255 255 255
-0.046605 -0.099580 0.056329 255 254 255
0.025633 0.079675 0.053792 255 255 255
-0.089238 0.183540 0.029122 102 149 237
0.031472 0.115104 0.003314 254 255 255
-0.073176 -0.223866 0.019500 255 255 254
-0.093309 0.055902 0.024283 101 150 238
-0.094503 0.085642 -0.040278 101 149 237
0.030208 0.126967 0.053463 254 255 255
0.029436 0.050489 0.010635 255 255 254
-0.091760 0.165691 -0.075411 101 149 237
-0.087162 -0.225533 -0.082906 101 148 238
-0.105515 -0.276818 0.031616 102 150 238
0.022599 0.075112 0.035009 255 255 255
0.113111 -0.162610 0.056468 253 255 254
0.036185 -0.004660 0.022266 255 253 255
-0.115002 -0.162492 -0.064944 102 149 236
0.069620 -0.074662 0.021933 254 255 255
-0.046910 0.193729 0.057220 254 255 255
-0.037332 -0.066877 -0.016364 254 254 255
-0.106752 -0.076042 -0.029074 100 150 238
-0.059067 -0.165342 0.037639 255 254 254
0.102078 -0.139071 0.036516 253 254 254
-0.114868 0.122083 -0.028062 101 149 236
-0.027624 0.132094 0.049796 255 255 255
-0.090437 0.077870 -0.078343 99 148 238
-0.031331 -0.083166 0.058431 255 255 254
-0.021817 -0.035569 -0.013911 255 255 255
-0.017132 0.105661 0.021735 254 254 255
-0.099742 -0.278527 0.033587 100 150 237
-0.089727 -0.218053 -0.031405 103 151 237
-0.088870 0.056920 0.028190 100 148 237
-0.052673 -0.156589 -0.017702 255 255 255
-0.110212 0.254108 -0.069332 102 150 238
-0.051171 -0.152301 -0.026171 254 254 254
-0.043737 -0.124710 0.002675 255 255 255
-0.073403 0.244963 -0.019115 254 254 255
-0.035107 0.172459 0.030303 255 255 255
-0.091449 0.081632 -0.027510 102 149 235
-0.105583 0.029584 0.032725 101 149 238
0.044806 0.186026 0.012491 254 255 253
-0.091951 -0.261685 0.051603 101 150 238
-0.006091 0.025022 0.018692 255 255 255
0.027618 0.013540 0.007335 255 254 255
-0.089091 -0.253196 -0.003566 102 149 237
-0.108958 -0.142850 0.004233 101 149 238
0.034785 -0.002425 0.025533 255 255 255
-0.019086 0.115013 -0.003385 255 254 255
-0.094378 -0.224103 -0.060382 101 149 238
0.013194 0.102607 -0.012125 255 255 254
0.040758 0.174042 0.012301 254 255 254
-0.049139 0.211846 0.014845 255 254 254
-0.012656 -0.023696 -0.008736 255 255 255
-0.112699 0.160219 -0.000747 100 150 235
-0.109027 0.193860 -0.003583 100 149 237
-0.007628 0.004324 -0.010258 255 254 255
-0.034550 -0.053439 0.038123 255 254 255
-0.108116 0.157086 0.004020 100 149 237
-0.093086 0.196262 0.053767 103 150 238
-0.090280 0.252365 0.004008 101 151 238
-0.106226 -0.123069 -0.036091 103 151 236
-0.017921 0.134384 0.058121 255 255 255
-0.007884 0.087844 -0.001864 254 255 255
0.020322 0.035955 0.008197 255 254 255
-0.111115 -0.094957 -0.078652 100 151 238
-0.113613 -0.081079 0.021285 102 150 237
-0.106049 -0.058047 0.009262 102 150 237
-0.089973 0.263871 0.004035 100 150 237
-0.093699 -0.210141 -0.085210 100 149 236
-0.086963 0.260390 -0.072987 136 146 159
0.064811 -0.061245 0.058250 255 255 254
0.050671 0.197490 0.041182 255 254 255
0.020393 0.070801 -0.004846 255 255 255
-0.095205 0.054985 -0.047722 103 151 238
-0.106022 0.246168 -0.004040 101 150 235
0.098911 -0.121988 -0.002720 253 254 254
-0.094578 -0.235642 -0.062535 101 149 237
-0.087576 0.241589 -0.077420 101 149 238
-0.104652 0.169572 0.034335 100 149 237
-0.089664 0.030967 -0.001075 100 150 237
-0.075724 -0.199122 -0.017656 255 255 254
0.022389 0.044739 0.023563 255 255 255
0.037198 0.116598 0.026779 255 255 255
-0.068654 -0.203976 -0.013480 215 220 216
0.048491 0.143501 0.054811 254 255 255
-0.091947 -0.138413 -0.018543 127 134 149
-0.108864 0.235108 -0.013048 101 149 238
-0.111512 -0.101676 -0.092365 101 150 238
-0.070726 0.239632 -0.026152 255 255 255
-0.083907 0.259601 -0.012568 255 255 255
-0.046944 0.199996 0.024167 255 255 254
-0.094322 0.198768 -0.082143 101 150 235
-0.089175 -0.125943 -0.068065 100 149 238
-0.007490 0.084175 0.016235 255 255 255
-0.107481 -0.273569 -0.029054 102 150 236
0.091163 -0.087256 0.046614 255 254 254
-0.016933 -0.000679 0.048314 255 255 255
-0.005299 0.083034 0.008396 255 255 255
-0.001766 0.072432 -0.007447 255 255 255
0.008246 0.058221 0.021960 255 255 255
-0.107032 -0.199454 0.054144 102 149 234
-0.093874 0.150973 -0.049912 102 149 237
-0.051600 -0.114826 -0.026270 255 255 255
-0.094374 0.123401 -0.069504 102 149 236
-0.092942 0.029622 -0.072013 100 149 238
0.037116 0.155249 0.045108 254 254 254
-0.077354 -0.242343 0.039217 255 255 255
-0.096638 0.285408 -0.030586 100 150 238
-0.114640 0.096449 -0.055265 102 151 237
-0.087506 -0.241050 -0.068669 102 149 237
-0.110549 0.142756 0.024844 100 148 238
-0.107124 -0.163067 0.050695 101 151 238
-0.112361 0.027262 -0.061275 100 149 237
-0.053764 -0.119536 0.027231 254 255 255
-0.018678 0.135302 0.015359 255 255 255
0.126235 -0.179062 -0.000061 254 254 254
-0.064899 0.240724 0.048336 255 255 255
-0.114772 0.197544 -0.026636 101 149 236
0.048113 0.148117 0.047432 255 255 255
-0.107455 0.126931 -0.063007 100 149 236
-0.036744 0.153030 0.031162 255 254 254
-0.092906 0.245114 0.032930 102 150 238
0.064856 -0.061228 0.025507 254 254 255
0.023613 0.021852 0.048659 254 255 255
-0.091950 -0.167274 0.046136 101 149 238
-0.058663 0.197090 0.011536 255 255 255
-0.057078 -0.172948 -0.019671 255 255 255
-0.090301 -0.199143 -0.064584 103 151 239
-0.056561 -0.165363 0.044545 255 255 254
-0.086899 -0.273614 -0.002929 100 150 237
-0.066805 -0.202295 0.047456 255 255 255
-0.030984 -0.090786 0.051609 255 255 255
-0.031127 -0.075709 0.059449 255 254 254
0.029572 0.006267 -0.004290 255 254 255
-0.085920 0.078929 -0.034644 102 149 237
-0.081287 0.266832 0.000534 255 255 255
-0.032337 -0.089179 -0.003106 255 254 255
-0.034670 -0.067465 0.061002 255 255 255
0.031192 0.109598 -0.001584 255 255 255
-0.114834 0.166873 -0.082356 101 150 238
-0.061231 0.213867 0.044243 255 255 255
-0.109280 -0.173668 -0.068444 100 151 238
-0.106618 -0.121950 0.009926 103 150 237
-0.022021 -0.052875 -0.011081 254 255 255
-0.089471 -0.156770 0.046493 102 150 238
-0.089378 -0.144933 -0.086954 102 150 237
0.002438 0.084244 -0.013893 255 255 255
-0.053159 0.223100 -0.008378 255 255 255
0.053236 -0.039015 0.022104 254 254 255
-0.111371 -0.218019 -0.011808 102 151 237
0.119961 -0.161705 0.039401 254 255 255
0.055761 0.162625 0.048806 255 255 255
-0.091522 -0.084684 -0.042075 103 151 236
-0.089242 0.077044 -0.001056 100 148 236
-0.031122 -0.068158 0.062109 255 255 255
-0.029638 -0.066278 0.062306 255 255 254
-0.101371 -0.120157 0.047116 103 151 238
-0.110486 -0.280004 -0.034778 102 150 237
-0.026349 0.123495 0.013885 255 255 254
-0.067044 0.245993 0.034278 255 255 255
-0.019040 -0.004789 0.037746 254 254 254
-0.079234 0.254775 -0.002108 254 255 255
-0.089096 -0.031409 -0.007022 100 150 238
-0.107138 -0.085150 0.027502 103 151 238
-0.114991 -0.209862 -0.069700 100 149 238
-0.069752 -0.171324 0.054149 255 255 255
-0.038033 0.178375 0.044812 255 255 255
-0.019519 -0.030468 -0.022570 255 255 255
0.017239 0.086978 0.045752 255 255 255
-0.061497 0.217835 0.059078 255 255 255
0.001264 0.006179 0.054981 255 255 255
-0.107557 -0.150407 0.050677 102 150 239
0.080990 0.234299 0.053829 255 255 255
-0.090109 -0.269286 -0.004274 254 255 255
0.000939 0.058459 0.062525 255 255 255
-0.097987 -0.205743 -0.081927 102 150 237
-0.108313 -0.163800 0.050456 102 150 237
-0.108452 -0.053381 0.022514 103 150 236
-0.076485 -0.253869 -0.013197 254 255 255
-0.090704 -0.224529 0.014628 100 150 237
0.074926 -0.059969 0.055359 255 255 255
-0.092789 -0.214034 -0.027334 100 149 238
-0.095964 -0.213638 0.055874 101 149 238
-0.101078 -0.044202 0.026495 102 150 237
-0.009801 -0.008247 0.021579 255 255 254
-0.025193 -0.027356 0.051675 255 255 255
-0.034465 -0.061589 0.045975 255 255 254
-0.046752 0.208117 -0.021130 255 255 255
-0.104337 -0.061032 -0.037050 102 150 239
-0.090891 -0.043290 0.003223 100 148 238
0.018406 0.033136 0.043708 254 254 255
-0.018360 -0.003930 0.044838 255 255 255
-0.117191 0.130241 -0.012191 100 149 236
-0.092629 -0.182664 0.050775 102 151 238
0.090876 -0.105150 0.010136 253 254 253
0.087415 -0.087150 0.024029 255 255 254
-0.018420 -0.046074 -0.012051 254 255 255
-0.098867 0.100783 -0.091486 101 149 237
0.002034 0.078257 -0.015349 254 255 255
-0.092019 0.221149 -0.066074 101 150 236
-0.064770 -0.185360 0.009074 255 255 254
-0.090631 -0.269433 0.015419 255 255 254
-0.073932 0.245592 -0.033208 255 255 254
0.008065 0.048293 -0.009328 254 254 254
-0.112999 -0.175139 -0.021820 101 151 236
-0.094903 -0.208263 0.022049 103 151 237
-0.090353 -0.073479 -0.085434 102 149 237
-0.111209 0.196746 -0.075876 100 148 236
-0.023428 -0.024773 0.024627 254 255 254
0.064737 -0.050641 0.067902 255 254 255
-0.085404 0.060443 -0.063276 101 150 237
0.091557 -0.091315 0.058399 255 255 254
0.050420 -0.012643 0.011188 255 255 255
0.056064 -0.017218 -0.001224 255 255 254
0.107474 -0.125522 -0.002423 255 253 254
-0.114115 -0.104248 0.043156 103 150 237
-0.111389 0.254135 0.039127 102 150 238
-0.111620 0.060364 -0.032899 101 148 235
0.019093 0.062388 0.023313 255 254 255
-0.091553 0.145210 0.022976 100 150 236
-0.093184 0.087255 -0.008750 102 149 237
-0.027643 -0.034039 0.009626 254 254 255
-0.121246 -0.187086 -0.022633 101 149 238
-0.088243 -0.202391 -0.016391 100 150 236
0.074911 0.246012 0.025981 255 255 255
-0.016774 0.107174 -0.020681 255 255 255
0.108900 -0.153808 0.017942 254 254 255
-0.088566 -0.122451 -0.090711 100 148 236
-0.085497 0.153255 -0.025480 101 150 237
0.043957 0.185262 0.045401 254 254 255
-0.056301 0.223861 0.030225 255 254 254
-0.112048 -0.087357 -0.002596 101 149 238
-0.059899 -0.164229 0.060802 255 255 255
-0.092240 -0.234166 0.054178 100 149 238
-0.105314 0.125071 0.012223 100 150 236
0.041597 0.007702 0.043108 255 254 255
-0.115129 -0.092912 -0.026390 100 149 236
-0.003728 -0.004252 0.056037 255 255 255
-0.024722 0.124217 0.044039 255 255 255
0.040925 0.005872 0.058764 254 255 255
-0.115191 -0.086513 -0.074825 101 150 237
0.039403 0.116411 0.050246 255 255 255
0.034439 -0.004288 0.009056 255 255 254
-0.105540 0.178100 0.021760 100 149 236
-0.105076 0.065365 -0.093731 101 150 236
-0.063820 0.241393 -0.002971 255 255 255
-0.085839 -0.064536 -0.033821 103 149 237
-0.092283 -0.123889 0.025625 100 149 236
-0.110224 0.264667 -0.058228 101 150 237
-0.093335 -0.206840 -0.000903 101 149 235
-0.089185 -0.112186 -0.084506 101 150 237
-0.067191 -0.165573 -0.016686 255 255 254
-0.014738 0.102722 -0.021797 255 255 255
-0.020149 -0.009323 -0.005651 255 255 255
0.004710 0.049606 -0.005148 255 255 254
-0.079463 0.287206 -0.036469 255 254 255
-0.070232 0.236003 -0.038059 255 255 255
-0.108272 0.071616 -0.015153 100 150 236
-0.097030 -0.055735 -0.080972 102 149 236
-0.086919 -0.078238 -0.026670 103 151 239
-0.090579 -0.221116 0.050115 100 148 237
0.004061 0.033085 0.048045 255 255 255
-0.110714 0.199086 0.005325 102 149 233
-0.049409 -0.108658 0.045291 255 255 255
-0.090422 -0.227766 0.047998 136 142 154
-0.101151 0.264703 0.042484 101 150 238
0.043936 -0.023474 0.015070 255 255 255
-0.110512 0.242581 -0.074501 102 150 238
-0.092455 -0.251275 0.052490 254 255 254
-0.105745 -0.245062 -0.076448 100 149 236
0.025975 0.084414 0.025851 255 255 254
0.063914 -0.041806 0.059780 254 255 254
0.052127 0.203803 0.023952 255 255 255
-0.088945 -0.034252 -0.021200 100 150 237
-0.105759 -0.206272 -0.054537 102 151 238
0.100383 -0.124613 0.006134 254 253 254
-0.100886 0.019373 -0.030331 100 149 238
0.040646 0.128988 0.019703 255 255 255
-0.113284 0.121191 0.011408 101 150 235
-0.088670 0.153194 0.045343 100 150 239
-0.088689 -0.029048 -0.006511 102 149 236
-0.088297 0.181600 -0.081013 100 150 237
-0.031226 -0.049655 0.055179 255 255 255
0.032710 0.024141 0.026271 255 254 255
-0.115043 -0.084483 -0.063990 101 149 236
0.000234 0.088416 0.036753 255 254 255
-0.021522 0.144480 0.005860 255 255 254
-0.089051 0.132891 0.036373 102 150 237
-0.082686 0.231053 -0.018633 99 148 235
-0.091810 -0.202172 -0.086328 102 148 234
-0.088213 -0.130881 -0.093365 100 148 238
-0.110045 0.222551 -0.037258 102 150 238
-0.040537 -0.111362 0.023078 255 255 255
-0.093157 -0.057447 0.017222 102 150 238
0.055507 0.219781 0.014553 255 254 255
-0.116873 -0.195345 -0.019741 102 150 237
-0.067714 -0.160724 0.011658 254 255 255
-0.113746 -0.107738 0.028511 101 149 238
-0.116648 -0.177103 -0.057480 101 148 238
-0.062351 -0.179253 0.061722 255 255 255
-0.070820 0.225146 0.056939 255 255 255
0.086629 -0.103948 0.050072 255 255 254
0.016182 0.043898 -0.007543 255 255 255
0.060202 0.213783 0.002850 254 255 255
-0.094055 0.081860 -0.058333 102 150 238
-0.097818 -0.027222 0.003334 102 149 237
-0.108556 -0.231367 -0.028661 101 149 236
0.000088 0.011034 -0.007367 255 255 255
-0.100716 -0.154518 0.050385 100 150 236
-0.089262 0.066937 -0.003340 100 149 238
-0.007216 0.025679 -0.008140 255 255 254
-0.018626 -0.038837 0.029199 255 255 255
-0.000095 0.065663 0.001234 255 255 255
-0.110955 0.153903 -0.027129 102 151 237
-0.088902 0.197456 0.052483 103 151 237
0.008027 0.031938 0.045767 254 255 254
-0.108687 0.102213 -0.091618 102 150 237
-0.090646 0.047419 -0.076615 102 149 236
-0.044375 -0.093756 0.055062 255 255 255
-0.111603 -0.126047 -0.068580 102 150 237
-0.068563 -0.174256 -0.002636 254 254 254
-0.089548 -0.252220 -0.046156 129 137 147
-0.090849 -0.098827 0.025719 101 149 237
-0.106654 -0.266519 -0.001561 102 149 235
0.006206 0.066965 0.061597 255 255 255
-0.039522 -0.108720 -0.016372 254 255 255
-0.048111 -0.106871 0.012414 255 255 255
-0.092561 -0.270453 0.039792 255 255 255
-0.016312 -0.048919 -0.009948 254 255 255
-0.059360 -0.188436 -0.010273 255 255 255
-0.110143 0.235800 -0.073225 100 148 236
-0.068435 -0.174843 -0.008134 254 255 255
-0.073131 -0.185467 0.059239 255 255 255
-0.087182 -0.083242 -0.090098 101 149 239
-0.061691 -0.190231 -0.028221 254 255 255
-0.104504 -0.059603 -0.082186 103 151 236
-0.114381 0.044265 -0.059885 100 148 235
0.123215 -0.162956 0.034591 255 255 254
-0.047950 -0.135573 -0.000949 255 255 255
-0.094147 0.268237 0.042542 100 149 238
-0.054263 0.192737 0.062077 254 255 254
0.036504 0.010377 0.067918 255 255 255
-0.026640 -0.066193 -0.004308 255 255 254
-0.114773 0.168493 -0.015718 101 150 238
-0.071930 -0.222829 0.004742 254 255 255
-0.108438 -0.077581 -0.023495 101 148 238
-0.110312 0.256879 0.037121 102 150 237
-0.088980 0.114989 -0.010374 101 149 236
-0.090263 0.048240 -0.079323 99 148 235
-0.058245 -0.160280 0.060815 255 255 255
-0.045215 0.177566 0.014574 255 255 255
0.127145 -0.174907 0.023732 255 255 254
-0.015505 0.133769 0.012807 255 255 254
-0.089647 0.045928 -0.069909 100 149 236
-0.089397 0.265826 -0.065145 101 150 237
-0.096424 0.125852 -0.092850 101 149 235
-0.075799 -0.236672 0.035349 255 254 255
-0.087496 -0.251588 0.038279 255 255 254
-0.089102 -0.177106 -0.054168 100 149 238
-0.004622 0.014799 0.061850 255 255 255
0.054728 -0.027817 -0.006004 255 255 254
-0.036936 0.152969 0.046914 254 255 255
-0.085437 -0.049364 -0.065471 100 149 238
-0.086673 -0.236970 0.057934 255 254 255
-0.091111 0.190152 0.003855 102 150 238
-0.110275 0.125297 -0.007563 101 149 236
0.048480 0.197923 0.009344 255 254 254
0.078714 0.241166 0.025719 255 255 254
0.021422 0.076661 0.036446 255 255 255
0.026213 0.079335 0.064078 255 255 255
-0.107471 -0.237964 0.037404 103 150 237
-0.110361 -0.251243 -0.052133 101 149 236
-0.058736 0.210930 -0.030148 255 255 255
0.027213 0.013298 0.057434 255 255 255
0.084858 -0.100794 0.049571 254 253 254
-0.004426 0.028642 0.054969 255 255 254
-0.074710 -0.228111 0.063245 255 255 255
-0.112893 -0.217428 0.010695 101 149 236
-0.088900 0.093719 -0.014015 99 149 235
0.065929 0.199790 0.053380 255 254 255
-0.042067 0.169582 -0.023515 255 255 255
0.132119 -0.197818 0.030873 255 255 255
-0.089531 -0.043133 -0.068309 101 150 239
-0.074367 0.266885 0.017087 254 255 255
-0.117371 -0.140572 -0.029836 103 150 236
-0.048119 0.207184 0.015489 255 255 254
-0.076225 0.238986 0.047389 255 255 255
0.123127 -0.184428 0.016753 253 255 255
-0.105276 0.192685 -0.030474 102 149 236
-0.109728 0.208415 -0.009736 101 148 233
-0.112129 0.045393 0.031133 102 148 236
-0.114825 0.114970 -0.056299 101 150 238
-0.088551 0.198902 -0.076210 99 148 237
-0.036105 0.179044 0.011652 255 255 255
0.024731 0.107235 0.037315 254 255 253
-0.027736 0.159595 -0.015345 255 255 254
0.052786 0.212304 0.025613 255 255 254
-0.112469 -0.075516 0.018192 101 151 238
-0.110638 0.082252 -0.091690 100 149 238
0.116828 -0.149102 0.011354 254 255 255
-0.069146 0.230135 0.023483 254 254 254
-0.090119 0.071235 -0.070938 102 151 237
-0.110029 0.165763 -0.087080 101 149 238
0.063092 -0.060775 0.022515 255 255 254
-0.076138 -0.259819 -0.009108 254 254 254
-0.068290 -0.167700 0.019512 255 255 255
0.009243 0.072576 0.040461 255 255 254
-0.065367 -0.164254 -0.017146 254 255 254
0.018461 0.085634 -0.013740 255 254 255
-0.088141 0.190423 0.011745 101 149 236
0.088623 -0.079677 0.065078 255 254 254
-0.114906 -0.141894 0.047029 103 150 237
0.041615 -0.020969 0.001172 255 255 255
-0.029718 -0.075169 0.008986 255 255 255
0.011441 0.080737 -0.007055 255 255 255
-0.091520 -0.217444 -0.071052 102 150 237
-0.036932 -0.060157 0.011179 255 255 254
0.011088 0.073390 0.056940 255 255 255
-0.000769 0.079048 -0.007133 255 255 255
-0.030412 -0.079906 -0.010479 254 255 255
-0.097409 0.068370 -0.096412 101 148 232
-0.104963 -0.182694 0.057210 101 150 237
-0.105309 0.193924 0.034940 102 150 236
-0.113466 0.030416 -0.021663 102 150 235
-0.105824 -0.136589 -0.089433 101 149 237
0.070877 -0.075964 -0.001128 254 254 255
0.117025 -0.149230 0.040473 253 255 253
-0.093365 0.131038 -0.034775 100 148 234
-0.114091 -0.111436 -0.009702 101 150 237
0.025025 0.085488 0.015042 255 255 255
0.093250 -0.120236 0.063049 255 255 255
-0.107610 0.147027 -0.048003 102 149 238
-0.108450 -0.210201 0.017953 101 150 237
-0.038090 -0.072192 0.044517 255 255 255
0.005566 0.055505 0.034534 254 254 255
0.019677 0.026933 0.022826 255 255 255
0.029187 0.031955 0.029434 255 255 255
-0.110283 0.200183 -0.056022 102 150 237
-0.045955 -0.100875 -0.003722 255 255 255
-0.094469 0.082553 -0.010002 101 150 237
-0.032461 -0.086183 -0.011712 254 255 255
-0.036797 -0.083845 0.022928 255 255 255
0.086611 -0.086877 0.000717 255 254 254
-0.044556 0.176733 0.012976 255 255 255
-0.108034 -0.229521 -0.046122 103 150 236
-0.087728 -0.061070 0.021381 139 139 145
-0.017542 0.134130 0.015565 255 255 254
-0.051508 -0.115226 0.024422 255 255 254
-0.058033 -0.133613 -0.018296 254 255 255
-0.105922 0.266976 -0.066333 100 147 232
-0.081740 -0.262119 0.061828 255 255 255
-0.033492 0.141158 -0.020973 255 255 255
-0.052912 0.196672 0.016761 255 254 255
-0.108372 -0.219247 -0.004324 101 149 238
0.054537 0.211201 0.026561 255 254 255
0.110134 -0.161746 0.030685 253 253 255
-0.025814 0.127300 -0.009106 254 254 255
-0.030009 0.162924 -0.030115 255 255 254
0.051514 0.200461 0.043557 255 255 254
-0.112232 -0.105731 0.023055 101 149 237
-0.089054 -0.196362 -0.051038 102 149 235
-0.018652 -0.004820 -0.005652 254 255 255
-0.084315 0.273479 0.055310 254 254 255
0.029333 0.007962 0.045842 254 255 255
0.024540 0.051017 0.009858 255 253 255
-0.102615 0.021678 -0.045019 100 150 238
-0.090752 -0.197695 -0.085690 101 149 238
