ply
format ascii 1.0
element vertex 1175
property float x
property float y
property float z
property uchar red
property uchar green
property uchar blue
end_header
-0.101808 0.093826 -0.090126 102 150 236
-0.099109 0.257176 -0.070485 99 141 216
0.030863 0.136591 0.045407 255 253 254
-0.029140 0.168528 0.016999 255 254 253
-0.031865 0.147818 -0.027079 253 255 255
-0.080989 -0.183322 0.026491 100 150 237
-0.109290 -0.217372 -0.074255 101 149 237
-0.086006 0.126790 -0.038842 100 149 235
-0.083228 -0.066845 0.011573 101 149 236
-0.015318 0.127234 0.007674 254 255 254
-0.101767 0.103407 -0.018204 102 149 235
-0.108237 -0.035452 0.017569 100 149 235
0.059056 0.201224 0.022051 254 254 253
-0.005311 0.108233 0.030187 255 254 255
-0.088949 -0.061337 -0.048538 102 149 234
-0.056959 -0.148403 0.031074 254 254 254
-0.108614 0.069916 -0.013215 100 149 236
-0.070071 0.232790 0.061109 254 255 254
-0.078294 -0.103910 -0.059441 100 148 236
0.068433 -0.062119 0.002058 254 254 254
-0.108763 0.161593 0.010100 101 148 236
-0.009059 -0.013125 0.041869 195 197 197
-0.114153 -0.147583 0.047304 100 149 233
-0.087737 -0.148310 0.033929 101 150 236
-0.087072 0.194971 0.000404 101 149 234
0.036245 0.111424 0.027259 255 255 254
-0.085318 -0.083735 0.006500 100 149 236
-0.075415 -0.272267 -0.009474 254 253 254
0.025481 0.033676 -0.001361 254 253 255
-0.018171 -0.003609 0.024916 255 255 253
-0.088201 0.084620 -0.005670 101 150 236
-0.105855 -0.244570 0.050437 101 147 232
-0.088571 -0.267529 -0.028329 135 138 144
0.005130 0.080768 0.036096 254 254 255
-0.083141 0.120430 -0.084951 101 148 231
0.093312 -0.114212 0.013972 253 253 253
-0.008703 0.111981 0.029116 255 255 255
-0.093838 0.092392 -0.087382 101 148 234
-0.109779 -0.159258 -0.030038 101 149 236
-0.090181 -0.219879 -0.078931 100 148 235
0.064791 -0.070601 0.005264 255 253 253
-0.091137 -0.084943 -0.007056 103 146 222
0.114050 -0.159036 0.021191 255 255 255
-0.109068 -0.219390 0.018809 101 148 235
0.041210 -0.025384 0.033270 254 255 255
-0.074721 -0.215625 0.045675 254 255 254
-0.110429 0.033314 -0.013026 133 139 145
-0.089475 0.271917 0.002609 101 149 234
-0.032547 -0.088927 0.035659 253 255 255
-0.083368 -0.208364 -0.063055 133 138 143
-0.105248 0.134054 -0.008968 100 148 236
-0.084824 -0.165289 -0.063145 101 150 235
-0.058275 -0.146993 0.007721 255 254 255
-0.102216 -0.054741 -0.014659 101 149 236
-0.082004 -0.250389 0.043114 102 148 236
0.038339 0.137070 -0.011596 254 254 255
-0.053333 0.197497 0.017074 254 255 255
-0.033924 -0.067510 0.049788 254 254 253
-0.114706 -0.068611 -0.053858 102 150 236
0.024646 0.013711 0.056893 254 254 255
-0.105181 0.226210 -0.046181 101 149 235
-0.028211 0.170391 0.026311 255 254 255
-0.080935 0.264276 0.012947 253 255 254
-0.079440 -0.229809 -0.036886 253 255 253
0.032496 0.114280 -0.004989 255 255 253
-0.108655 0.266831 -0.039612 100 146 229
0.024060 0.099055 0.042525 255 254 254
-0.100924 0.090761 -0.089589 100 146 228
-0.098326 0.248280 -0.076892 101 148 236
-0.080358 0.245919 0.052580 255 255 255
0.010397 0.043347 -0.001013 255 255 253
0.002270 0.048016 0.058898 255 254 254
-0.086021 -0.271219 -0.044036 102 149 235
-0.086723 -0.240666 -0.078681 102 133 189
0.033882 0.021882 0.016184 255 254 254
-0.104213 0.083336 -0.088542 102 150 237
-0.058439 -0.153249 0.035395 255 255 254
0.086711 -0.099749 -0.000806 254 254 255
-0.102176 -0.219756 -0.056874 100 148 234
-0.080851 0.270179 0.022189 254 253 254
0.041102 0.184565 0.048763 255 254 253
-0.107770 0.165998 -0.016961 100 150 234
-0.112366 -0.140906 0.045934 101 150 236
0.056301 0.219675 0.034068 253 254 253
-0.108425 -0.264306 -0.057438 101 149 237
-0.088729 -0.212148 -0.024223 157 154 158
-0.060431 -0.179112 0.008390 255 255 255
-0.081623 0.258129 0.056181 254 253 253
-0.088446 -0.070717 -0.067818 103 151 237
0.064374 0.223722 0.015298 254 253 253
-0.083972 -0.112249 0.008477 102 150 237
0.032993 0.134390 0.056854 255 255 254
0.027230 0.005333 0.050354 253 255 254
0.094300 -0.120929 0.065246 254 254 253
-0.106575 -0.168414 -0.009486 102 148 233
-0.108914 -0.218967 -0.078498 101 148 236
-0.090478 -0.168767 -0.024372 103 147 225
-0.115337 -0.168735 -0.055578 102 149 233
-0.073244 0.284103 -0.019921 255 255 255
-0.085065 -0.233444 -0.078795 102 149 234
-0.091236 0.123273 -0.085450 101 148 236
-0.087381 -0.056934 0.023036 102 150 236
-0.113141 -0.194127 0.011912 100 150 234
-0.085354 0.185871 -0.040090 101 150 236
-0.040562 -0.097467 0.010932 253 253 252
-0.106572 0.172390 0.047530 103 150 235
-0.069740 -0.235213 0.061109 254 255 254
-0.087271 0.142733 -0.021024 102 149 236
0.002376 0.101048 -0.014161 255 255 255
-0.106923 0.223886 -0.057550 102 149 237
-0.013810 -0.010338 0.060498 255 254 254
-0.085153 0.098658 -0.045142 100 149 236
0.037758 0.111919 0.041858 253 254 254
0.022792 0.046263 0.032473 255 255 254
-0.085112 -0.076611 -0.007230 125 130 137
-0.012558 0.096769 0.029157 255 255 254
-0.049992 0.219991 -0.045438 255 255 254
-0.057521 -0.180300 -0.020949 253 253 254
0.034622 -0.009314 0.057611 253 255 255
-0.105561 0.108993 0.007635 100 145 227
-0.016272 0.132564 0.055494 253 254 254
-0.111687 -0.172694 -0.050267 100 149 233
-0.107535 0.138750 0.017227 102 148 235
-0.087940 -0.122336 -0.067054 99 149 234
0.039296 0.180859 -0.008121 255 254 253
-0.077349 0.273100 0.044766 254 254 254
-0.088250 0.177510 0.031102 101 149 236
0.003926 0.012332 0.056480 253 255 255
0.059206 -0.066737 0.058988 255 255 255
0.043383 -0.020108 -0.008279 254 255 253
-0.104669 0.206041 -0.079392 100 149 236
-0.107824 -0.096978 -0.089585 100 149 235
-0.109974 0.205320 0.005912 100 150 236
-0.115390 -0.219452 -0.041064 101 148 236
-0.084425 0.054895 -0.014327 102 150 236
0.023080 0.099557 0.016202 255 255 254
-0.049888 0.189274 0.025426 255 253 254
-0.089697 -0.186811 0.049184 100 149 236
-0.105286 0.168119 -0.004077 101 149 235
0.041340 0.119154 0.044834 254 254 255
-0.000058 0.102617 -0.011952 254 254 255
-0.085739 -0.237034 -0.009012 100 150 236
-0.082925 0.206421 -0.077309 132 139 146
-0.101427 0.092442 0.024468 100 149 237
-0.055823 -0.141443 0.061029 255 255 254
-0.101797 0.028623 -0.015968 100 147 235
-0.088614 -0.082315 0.024709 125 131 139
-0.107230 0.063909 -0.016965 102 149 236
-0.075009 -0.217973 0.018107 254 255 255
-0.071572 0.235813 -0.009465 255 255 254
0.016446 0.101498 -0.001531 253 255 255
-0.082663 0.201300 0.057524 136 139 145
0.045848 -0.035295 0.036699 254 254 255
-0.087375 -0.108544 0.026255 100 148 236
-0.053099 0.199044 -0.039897 255 255 255
-0.109001 -0.204013 0.049456 102 149 235
-0.107624 -0.199091 0.052586 100 147 233
-0.083444 -0.254440 0.000440 255 255 255
-0.023806 0.153018 0.022043 255 254 254
0.021224 0.095063 0.057120 254 254 253
-0.106395 -0.082182 0.026714 102 150 236
-0.102167 0.243240 0.057139 100 147 231
-0.085384 -0.060589 0.034206 130 132 140
-0.089928 -0.170179 -0.068875 100 148 236
-0.107192 0.249817 -0.026138 101 149 235
-0.087907 -0.219855 -0.057342 101 149 235
-0.038596 0.162102 0.028649 254 255 254
-0.036650 -0.108482 -0.007725 253 252 253
-0.046821 0.203974 0.053055 254 254 254
-0.084463 -0.178975 0.011416 101 149 237
-0.110974 -0.132643 -0.025629 134 137 147
-0.058598 -0.160618 0.059166 254 253 253
0.028419 0.006788 0.022182 255 253 254
-0.066921 -0.178262 -0.017118 254 254 253
-0.082260 -0.097974 -0.020704 101 148 237
-0.008339 0.123780 -0.028035 255 255 255
0.060492 0.238402 0.042030 255 254 254
-0.071084 -0.203490 -0.007547 255 255 253
0.047702 0.165598 0.016329 255 255 255
-0.084263 -0.124402 -0.084678 102 149 236
-0.081761 0.262446 -0.041244 100 149 237
-0.103576 -0.086802 -0.045221 100 148 235
-0.072656 0.237265 -0.031375 255 255 253
-0.085636 -0.224742 0.031509 101 145 227
-0.005867 0.091983 -0.020340 254 255 254
-0.101828 0.043603 0.015540 103 150 236
0.049385 -0.020542 -0.007706 255 254 254
-0.110204 -0.255763 0.013442 100 148 236
-0.086254 -0.265540 0.007079 254 253 255
0.000599 0.028239 0.047423 255 255 253
-0.079522 -0.223241 0.014046 255 254 255
-0.075565 -0.270300 0.013904 255 254 253
-0.107170 -0.043452 0.027510 102 149 236
-0.070614 0.268718 -0.041040 255 255 254
-0.104751 -0.104326 -0.039799 101 147 231
-0.035348 -0.110768 0.013400 255 255 254
0.048693 0.169676 0.013912 255 255 255
-0.040834 -0.089738 -0.016941 253 254 255
0.053785 -0.048071 -0.006426 255 253 254
-0.090217 -0.157251 -0.036782 101 150 236
-0.086647 0.018910 -0.035666 101 147 234
-0.111062 -0.182331 -0.028242 100 148 237
-0.105479 0.235194 -0.026214 102 150 237
-0.099497 0.210682 -0.076850 101 149 232
-0.099974 0.196634 0.035262 100 138 210
0.050840 0.175653 0.017949 255 255 253
0.049344 0.159877 0.033775 253 254 253
0.031961 0.114885 0.003235 255 253 253
-0.102894 -0.028389 0.005697 101 150 236
-0.098085 -0.139312 0.053774 133 134 142
-0.106657 0.251708 0.047336 102 150 234
-0.097824 0.252168 -0.071039 101 148 235
-0.084104 -0.193968 -0.056877 136 134 141
-0.104970 -0.263398 0.025804 101 147 228
-0.102488 -0.163562 -0.022069 101 149 235
-0.057164 -0.172109 0.056470 254 255 255
0.040616 0.164947 0.064095 255 254 254
-0.109133 0.115633 -0.040604 100 149 236
-0.089473 0.239748 -0.025245 102 150 237
-0.085702 0.181307 0.007980 101 149 235
-0.052572 -0.133525 0.059746 255 254 254
-0.040301 -0.101730 -0.022645 255 254 254
-0.026525 -0.071707 0.015748 254 255 253
-0.082800 0.192915 0.031857 102 149 237
0.100231 -0.124303 0.011665 253 254 254
-0.068243 0.241584 -0.045250 255 254 253
-0.083170 0.164881 -0.062293 101 149 236
-0.004060 0.004183 -0.011588 255 255 255
-0.093623 -0.120496 -0.089302 101 148 236
-0.102675 -0.092805 -0.045896 101 148 234
-0.104602 -0.242956 0.029825 101 147 233
-0.102789 -0.221764 0.046586 101 149 236
-0.105858 -0.028096 0.007354 101 150 235
0.035247 0.152381 0.038133 254 255 255
-0.111128 0.064611 -0.029610 101 150 236
-0.069485 -0.189162 0.014757 255 255 255
-0.092080 -0.102378 0.013137 102 149 237
0.021201 0.015430 -0.009091 253 254 255
0.020137 0.043197 0.041504 255 254 254
-0.096087 -0.257800 0.050704 102 147 231
0.054001 0.223933 0.013222 253 254 255
-0.102690 0.041081 0.018824 100 148 236
-0.019357 0.149492 -0.028375 255 255 254
-0.101397 -0.234529 -0.051771 101 149 236
-0.103877 0.200003 0.053318 101 149 236
0.048841 -0.038556 0.031132 255 255 254
-0.083484 -0.260540 -0.050013 100 148 235
-0.103440 -0.207328 -0.034752 101 150 237
-0.085870 0.271318 -0.042396 101 149 234
-0.015146 0.103804 -0.006716 254 255 253
-0.105285 0.089700 0.042548 103 145 222
-0.107346 -0.041363 -0.059596 101 146 224
-0.089615 -0.250514 -0.001242 128 132 139
-0.083600 0.241748 -0.074853 102 148 235
0.054815 0.227892 0.028195 253 253 253
-0.025993 -0.042928 0.019380 254 255 254
-0.060037 0.208375 0.022620 255 255 254
0.078235 -0.104086 0.028619 255 255 255
-0.065951 -0.181624 0.029297 254 254 255
-0.105370 -0.202739 0.026441 138 127 135
-0.055481 -0.130901 0.059848 253 254 253
-0.083632 -0.100232 -0.049293 102 150 235
-0.085233 -0.108861 -0.047744 101 149 237
-0.089301 0.110458 -0.056742 101 149 236
-0.074677 -0.256402 -0.037149 255 253 255
-0.097796 -0.254501 0.050581 101 149 236
-0.012673 -0.024770 0.023522 253 253 253
-0.086724 -0.253177 -0.046934 101 149 234
-0.094689 0.226604 0.057592 100 150 237
-0.105844 -0.158066 -0.086297 101 149 236
-0.059213 -0.147483 -0.026057 255 255 253
0.018177 0.090804 0.043127 255 255 254
-0.096480 -0.040292 -0.026470 136 138 143
-0.105832 0.203420 -0.048947 102 149 236
-0.105455 -0.095128 0.042716 101 149 236
0.103687 -0.125368 0.025358 255 253 253
-0.081376 -0.142076 -0.006154 100 150 237
0.045720 -0.003752 0.063512 255 254 253
-0.073124 -0.263097 0.012174 255 255 255
-0.061131 -0.160035 -0.025344 255 255 254
0.072330 -0.066794 0.037243 253 253 253
-0.076059 -0.218623 -0.005618 254 254 253
0.075253 -0.098673 0.040532 254 255 253
-0.089976 -0.154056 0.024350 101 149 235
-0.089118 0.070908 -0.079685 102 150 236
-0.029534 0.151187 -0.016603 255 254 255
-0.087259 0.104252 0.047753 100 150 235
-0.101869 0.103504 -0.066074 100 150 235
-0.050927 -0.119029 0.019513 253 254 254
0.022599 0.094583 0.046524 254 255 253
-0.004662 -0.014596 -0.015447 255 255 254
-0.090006 -0.119691 -0.052100 101 148 235
-0.088880 -0.111121 0.035825 101 148 237
0.117090 -0.167254 0.014459 254 254 254
0.067409 0.223408 0.042985 253 253 254
-0.104888 0.256644 -0.059838 103 148 237
-0.084203 -0.275175 -0.008879 102 149 236
-0.088070 -0.203367 -0.017228 100 150 236
-0.085590 -0.074975 -0.002858 101 149 235
-0.106496 0.038731 -0.016897 101 149 236
-0.089676 -0.084256 0.021765 101 137 200
-0.002085 0.090933 0.009683 255 255 253
-0.087200 -0.240424 -0.009062 101 149 237
0.001495 0.089838 0.050315 254 255 255
-0.071826 -0.190956 -0.027350 254 253 254
-0.063958 0.245091 -0.047866 254 253 255
-0.102304 0.156797 -0.007879 101 147 232
0.063904 -0.049205 0.016311 254 253 255
-0.081561 -0.205777 -0.026005 102 148 234
0.012481 0.066274 0.024841 255 254 255
-0.062379 0.246212 -0.024441 254 255 255
-0.105672 0.142881 0.047324 103 151 236
-0.001665 0.040019 0.001921 255 255 254
-0.106751 0.231407 0.016348 101 149 236
-0.105448 -0.144974 0.020016 100 148 236
-0.105755 0.107656 0.040164 101 149 236
0.025606 0.041176 0.038659 253 255 255
-0.085716 0.179910 0.017107 102 149 235
-0.013797 0.100694 0.020181 255 253 255
-0.047261 -0.113098 -0.014556 255 255 254
-0.087071 -0.066502 -0.080001 100 149 237
0.025564 0.126963 0.007225 253 254 253
-0.069687 -0.177389 -0.012238 255 254 253
-0.083361 -0.133139 -0.014023 131 138 143
-0.085852 0.189448 -0.021580 102 147 229
-0.004271 0.026792 0.042056 254 255 254
-0.107158 0.185673 -0.069863 100 149 236
-0.098006 0.065090 -0.084887 102 146 231
-0.067955 0.230799 0.002503 254 254 253
-0.010570 0.119391 0.005613 254 254 253
-0.086596 -0.088279 -0.073972 102 149 237
0.004533 0.057851 0.041420 253 254 255
-0.083023 0.267000 -0.043020 102 149 235
-0.089938 -0.181355 0.010161 102 149 235
-0.054205 -0.126608 0.014381 255 254 254
-0.080208 -0.181086 -0.046442 102 144 223
0.029059 0.000249 0.049870 254 255 253
-0.047263 -0.133870 0.060316 255 255 253
-0.040197 0.165456 0.001738 252 253 253
-0.114031 0.181854 -0.032602 102 148 231
-0.055590 -0.180328 -0.032376 253 254 253
-0.083983 0.049295 -0.082213 102 149 235
0.053683 -0.022273 0.061402 255 254 255
0.110523 -0.148159 0.060174 255 253 253
-0.101733 0.140269 -0.009950 101 148 236
-0.110273 -0.088151 -0.066340 100 149 236
-0.103516 -0.237547 -0.001020 100 146 230
-0.085412 -0.239116 -0.077434 102 149 236
-0.101381 -0.243268 -0.031302 101 149 236
-0.029510 0.170944 0.000007 254 254 254
0.004510 0.079254 -0.017860 254 255 254
-0.081565 0.255998 0.036515 255 253 254
-0.094850 0.091825 -0.087833 100 149 236
-0.083819 -0.243916 0.045583 254 255 255
-0.102086 -0.160358 0.016144 100 149 235
-0.067402 -0.186176 0.042266 255 255 254
-0.016270 -0.001639 0.024845 255 255 255
-0.085879 -0.242194 -0.040240 254 255 252
-0.089932 -0.129405 -0.028402 102 150 236
-0.036161 0.165905 -0.009923 254 255 254
-0.082395 -0.231675 0.008171 99 149 235
0.001265 0.092881 0.059344 255 255 255
0.010329 0.069417 0.019832 255 255 255
-0.087733 -0.116143 0.044229 99 142 220
-0.084793 -0.264628 -0.063936 102 148 235
-0.106029 0.208372 0.006735 102 149 235
-0.112313 0.079078 -0.087736 101 148 236
-0.017510 -0.054691 -0.008034 254 254 253
-0.094992 0.278022 0.002370 101 149 237
0.078189 -0.101095 0.019496 255 254 254
-0.104458 -0.124972 -0.090728 100 149 236
-0.100356 0.271007 0.025940 100 144 225
0.000639 0.037215 0.035249 254 254 255
-0.083470 0.193791 -0.006479 101 148 235
-0.072041 -0.208063 -0.018574 254 254 255
-0.111170 0.161109 0.000761 99 146 230
-0.053780 -0.143935 -0.020332 254 255 255
-0.033479 -0.065915 0.051346 255 254 255
0.038212 0.123181 0.012709 255 255 255
-0.084113 0.105859 0.011439 100 148 235
0.051036 0.177097 0.002322 255 254 253
-0.102009 -0.183760 -0.027067 102 149 234
-0.079756 0.263217 0.060943 255 255 255
-0.082452 -0.239596 -0.029899 253 253 254
-0.112083 0.095182 -0.059592 102 149 236
0.120431 -0.174363 0.055971 254 253 255
-0.010480 -0.021747 0.046556 254 255 255
-0.110107 -0.115649 -0.090930 101 149 236
0.097666 -0.129630 0.065600 254 255 254
0.024279 0.073438 0.033368 255 254 254
-0.021641 -0.057685 -0.024326 254 254 254
0.022954 0.089136 0.054561 254 255 253
-0.029872 -0.043943 -0.003436 255 254 255
-0.013658 0.125599 0.004223 254 255 253
-0.081552 0.181113 0.027669 100 148 233
-0.060331 -0.154218 0.001497 254 255 255
-0.064158 0.242345 0.056112 255 255 254
-0.088449 0.036394 0.001711 103 147 228
0.114148 -0.155932 0.041275 252 255 252
-0.073361 -0.206497 -0.026874 254 255 255
-0.066566 0.220615 0.052979 255 255 254
-0.105683 0.233773 0.053210 101 148 235
-0.112218 -0.073100 -0.016150 102 150 235
-0.015470 -0.019678 -0.013926 254 255 254
-0.083194 -0.160852 0.013792 102 149 233
0.005278 0.049163 -0.004798 255 255 253
-0.087870 0.203922 0.057840 101 149 235
0.022593 0.082294 0.023598 255 255 254
-0.001493 -0.003700 0.004748 253 255 255
-0.108849 0.134058 -0.046314 101 148 235
-0.084932 -0.214821 -0.022610 132 135 142
-0.110573 -0.268159 0.014750 100 149 235
-0.075571 -0.258720 0.033839 255 255 255
-0.105844 -0.124650 -0.077267 103 150 236
-0.078652 -0.230377 0.037275 255 253 254
-0.090123 -0.081808 -0.004155 100 149 237
-0.030389 -0.082572 0.050711 254 254 253
-0.102512 -0.046367 0.030231 103 147 232
0.058905 0.235936 0.030270 206 216 230
-0.092654 0.177777 0.053265 101 150 236
-0.080034 0.119801 -0.030740 102 150 236
-0.110221 -0.209762 0.005210 103 150 235
-0.011238 -0.013824 0.005267 195 198 196
-0.020494 0.114084 0.016396 255 254 254
-0.091038 0.126036 -0.051088 102 150 236
-0.092362 -0.219927 0.002949 102 149 234
-0.094162 0.126427 0.007992 141 144 151
-0.059393 0.216456 -0.026160 253 254 254
0.057447 0.228287 0.035551 254 254 253
-0.102880 -0.206104 0.008094 101 141 217
-0.103076 -0.245831 0.056935 102 149 234
-0.012787 0.135131 -0.030767 254 255 253
0.080542 -0.104147 0.049317 254 255 253
-0.088027 -0.257687 0.042395 255 254 255
-0.083553 0.274020 0.022773 136 141 147
-0.017552 -0.048490 -0.007762 253 253 252
-0.089524 0.203486 0.055497 100 149 237
-0.103708 -0.225579 0.043609 100 149 234
-0.105677 0.202811 -0.003095 102 149 236
-0.078242 -0.275485 -0.003462 255 254 254
-0.065082 0.242384 0.063911 255 253 254
-0.097006 -0.052842 0.038846 101 148 236
-0.000549 0.092551 0.023549 254 254 255
-0.085057 -0.233525 0.013143 140 128 135
-0.105606 -0.115084 -0.023963 100 150 237
-0.042680 0.192788 0.038143 254 253 253
-0.088353 -0.262470 0.034193 134 136 144
-0.102200 -0.093176 -0.052868 101 149 236
-0.092222 0.084208 -0.087794 101 148 237
0.062333 -0.057927 0.060650 254 254 255
-0.048211 -0.138929 0.051435 255 255 255
-0.109367 0.107707 -0.082213 131 135 143
0.050079 -0.018853 -0.005788 255 255 254
-0.090261 -0.126428 -0.061119 100 148 237
-0.104530 0.255147 0.022142 101 149 235
-0.055901 0.200368 0.059865 255 254 255
-0.034097 -0.060416 -0.016468 253 254 253
0.040002 -0.012278 -0.014399 255 254 255
0.063251 -0.063950 -0.000541 255 255 255
-0.083698 0.193521 -0.012915 103 150 235
0.048745 0.193427 0.049230 254 254 255
-0.104965 0.243696 -0.076056 101 148 236
-0.035065 -0.089512 0.060186 255 255 253
-0.107789 -0.106903 -0.011559 100 148 234
-0.089612 -0.220175 -0.057740 102 150 236
0.044483 0.187063 0.055250 253 252 253
-0.028877 -0.040298 0.055867 254 254 255
-0.107853 -0.040910 -0.006127 101 148 236
-0.081465 0.276958 -0.038141 100 149 235
-0.105593 0.072405 -0.089205 100 148 235
-0.080920 -0.097810 -0.066703 101 150 237
-0.114125 -0.158412 -0.069331 102 150 236
0.013736 0.042890 0.019349 255 255 255
0.019265 0.044270 0.022667 255 255 255
-0.086215 0.169287 -0.058365 101 148 234
-0.102643 -0.162109 0.036696 101 150 236
-0.106000 0.056025 -0.087551 100 149 237
-0.067033 -0.166692 -0.031407 255 255 254
-0.091997 -0.152799 -0.083670 103 151 237
-0.111553 -0.149947 0.055352 103 150 235
-0.025312 -0.027949 0.033830 199 204 203
-0.087757 -0.164334 -0.077078 103 150 237
-0.088772 -0.116499 -0.042601 102 149 235
-0.089273 0.126780 -0.072220 100 148 236
-0.010123 0.100997 0.058413 255 255 253
0.055469 0.232547 0.012739 255 255 253
-0.070622 -0.172773 0.011006 255 255 255
-0.088684 0.106763 0.001814 102 149 234
-0.086898 -0.129052 0.050217 101 149 236
-0.081822 0.253287 0.055698 254 253 255
-0.050573 -0.118900 0.054088 255 254 255
-0.104429 -0.120440 -0.091198 100 149 237
0.043563 0.149125 0.011415 254 253 254
0.005279 0.087790 0.008945 253 254 254
-0.002966 0.075963 -0.004462 255 254 255
-0.098501 -0.247714 -0.072776 101 148 234
-0.009184 0.013281 0.015500 253 254 254
-0.035201 0.160523 -0.013648 255 254 254
-0.064969 0.220129 0.001601 254 255 255
-0.086026 -0.148479 0.024047 101 150 234
-0.082932 0.165679 0.047795 103 149 237
-0.054148 -0.172589 0.014277 254 254 255
0.000093 0.008743 0.057661 255 254 254
-0.108669 0.112138 -0.054853 102 148 234
-0.108312 0.129744 -0.081873 102 150 236
-0.106473 -0.061751 0.006734 101 148 234
-0.052695 0.192954 0.008656 255 253 255
-0.039916 -0.122099 -0.017479 255 255 255
-0.079593 -0.215454 0.022144 255 253 253
-0.085730 -0.038012 -0.005405 101 149 237
0.056385 0.237814 0.001779 253 255 253
-0.112082 -0.116128 -0.065623 102 149 236
0.019963 0.089959 0.009100 254 254 254
-0.090947 -0.034830 -0.030654 101 148 235
-0.036625 -0.077455 -0.010752 255 253 255
-0.064323 -0.187532 0.020433 255 254 255
0.013169 0.079230 0.039702 254 254 253
0.005412 0.056939 0.001060 254 255 255
-0.106114 -0.276603 -0.014768 100 147 234
-0.106777 0.124655 0.046772 101 149 235
-0.105430 0.271645 0.002542 102 148 232
0.000179 0.051698 0.014783 254 254 253
-0.048044 0.206024 -0.047295 254 254 255
-0.090061 0.059662 0.044750 134 138 145
0.031560 0.093419 0.049888 255 254 254
-0.065823 0.228613 -0.026832 254 253 254
0.053769 0.212425 0.039570 254 255 255
-0.039614 -0.099358 -0.022023 253 253 253
0.111410 -0.168367 0.038971 255 254 254
-0.085547 0.209629 0.047376 101 149 236
-0.062976 -0.158257 0.050967 255 255 255
-0.007848 0.091493 0.048296 255 254 254
0.051329 0.183372 0.004110 255 255 255
-0.112579 -0.163015 0.007953 100 148 230
-0.087605 0.184207 0.026934 101 149 236
-0.096988 -0.050310 -0.077801 102 150 237
-0.033253 0.142742 0.045203 255 254 253
-0.047275 -0.137751 0.048778 255 255 255
0.034754 0.120120 0.006931 254 254 254
-0.088529 -0.238986 -0.005437 101 149 237
-0.002356 0.107443 -0.006136 254 254 255
-0.087997 -0.278134 -0.013263 101 147 232
-0.087488 0.254079 -0.048925 102 149 235
-0.070927 0.236491 -0.042218 255 254 254
-0.088803 0.028569 -0.058503 102 149 236
-0.079182 -0.235944 -0.011100 255 255 255
-0.089181 0.131995 -0.002216 101 149 235
-0.078553 -0.263828 -0.036566 255 254 253
-0.095338 -0.132411 0.052239 103 146 222
-0.062708 -0.216373 -0.019992 255 254 254
-0.103220 0.068339 -0.043806 102 150 237
-0.085780 -0.256793 0.047590 255 254 255
0.020907 0.075167 0.049772 254 255 255
-0.084405 -0.245132 -0.032719 255 255 253
-0.064840 -0.205989 0.038540 255 255 254
0.050973 0.178849 0.010931 254 255 254
0.055537 0.241381 0.007881 253 255 254
0.069078 -0.082388 0.042461 255 255 254
-0.021273 0.109504 0.045337 254 253 253
-0.102137 -0.127917 -0.050853 100 150 236
-0.107522 -0.182793 -0.076893 102 149 233
-0.013075 -0.019891 0.054947 255 255 255
-0.060100 -0.174406 0.006426 254 255 255
-0.018058 -0.029076 0.058275 255 255 254
-0.070772 -0.237304 -0.008420 254 254 254
0.030556 0.001966 0.017852 255 254 255
-0.081319 -0.275277 0.020152 255 254 254
-0.086400 -0.034539 0.030323 100 148 237
-0.104735 0.187694 0.016021 100 149 235
0.059715 -0.040948 0.062402 255 254 254
-0.085851 -0.268668 0.013094 102 149 235
-0.083530 0.193455 -0.046308 99 149 235
-0.081834 -0.240116 0.028533 253 255 255
-0.085510 -0.098104 -0.042521 103 150 235
-0.018874 0.137108 0.046080 253 254 255
-0.010308 -0.020490 0.038979 255 255 255
0.114306 -0.158884 0.027123 255 255 253
-0.103658 0.090517 -0.081099 100 147 232
-0.107232 -0.085267 -0.075633 100 149 237
0.025527 0.012094 0.009811 255 254 255
-0.015193 0.098263 0.039403 255 254 253
0.048223 -0.019825 0.030436 255 254 255
-0.108344 0.264220 -0.055044 102 149 234
0.058141 0.243016 0.007429 254 255 255
-0.109239 -0.204663 -0.076898 102 149 237
0.026787 0.080985 0.039928 254 255 255
0.041449 0.008827 -0.006602 255 254 255
0.008049 0.051468 0.059895 255 255 255
-0.081687 -0.232840 0.011193 254 255 253
-0.029355 0.159804 0.057916 255 255 254
-0.097951 0.142971 -0.085713 101 148 233
0.043773 0.148908 0.062949 253 253 254
-0.044302 -0.131659 -0.026800 254 255 253
-0.083373 -0.274718 0.000776 101 146 229
-0.103180 -0.112441 0.048038 102 149 235
-0.085465 0.111978 0.046706 102 149 237
-0.087581 -0.131267 0.006596 102 149 237
-0.107619 -0.142459 0.020334 102 149 237
0.030589 0.091006 0.058129 255 253 253
-0.107106 -0.223122 0.033445 100 148 235
0.024450 0.046544 0.060623 253 254 254
0.044318 -0.004512 0.012021 255 254 253
-0.084001 0.083152 -0.024502 100 150 237
-0.084470 -0.133255 0.022153 100 149 237
-0.085656 -0.122661 -0.033139 103 151 237
0.112958 -0.155139 0.027649 253 253 254
0.051300 -0.036659 -0.008469 255 254 253
0.034999 -0.011497 0.008802 254 254 255
-0.078065 0.261112 0.048403 255 255 255
-0.014426 -0.027171 0.015328 254 253 255
-0.081681 0.253066 -0.034232 101 143 223
-0.102514 -0.075398 0.011524 101 148 237
-0.115279 -0.130426 -0.062932 102 150 237
0.111749 -0.160211 0.035793 253 254 252
-0.082941 -0.211789 -0.038307 100 148 235
-0.011567 -0.025272 -0.010672 255 254 254
-0.081663 0.035120 -0.010816 102 149 236
-0.047633 0.184380 0.037537 254 254 254
-0.103968 0.114573 0.013542 102 149 235
-0.082586 0.118100 -0.067821 101 148 236
-0.105144 0.183068 -0.041544 102 150 236
-0.105289 -0.226424 -0.034669 102 149 237
-0.086568 -0.044098 0.007671 102 149 237
-0.104749 -0.097735 -0.010358 102 149 235
0.024257 0.065685 0.037054 254 254 255
-0.086843 -0.053819 -0.060261 101 148 235
-0.114880 -0.182041 -0.020830 102 149 236
0.025663 0.037666 0.019913 253 253 253
-0.105673 -0.034139 -0.006797 102 149 235
-0.093550 0.272849 -0.030736 100 148 237
-0.015785 0.012115 0.026222 209 208 210
0.044803 0.147150 0.035414 254 253 255
-0.012701 0.007565 0.038252 255 255 253
0.118776 -0.185966 0.045320 254 255 255
-0.087135 0.276958 -0.032363 100 148 234
-0.026079 -0.037980 -0.021051 254 255 253
-0.082017 0.275537 0.013538 253 253 253
-0.074093 -0.213566 0.009279 255 254 254
0.104322 -0.140949 -0.017514 253 255 253
-0.105127 -0.246163 0.004379 103 150 235
-0.088264 -0.241677 0.026251 255 254 255
-0.108740 0.065802 0.000711 100 148 235
-0.055042 -0.142937 -0.002013 254 255 255
-0.095214 -0.273032 0.022468 103 150 235
-0.064527 0.246327 0.010364 254 255 255
-0.088837 -0.174191 -0.018623 101 150 237
0.003648 0.040010 0.009168 255 255 255
-0.029971 -0.082836 -0.006409 254 253 254
-0.069530 -0.187004 0.009316 255 254 253
-0.089565 -0.267301 0.004517 101 150 236
-0.099665 -0.170330 0.058026 101 149 235
-0.091429 0.145779 0.051652 146 171 208
-0.062960 -0.183391 0.036808 255 255 255
-0.078587 -0.229320 -0.003760 255 253 253
-0.112760 0.131677 -0.042000 100 144 224
-0.089120 0.216295 -0.033288 101 150 235
-0.033932 -0.068621 0.017201 254 254 253
0.111669 -0.155317 0.019622 253 253 253
0.055880 -0.054148 0.031231 255 254 254
-0.085373 -0.038799 -0.038039 99 146 230
-0.104869 0.142114 -0.013648 100 147 232
-0.065378 -0.172480 -0.022889 254 255 254
-0.110552 -0.058919 0.022496 103 149 235
-0.077158 -0.222109 -0.017133 253 254 253
0.124603 -0.173222 -0.000955 254 253 255
0.024468 0.031102 0.008314 255 254 255
-0.086508 -0.174153 -0.038349 100 149 236
-0.065288 0.226513 -0.010922 254 254 254
-0.113157 -0.081055 -0.065876 101 149 237
-0.024545 -0.034129 0.044209 254 255 254
-0.111033 0.116587 0.019428 101 148 236
-0.102775 -0.235943 0.030259 101 150 237
-0.084310 -0.150300 -0.053595 102 150 237
-0.112416 -0.131107 -0.042897 103 151 237
0.055188 -0.060762 0.008732 254 253 253
-0.031026 0.137693 0.050365 254 254 253
-0.083138 0.250063 0.010625 100 150 235
-0.101513 -0.126725 0.031559 103 141 207
-0.110523 -0.184097 0.008913 102 143 218
-0.081990 0.166965 0.053925 102 150 237
-0.084692 0.121592 0.030131 131 136 147
-0.054354 0.213181 0.060121 253 253 255
-0.089882 0.104670 0.043209 132 140 146
-0.002447 0.034164 0.026353 254 254 253
-0.104407 -0.193627 0.059479 102 147 236
-0.111683 0.048135 -0.004497 100 148 236
-0.052487 0.192570 0.034753 255 254 254
-0.087480 -0.119008 -0.003543 100 149 236
-0.018101 0.141265 -0.010031 255 255 255
0.046646 0.197709 0.047910 255 255 253
-0.088473 -0.111481 -0.020670 100 148 236
-0.050700 -0.162343 0.004871 255 254 254
-0.110851 -0.139615 -0.062290 124 135 149
-0.081178 -0.235614 0.055125 255 255 255
0.042627 -0.002824 -0.012966 255 255 255
-0.085340 0.060875 0.004113 101 148 232
0.053960 -0.044498 0.065773 255 255 254
-0.105294 -0.243477 0.011226 102 150 236
-0.031961 -0.081306 0.025873 255 254 254
-0.058911 -0.202056 0.020078 254 254 254
0.067616 -0.057938 0.057080 254 255 255
-0.057732 0.215585 0.054985 255 254 255
0.041482 -0.026392 0.016452 255 255 255
-0.034855 0.179081 0.016987 255 254 254
-0.083539 -0.248741 0.024289 255 255 254
-0.086078 0.134433 0.028975 101 149 236
0.053120 0.187067 -0.005127 255 255 254
0.037328 -0.017501 0.049990 254 253 254
-0.084313 -0.269706 0.001795 101 145 226
0.020722 0.129168 -0.018494 254 253 254
-0.102012 -0.038820 -0.038687 103 149 236
-0.059968 0.231717 0.056901 255 254 255
-0.074086 -0.267301 -0.010364 254 253 253
-0.020748 -0.057738 0.043184 254 254 255
-0.106019 0.051124 0.029548 129 133 139
-0.093582 0.066511 -0.034978 100 148 233
-0.064937 0.227271 -0.036061 254 255 254
-0.083972 -0.198718 0.026219 102 150 234
-0.081192 -0.246467 0.068879 255 253 255
0.019350 0.042249 0.051544 255 254 253
-0.000197 0.024838 0.052280 254 254 255
-0.108807 -0.136224 0.050275 100 149 234
-0.084318 0.223700 -0.073323 133 134 141
0.022034 0.083079 -0.003101 253 253 253
-0.016742 0.001058 -0.007852 254 255 254
-0.031889 0.162709 0.058562 254 255 255
-0.011956 -0.024930 0.043653 254 254 255
-0.112423 -0.165659 -0.012272 103 149 235
-0.093717 -0.279324 0.006157 101 148 235
-0.102145 -0.198894 -0.025394 103 151 236
-0.088791 0.053688 0.040596 101 150 235
-0.080734 -0.192901 -0.001726 101 149 235
-0.061556 -0.147053 0.037226 254 254 255
-0.102820 -0.105561 0.021279 102 149 235
-0.008751 -0.011763 0.021397 255 255 255
-0.015275 0.094820 0.005761 255 254 254
-0.104954 0.154591 -0.085662 102 148 232
-0.048317 0.186023 0.002961 254 253 254
-0.059490 -0.190466 -0.017242 255 254 254
-0.058647 -0.173504 0.002876 255 255 255
0.044907 -0.001198 0.000460 255 255 255
0.007324 0.048142 0.042465 253 254 255
-0.105797 0.171040 0.006469 101 149 233
-0.097211 0.171610 0.052094 101 147 235
-0.035277 -0.054716 -0.014476 254 255 254
0.040175 0.171686 -0.005797 255 255 255
-0.113123 -0.183717 -0.032508 101 147 234
-0.107925 -0.206946 -0.059456 102 150 236
-0.083650 0.110261 0.009286 110 135 179
-0.001565 0.076289 -0.007930 253 255 253
0.038235 0.013110 0.035043 253 255 255
-0.055534 0.228471 -0.042256 255 255 255
-0.106407 0.018759 0.003343 100 147 233
-0.101302 0.064867 0.020751 102 149 236
-0.026278 -0.040297 0.024849 255 255 254
-0.112826 -0.239462 -0.070190 100 149 231
0.041743 -0.026458 0.038270 254 255 253
-0.110174 0.166238 -0.062832 100 149 235
-0.084485 0.262206 -0.046728 254 253 254
0.051788 0.181815 0.008223 253 254 253
-0.091155 -0.111546 0.048173 103 148 235
-0.104919 -0.272248 -0.029729 103 149 237
-0.087105 0.103589 -0.082510 101 149 236
-0.082470 -0.096241 -0.089692 102 150 236
-0.086009 0.222766 0.035707 101 149 234
0.107912 -0.148283 0.007015 254 255 255
-0.106572 -0.049426 0.034958 102 150 237
-0.104409 -0.068503 -0.051073 102 149 237
-0.082973 0.107576 -0.025407 102 150 235
-0.113760 -0.161102 0.013291 102 149 236
-0.061298 -0.176844 0.015734 255 255 253
0.032270 0.096340 0.056075 255 253 253
-0.097834 0.196286 0.054311 101 149 237
-0.103484 0.243423 0.044591 101 148 236
0.041891 0.145135 0.006693 255 255 255
-0.046043 -0.100814 0.006862 255 255 255
-0.070331 0.232818 0.039798 255 254 255
-0.086551 0.191595 0.016701 102 149 236
-0.069390 -0.227103 -0.040788 255 255 255
-0.059697 0.218448 -0.028508 254 255 255
-0.103559 -0.222745 0.060426 101 150 237
-0.090435 0.126677 -0.066732 102 149 237
-0.087231 -0.114621 0.003296 101 148 236
-0.103428 0.035157 0.019011 135 139 147
0.073733 -0.094868 0.020578 255 254 255
-0.090357 -0.196477 -0.048709 100 149 234
0.110501 -0.147571 0.013053 254 253 255
-0.085512 -0.267488 -0.051737 103 150 234
-0.107936 0.054359 -0.082629 102 149 235
0.078068 -0.103228 0.026341 255 254 255
0.034939 0.159057 0.021497 255 255 254
-0.105099 0.104066 -0.089990 101 149 237
-0.023013 -0.053393 -0.021221 253 254 253
-0.012286 0.099236 -0.019062 255 255 254
-0.107128 -0.175708 -0.006064 100 149 237
-0.004651 0.013735 0.021327 254 254 254
-0.109627 0.097457 -0.026314 132 134 143
-0.081993 0.221595 -0.011837 102 149 235
0.046104 -0.005128 -0.008600 253 253 253
-0.108568 -0.098327 0.020068 101 149 235
0.028196 0.027139 0.025320 255 254 254
-0.106538 0.176652 -0.082792 101 149 236
0.032067 0.116271 -0.007967 253 254 255
-0.030725 -0.047160 -0.006654 252 255 252
-0.082402 -0.053330 -0.069655 100 149 236
0.020029 0.054152 0.019298 252 252 254
0.067240 -0.057615 0.013433 253 253 254
-0.087415 -0.058222 -0.021248 101 142 218
-0.045915 -0.150525 -0.021996 253 255 254
-0.109754 0.246338 -0.052759 101 149 236
0.122999 -0.181629 0.049866 255 255 253
-0.041925 -0.117751 0.006526 255 255 253
-0.092164 0.212721 0.057584 101 148 233
-0.089454 -0.064926 -0.071875 103 150 237
0.040316 0.004434 0.011447 255 255 255
-0.110390 -0.037739 -0.027613 101 149 234
-0.023381 -0.037980 0.056731 255 254 255
-0.085586 -0.170937 -0.086678 100 150 236
-0.100580 0.283875 -0.021710 135 140 148
-0.062882 0.249201 -0.043630 254 253 254
-0.107734 -0.043754 -0.069673 102 150 236
-0.099264 -0.264094 -0.064375 102 149 235
-0.046887 -0.112787 -0.007457 254 255 254
-0.068311 -0.189239 0.025853 254 253 253
0.114004 -0.180233 0.047771 253 254 253
-0.002759 0.041661 0.035686 255 255 255
-0.107895 -0.162641 -0.005726 100 148 236
0.023850 0.014202 0.013788 254 255 255
-0.100782 -0.100739 -0.049783 100 148 236
0.043768 -0.005095 0.022933 254 255 255
-0.082213 0.044129 -0.060999 100 149 236
-0.110470 -0.047133 -0.041588 102 150 237
-0.050328 0.218159 -0.025303 253 253 255
-0.039419 0.167704 0.005145 253 254 253
-0.102613 -0.268944 0.035219 100 142 220
0.021766 0.084365 -0.015977 254 255 255
-0.077163 -0.260631 0.041655 255 254 254
-0.082578 0.136613 0.041309 100 149 238
-0.083051 -0.272331 -0.025268 254 255 254
-0.105614 0.182545 0.032792 100 149 236
-0.085615 -0.244164 0.047946 102 132 184
-0.085877 -0.259095 -0.040572 182 189 198
-0.093327 0.082761 0.043050 101 149 235
-0.093751 -0.146579 0.053247 101 148 236
0.041577 0.170567 0.027098 254 255 254
-0.003297 0.004299 0.042710 254 254 254
-0.088651 0.170548 0.018783 102 148 235
0.053979 0.160130 0.060098 255 254 255
-0.104090 0.154765 -0.026591 102 149 236
-0.050530 0.216367 0.028773 253 254 254
-0.023814 0.150417 0.045763 253 253 255
0.093553 -0.134262 -0.004481 255 253 253
-0.088154 -0.077655 -0.030479 102 149 236
-0.105682 0.276074 -0.027615 100 142 218
-0.079917 -0.276156 -0.017900 253 255 254
0.053456 0.189404 0.008723 253 254 253
-0.104413 -0.156241 0.017676 103 149 234
-0.085207 0.150021 -0.047121 101 150 236
-0.085487 -0.160260 -0.027529 100 149 235
0.031844 0.001397 0.057099 255 255 255
-0.104156 -0.144973 0.043039 103 150 234
-0.085966 0.262363 -0.005814 129 137 145
-0.110122 -0.195059 0.049722 100 144 223
0.054549 0.214858 0.034459 255 255 253
-0.074831 0.228642 -0.039539 101 150 237
-0.076958 0.272498 0.026608 254 255 255
0.080775 -0.080349 0.047354 253 254 255
-0.107431 -0.271561 0.017704 101 149 235
-0.112822 -0.216075 0.016724 102 148 237
-0.055159 0.234267 -0.030542 255 254 254
0.113345 -0.160282 0.056162 254 253 254
-0.059403 0.234323 -0.025592 254 254 253
-0.080917 0.267415 0.022470 103 149 235
-0.076412 -0.198385 -0.009865 255 254 255
-0.104271 -0.096697 -0.046070 101 145 228
-0.112445 -0.189181 -0.020707 102 147 229
-0.001533 0.007183 0.039023 254 255 254
-0.022128 0.156637 -0.003806 253 255 254
-0.086356 0.136479 -0.006250 101 149 236
-0.084324 0.192797 -0.079796 102 149 235
0.037114 0.107115 0.032674 253 254 255
0.033679 0.167719 -0.006415 254 254 255
-0.083101 -0.238419 0.058055 255 255 253
-0.084726 0.112957 0.021680 100 148 235
0.016858 0.078761 0.039648 255 255 255
-0.083929 -0.180925 -0.082719 101 149 237
-0.091913 -0.099123 0.004704 101 149 235
-0.083190 -0.273545 0.014307 127 134 143
-0.094168 0.071223 -0.085832 101 150 237
-0.089925 0.078549 -0.005563 100 148 235
0.024961 0.125485 0.002414 254 253 254
0.003251 0.090039 0.037165 255 255 255
-0.028565 0.155052 0.061813 253 254 253
-0.090632 -0.180655 0.022752 101 149 233
-0.085051 0.146941 0.051240 102 148 232
0.020046 0.035632 0.066576 255 255 255
-0.083132 0.257879 0.003595 100 148 234
0.001464 0.044108 0.007165 254 253 255
0.018777 0.070898 -0.000839 253 255 254
-0.100487 -0.220541 0.024836 101 147 232
-0.043271 0.191186 0.029695 255 253 255
-0.059444 -0.174709 0.022461 255 255 254
-0.084852 -0.068095 -0.015979 100 148 235
-0.011461 -0.025505 0.032358 254 253 254
0.028241 0.143014 0.006458 255 255 255
0.028207 0.082084 0.041454 255 255 253
-0.090236 -0.116007 -0.011703 102 149 235
-0.107547 -0.155001 0.049246 102 149 236
-0.068388 -0.189363 0.022084 255 255 255
-0.064697 -0.215340 -0.036118 255 254 253
0.075437 -0.088632 0.067151 255 255 254
0.034328 0.120426 -0.001280 255 253 255
-0.006972 0.017104 0.046521 255 255 255
-0.063238 -0.187422 0.003240 253 253 254
0.123212 -0.188898 0.034274 254 253 254
0.113284 -0.155167 0.040328 254 254 252
0.035593 0.013787 0.006433 255 255 255
-0.084047 0.056225 -0.085026 102 150 236
-0.065742 -0.166947 0.063188 255 255 254
-0.107506 0.155168 -0.042697 100 149 237
-0.069115 -0.197115 -0.021774 254 254 254
-0.088719 0.016036 -0.022530 100 149 237
-0.009547 -0.007178 0.056015 254 254 255
-0.104389 0.095310 0.018448 101 149 236
-0.062374 -0.163517 -0.023113 255 255 254
0.032053 0.029310 0.056551 255 253 255
0.013608 0.093710 -0.001615 254 255 255
-0.053526 -0.182572 0.007754 254 255 255
-0.043751 -0.119271 0.058309 255 255 254
0.065727 -0.054967 0.038076 255 253 255
-0.040309 -0.153987 -0.016753 255 255 253
-0.047705 -0.148736 0.005983 255 254 253
0.023500 0.068668 0.033507 253 253 254
-0.107684 -0.166677 -0.028382 100 149 235
-0.105063 0.018495 -0.010296 103 150 236
-0.110298 0.151018 0.005349 101 150 237
-0.053420 0.196994 -0.029606 255 255 255
0.017642 0.097349 -0.013761 252 252 253
-0.018800 -0.005145 0.007882 254 255 255
-0.059934 -0.198433 -0.025706 255 255 254
-0.100360 -0.230603 0.059187 100 149 236
-0.034035 -0.068933 0.056406 254 255 254
0.040271 0.167916 0.060902 255 255 253
0.059822 -0.062739 0.032756 254 254 254
0.035607 0.014556 0.054365 254 255 255
0.042103 -0.026224 0.049936 254 255 253
-0.095238 0.047913 0.037694 99 148 237
-0.105077 -0.149113 0.017858 102 150 237
-0.102328 0.138122 0.007599 101 148 233
-0.086236 -0.113327 0.037889 100 148 235
-0.106598 0.117557 -0.038471 100 147 234
-0.075429 -0.256051 0.048531 255 255 254
-0.106410 0.024325 0.014972 100 149 237
-0.109872 -0.227113 0.018776 102 149 234
-0.102105 0.184396 -0.083843 101 149 235
-0.110718 0.097914 0.023549 102 149 234
-0.089282 0.267712 -0.018430 123 130 140
-0.013549 0.013543 0.018147 254 254 254
-0.086617 0.168076 -0.014348 101 148 233
-0.104180 0.272859 -0.029078 102 150 235
0.017844 0.086530 0.058412 255 254 254
-0.084497 -0.265359 -0.039563 100 148 234
0.071356 -0.079096 0.008911 254 253 254
-0.086069 -0.123678 -0.066289 100 148 234
0.070365 -0.063764 0.004287 255 254 254
-0.016583 -0.033474 0.041699 196 198 200
0.115182 -0.162726 0.031760 252 252 252
-0.085451 0.066227 -0.014301 101 148 236
-0.086655 0.269571 0.011115 102 150 237
-0.018851 0.136250 0.044978 253 254 253
-0.111484 0.192913 0.010448 103 149 233
-0.047795 -0.116158 -0.008191 255 254 254
-0.005795 0.035899 -0.006130 254 254 254
0.042003 0.002386 0.001669 255 253 253
0.015314 0.046938 0.027635 255 253 253
-0.088341 -0.115222 0.037489 102 150 237
-0.100848 0.092816 0.043270 99 147 233
0.081912 -0.092044 0.027903 255 255 253
-0.089567 -0.119899 -0.046257 103 149 235
0.060035 0.241814 0.023916 254 255 254
-0.085106 -0.150476 0.053201 101 150 236
-0.078576 0.251869 0.051535 255 254 255
0.054272 -0.028473 0.013569 254 255 253
-0.031739 -0.049665 0.056916 253 253 255
0.054669 0.222311 0.013962 253 255 254
0.060047 0.249673 0.018501 254 254 253
0.061213 -0.046082 0.044927 255 254 255
-0.037510 0.171727 -0.025188 253 254 254
0.025653 0.039300 0.048040 253 255 254
0.058431 0.240085 0.023074 253 254 254
-0.108957 -0.238080 -0.062658 100 150 235
-0.063839 0.244499 0.037504 255 254 255
-0.104331 0.076683 0.034697 100 149 234
-0.085029 -0.127522 -0.013883 103 149 235
-0.104908 0.057765 -0.020808 101 148 234
0.098207 -0.139660 0.063849 254 254 254
0.046636 0.196458 0.015590 254 253 253
-0.076577 -0.218489 0.000035 254 253 254
-0.083293 0.130027 -0.084529 99 147 233
-0.075578 -0.194403 0.049452 253 255 254
-0.111319 -0.071123 -0.016665 101 149 235
-0.088585 -0.070528 -0.058711 102 148 232
-0.084055 0.193524 -0.062869 101 144 224
-0.094339 -0.028994 -0.010160 102 150 236
-0.084486 -0.178262 0.000491 129 130 135
-0.102696 -0.064177 -0.010914 101 146 229
-0.099382 -0.273939 0.030263 100 150 236
-0.087293 0.170248 -0.085077 100 149 237
0.003464 0.028854 -0.004282 255 254 255
-0.084470 -0.210069 -0.061291 101 150 237
-0.054246 0.206433 -0.023653 253 255 255
-0.055732 -0.135904 -0.020535 254 254 253
-0.101323 0.268052 -0.048793 102 149 236
-0.108378 -0.110271 0.011280 102 149 236
-0.077116 -0.262482 0.040454 255 255 254
0.040743 0.183856 0.012571 255 254 253
-0.074826 0.257759 -0.039420 253 255 255
0.044492 0.139956 0.048465 255 255 255
-0.000446 0.074759 0.036875 255 254 253
-0.101104 0.193564 -0.079033 100 148 236
0.054309 0.235999 -0.004212 254 255 253
-0.102855 -0.051913 -0.078216 102 149 236
-0.102436 0.036029 -0.075214 101 150 237
0.091113 -0.130144 0.050521 253 254 254
0.060817 0.210040 0.022603 255 254 254
-0.086199 -0.156226 -0.005687 101 148 235
0.035838 -0.008302 0.019991 254 254 254
0.066198 0.214360 0.061732 254 254 254
-0.113239 0.182970 -0.015113 101 149 236
0.090258 -0.123672 -0.003397 255 253 253
0.044652 0.156428 0.063911 255 255 254
-0.067529 0.228840 0.004767 255 254 253
-0.101998 -0.028621 0.013460 102 150 236
-0.090392 -0.034689 0.021961 102 149 236
-0.107898 -0.141080 -0.084073 100 145 227
-0.087176 -0.080126 0.027683 102 149 233
-0.011736 0.005587 0.005829 253 253 255
-0.091047 0.047347 -0.000136 100 149 237
0.002785 0.058562 0.018600 254 255 254
-0.105791 -0.280809 -0.008645 101 148 232
0.042228 0.149825 -0.002263 255 255 255
0.017374 0.062595 0.054953 255 255 255
0.024642 0.070291 0.023420 255 254 253
0.026192 0.036772 0.031551 255 254 254
-0.108576 -0.277642 -0.005094 101 148 234
-0.111400 0.086696 -0.056441 101 145 225
-0.082114 -0.241529 -0.009854 100 149 237
-0.035062 -0.068102 -0.010066 253 253 253
-0.085590 -0.209672 -0.043624 117 133 153
-0.019802 0.143974 -0.003918 253 253 254
-0.030504 -0.088808 0.022948 255 255 254
-0.083119 0.118133 0.037800 101 149 237
0.064758 -0.074956 0.029451 254 255 255
0.039789 -0.011714 0.015107 255 255 255
-0.103744 0.097560 0.001453 101 148 234
-0.102067 0.185015 0.014227 100 149 235
-0.105629 -0.043012 -0.027700 101 149 236
0.039612 0.125028 0.033140 255 254 255
-0.012392 0.120741 0.025535 255 254 255
-0.035124 -0.070346 0.006877 254 254 254
-0.049128 0.187391 0.026593 253 254 254
0.049911 0.174255 0.013435 254 254 253
-0.016862 -0.028037 0.058085 255 255 254
-0.050111 -0.150996 0.025798 254 255 253
-0.085813 0.036424 -0.055946 123 130 141
-0.033314 0.160607 -0.038074 255 255 254
0.006806 0.071441 0.043798 254 255 254
-0.089375 -0.079860 0.027616 102 149 237
0.005385 0.052314 0.013731 253 253 253
-0.031338 -0.079572 0.014451 254 255 255
-0.102754 -0.131404 -0.087630 101 148 234
0.050047 -0.026161 0.025356 253 254 254
-0.067406 -0.185414 0.044250 254 254 254
-0.017883 0.142889 -0.016737 254 254 254
-0.082187 0.072472 -0.017350 101 147 234
0.037726 0.168711 0.051092 254 253 255
0.090725 -0.108704 0.045297 254 254 253
-0.074421 0.248585 -0.000100 253 255 252
0.097443 -0.139036 -0.006510 255 254 254
-0.113917 0.154410 -0.035710 100 147 230
-0.102780 -0.172601 -0.003693 101 150 236
0.005859 0.029662 0.023558 255 254 255
-0.098364 0.267444 0.032646 100 150 237
-0.109163 -0.159132 -0.085471 102 148 234
-0.101724 -0.167919 -0.056254 102 148 234
0.034235 0.160679 0.005188 255 254 254
-0.111095 0.164766 -0.023130 100 148 237
-0.113824 0.091167 -0.051328 103 150 235
0.020153 0.029181 0.020452 255 254 255
-0.069847 -0.184624 -0.008858 255 254 254
-0.096506 0.146558 -0.083810 103 150 235
-0.018687 0.135963 0.006329 254 254 255
-0.040864 -0.125081 -0.026268 255 255 253
0.053765 -0.031447 0.057133 254 254 253
-0.105533 0.097735 0.031221 102 150 237
-0.084916 -0.225612 -0.072280 131 139 149
-0.104770 0.126600 0.048626 101 149 234
-0.070025 0.242481 -0.023621 254 253 254
-0.068723 -0.167145 0.051481 253 253 255
-0.082283 -0.139439 0.034636 101 148 236
-0.085458 0.124550 0.042117 101 148 236
-0.085734 0.188843 0.007684 100 148 236
-0.087611 0.063846 -0.007823 100 148 237
-0.085989 -0.089703 -0.074913 100 148 236
-0.101327 0.250083 0.053786 101 146 229
-0.095174 0.178684 0.056403 102 147 227
0.107309 -0.176997 0.024680 254 252 252
0.030869 0.086953 0.051262 254 254 254
-0.111270 -0.078972 -0.073528 100 148 237
-0.113086 -0.169237 -0.078072 102 148 234
-0.003955 0.079562 0.057624 254 255 255
0.020978 0.063459 -0.001632 255 255 255
-0.088875 0.094167 -0.008520 132 137 144
-0.046264 -0.108132 0.024997 255 254 254
0.042241 0.178576 0.023652 253 254 254
-0.105685 0.108428 -0.064490 101 148 236
-0.088855 -0.158761 0.047867 102 149 236
-0.086454 -0.186015 0.010136 100 148 236
-0.031077 0.155320 -0.019990 254 254 254
0.036533 0.151311 0.035557 254 253 253
-0.000374 0.007667 -0.010360 254 254 254
-0.104240 -0.198600 0.037594 133 140 148
-0.051782 0.212661 0.050848 254 253 254
-0.082773 -0.174433 -0.067828 102 148 236
0.027798 0.095894 0.004933 254 252 255
-0.112957 -0.144558 -0.087880 101 149 233
-0.063009 0.216102 0.034311 254 254 254
0.044460 0.185125 0.039340 253 254 253
-0.012560 -0.015221 -0.015553 253 254 254
-0.004176 0.024987 0.026102 253 254 253
0.005987 0.082537 -0.016101 255 254 255
-0.076317 -0.266630 -0.021064 254 254 254
-0.059250 0.243914 -0.036434 254 255 253
-0.038432 -0.071542 -0.017138 255 254 254
-0.085593 0.119307 0.040045 101 149 236
-0.104336 0.179036 -0.011833 100 149 236
-0.064186 0.247625 -0.033104 254 253 255
-0.068783 0.256271 0.055631 255 253 255
-0.107880 -0.216490 0.001124 100 148 236
-0.006162 0.113096 0.006429 255 254 255
-0.084612 -0.240373 0.057020 255 255 254
-0.086325 -0.059940 -0.027053 102 150 237
0.022299 0.042900 0.066078 253 253 254
-0.079362 -0.267358 -0.034611 254 254 254
-0.103822 -0.031230 0.009130 102 149 234
-0.093555 0.226416 -0.075670 103 149 235
-0.079819 0.173949 -0.037140 100 147 233
-0.089312 -0.148705 0.034428 101 148 235
-0.072104 -0.245888 0.032323 253 253 254
-0.111820 0.134316 -0.072086 101 143 221
-0.107793 0.243897 -0.027883 103 149 236
-0.069452 -0.237724 -0.028518 254 255 255
-0.087797 -0.218431 -0.010580 101 149 235
-0.002108 0.032173 0.052797 254 254 255
0.027842 0.082747 0.030050 254 254 255
-0.083926 0.085571 -0.083268 101 149 234
-0.034152 -0.061408 -0.014361 254 255 255
-0.103063 -0.218806 -0.065495 102 150 234
-0.046656 -0.130660 0.042976 207 205 202
-0.083270 0.125344 -0.036203 101 150 236
0.101856 -0.152826 0.063620 254 255 254
-0.110477 -0.110370 -0.064431 100 149 237
-0.108486 -0.219251 0.047066 101 149 236
-0.049639 -0.153604 0.015333 255 254 254
-0.066441 0.221128 0.007350 255 255 253
-0.041514 0.162250 0.052930 255 254 255
0.023775 0.041921 0.000497 254 255 255
-0.111717 0.163383 0.009124 101 147 233
-0.105985 0.212233 0.055074 101 150 236
-0.097597 0.072413 0.044124 101 148 234
-0.084007 0.133157 0.047303 102 149 236
-0.084402 0.072496 0.041559 100 148 236
-0.075988 0.270329 0.021175 255 254 254
-0.102189 0.276393 -0.037895 101 149 236
-0.078896 0.254939 0.011679 255 254 253
