ply
format ascii 1.0
element vertex 1175
property float x
property float y
property float z
property uchar red
property uchar green
property uchar blue
end_header
-0.102697 -0.141547 0.040761 102 150 233
-0.094019 0.109627 -0.080100 129 133 137
0.010544 0.061090 0.002430 255 254 255
-0.028867 -0.117487 0.016477 253 254 254
-0.099982 -0.063830 -0.040263 101 145 221
-0.100533 0.145280 -0.046254 100 134 194
0.013271 0.049263 -0.014862 254 254 253
-0.072934 0.274469 0.004878 124 128 135
-0.077343 0.231139 0.015675 100 150 235
-0.076787 0.165755 0.042384 100 146 228
-0.074250 0.222140 -0.014580 121 126 130
-0.079771 0.065067 -0.078836 101 138 204
-0.093224 -0.265201 -0.021300 102 148 228
-0.102914 -0.088810 0.027813 104 149 231
-0.062984 -0.193976 -0.018522 253 253 253
-0.103458 0.170093 -0.053527 101 149 232
0.050192 -0.081539 0.031605 253 254 252
-0.080535 0.112754 -0.009577 101 148 234
0.036365 0.144038 0.060687 253 253 253
-0.080569 0.139553 -0.028311 102 146 223
0.008015 0.054471 0.057500 255 254 253
-0.107430 -0.216204 -0.055248 102 143 216
-0.070895 0.260456 0.027262 109 134 177
-0.074838 0.106020 0.049595 102 149 232
-0.096997 0.063457 0.013576 103 139 204
-0.045285 -0.178475 -0.006209 252 253 254
0.029870 0.088930 -0.010620 253 255 253
-0.087337 -0.106054 0.051747 101 147 230
0.036268 0.100830 0.014821 254 254 253
0.049837 0.232361 0.015674 255 253 253
-0.099528 -0.091256 -0.020395 102 149 234
-0.080043 -0.069683 -0.001136 102 147 233
-0.012826 -0.029978 -0.019410 255 255 254
0.051857 -0.051935 0.027668 253 253 254
-0.028822 -0.065564 0.016173 253 254 254
-0.079096 -0.187258 0.003745 130 130 135
-0.101844 0.211148 0.024855 101 143 216
-0.106598 -0.195492 -0.001738 101 149 233
0.000486 0.082535 0.039151 255 254 253
-0.101721 -0.155107 -0.062027 102 146 223
-0.093564 -0.239112 0.023569 103 149 233
-0.088998 -0.042007 -0.040964 102 147 234
0.043345 0.130396 0.046932 252 252 252
0.002233 -0.022289 0.038062 253 252 252
-0.076395 0.248129 -0.040456 132 132 138
-0.100401 -0.195046 -0.046903 100 146 228
-0.077864 -0.168051 0.017616 102 148 233
-0.098365 -0.210048 -0.075138 101 149 234
-0.060788 -0.213153 -0.038819 253 255 255
-0.103499 -0.170984 -0.083506 123 128 135
-0.044633 -0.135501 0.059354 253 254 254
-0.086686 0.025424 -0.009231 103 149 234
-0.070612 -0.181558 0.060264 178 182 189
0.044868 0.146356 0.058774 253 253 254
-0.078856 0.034286 -0.048490 143 149 155
-0.069684 -0.256453 -0.030473 253 253 253
-0.081257 0.110887 -0.035342 100 146 233
0.054827 0.197304 0.012834 255 253 254
-0.105440 0.125265 -0.004054 100 149 232
-0.101279 -0.056620 -0.014555 101 143 222
-0.078835 -0.078519 -0.080838 103 142 217
-0.063193 -0.192421 0.024686 252 253 253
-0.013657 0.093879 0.033101 253 252 252
0.020045 0.053339 0.059663 254 254 254
0.027452 0.096080 0.058144 254 255 254
-0.029102 -0.079932 0.025564 254 253 253
-0.096479 0.078991 0.032390 102 149 234
0.047083 -0.050375 0.004851 253 252 254
-0.102371 -0.077548 -0.026046 102 149 234
-0.101353 0.037084 0.032848 101 148 231
0.065756 -0.109654 0.053534 252 253 253
-0.092666 0.090854 0.046716 131 134 140
-0.096802 -0.213201 -0.002366 101 147 233
-0.079118 0.083975 -0.077418 101 148 232
-0.013557 0.130598 0.059513 254 253 254
0.026456 0.070478 -0.011336 253 253 253
-0.065179 0.263485 -0.046644 255 255 254
-0.102426 0.239191 -0.073522 103 149 234
-0.082646 0.131872 -0.053719 129 134 138
0.002630 0.020536 0.051998 253 254 252
0.043033 0.192883 0.037636 253 254 253
-0.076211 0.190239 -0.000725 101 148 233
-0.103077 -0.182406 -0.029462 102 139 206
0.031635 -0.017465 -0.002302 252 253 254
-0.035641 -0.118410 0.061213 254 254 253
-0.105656 -0.234175 0.024096 101 148 228
0.021980 0.065778 -0.004322 255 253 253
-0.085175 -0.129692 0.053554 101 145 226
-0.094335 -0.000087 0.000005 157 165 173
-0.010268 -0.015110 0.026329 253 254 254
-0.077331 -0.054136 -0.029080 100 149 234
0.040980 -0.062370 -0.000668 254 253 254
0.033334 0.002558 0.010580 255 254 253
-0.096904 0.218917 0.030576 100 149 234
0.062435 -0.107724 -0.008121 252 253 252
0.048573 0.212055 0.045845 253 254 253
-0.076248 0.029024 0.030886 100 147 229
-0.106000 0.095356 -0.075376 104 151 234
0.006212 0.012714 0.049804 253 253 252
-0.010432 -0.011758 0.017963 253 253 253
-0.063085 -0.180445 0.002756 253 252 252
-0.101804 0.230657 -0.011836 124 124 130
-0.080182 0.045464 -0.063897 126 125 130
-0.099084 -0.258122 -0.025187 102 147 232
-0.100926 -0.074620 -0.078309 103 151 234
-0.000227 0.017796 0.008096 253 253 254
0.059684 -0.075630 0.016801 255 254 254
-0.077041 -0.213922 0.009084 177 182 183
-0.078468 0.177774 -0.016886 101 137 202
-0.068783 -0.260485 0.004196 251 252 252
0.009797 0.061673 -0.008991 254 254 253
-0.099094 -0.067753 0.036506 102 148 234
0.055603 -0.070822 -0.003515 254 253 253
-0.071501 -0.061847 -0.005372 135 135 140
-0.010692 0.097992 -0.016789 253 252 252
-0.105251 0.079913 -0.084931 103 148 229
-0.100275 -0.177869 0.034873 128 131 137
-0.007032 0.102344 -0.028417 254 254 253
0.052019 -0.078939 0.066225 254 253 253
-0.030264 -0.072942 0.021014 253 255 252
-0.028668 -0.111832 0.013490 254 253 253
-0.017620 -0.056925 -0.022670 252 253 254
-0.081888 -0.133892 -0.076439 102 143 221
-0.070745 0.243860 -0.057275 255 254 253
-0.051095 0.202861 0.007027 253 252 254
0.005231 0.022356 0.053074 253 254 253
-0.076622 0.133525 0.019471 131 138 148
-0.104728 0.168949 -0.072217 102 148 231
-0.079729 -0.254057 0.020480 254 253 254
-0.047201 0.218125 0.027720 254 254 254
0.046721 0.199130 0.035450 252 253 253
-0.014329 0.126500 -0.030868 253 254 254
-0.076796 0.253672 0.018937 254 255 255
-0.001535 0.070440 0.057378 255 253 252
-0.091473 0.210491 0.061731 119 157 220
-0.050809 0.199291 0.047634 254 254 252
-0.106578 -0.233025 -0.051476 103 143 213
-0.094687 -0.262000 0.023423 103 147 232
-0.100360 0.023314 0.010145 100 148 234
0.017011 0.018906 0.043287 253 253 254
-0.095386 -0.082018 0.050210 136 139 144
-0.058071 -0.217763 0.046011 254 254 253
-0.079089 0.223307 -0.053115 101 145 227
0.026381 0.033367 0.034850 254 253 254
-0.073486 0.262582 -0.020581 251 251 253
0.010801 0.049047 -0.004641 253 253 253
0.024758 -0.007622 0.040901 255 253 254
-0.019778 -0.059664 -0.023953 253 253 254
-0.107570 0.098815 -0.026166 122 127 131
-0.031600 0.148697 0.029775 252 254 254
0.064196 -0.129523 -0.021816 254 251 252
0.021051 0.024813 0.059872 254 254 253
-0.057244 -0.164510 0.058259 255 254 252
-0.091002 0.164805 0.054893 102 141 212
-0.045170 0.183878 0.049558 252 252 254
-0.081009 0.049057 -0.034574 131 134 140
-0.032097 -0.127271 -0.019277 253 252 251
-0.094330 -0.031739 0.016554 101 148 233
-0.077077 0.108561 0.008573 101 148 233
-0.106270 -0.091772 -0.037895 100 146 225
-0.079855 0.212288 -0.050401 102 148 234
-0.074762 -0.216092 -0.036363 254 255 254
-0.081111 0.174677 -0.010250 102 149 235
-0.098208 -0.183922 0.053493 100 150 234
0.036237 0.178655 0.003062 252 251 252
0.047213 0.198064 0.050122 254 254 255
-0.080154 0.093677 0.024321 100 150 234
0.022851 0.082149 0.037085 254 255 254
-0.082005 -0.194699 -0.049332 127 133 138
-0.007991 -0.006339 0.001190 253 255 252
-0.082321 -0.137039 -0.052804 102 149 235
-0.076546 -0.188872 0.057000 103 148 231
0.002325 0.090140 0.055565 253 253 254
-0.088814 -0.258331 -0.050769 104 144 216
-0.074926 -0.119093 0.003220 102 150 235
-0.095512 0.244268 0.054873 100 146 233
-0.033728 -0.098017 0.018620 253 253 253
0.022341 0.082908 0.055196 255 253 254
-0.105137 0.182440 0.021898 103 141 211
-0.100505 -0.186939 0.038520 103 149 230
-0.062796 -0.185334 0.051587 253 254 252
-0.072682 0.183003 -0.070587 102 149 231
-0.017840 0.111301 0.021441 252 252 252
-0.001140 0.006533 0.047262 255 253 255
-0.101474 0.208270 -0.080253 104 150 232
-0.107038 -0.228663 -0.065294 118 113 117
-0.095975 0.072921 0.045418 101 148 233
-0.105302 0.069607 -0.078381 101 149 234
-0.010782 0.135051 -0.013705 254 255 254
-0.081551 0.152249 -0.022723 100 148 234
-0.078993 0.191404 -0.080830 103 148 234
-0.064728 -0.246967 0.000921 254 255 254
-0.098238 0.135363 0.051959 102 148 231
-0.012677 -0.017938 0.007917 253 254 254
-0.074329 0.157985 0.057969 103 149 233
-0.086871 0.021997 0.003439 100 148 234
0.040499 -0.066663 0.015670 251 252 253
-0.064581 0.232751 -0.029408 253 254 254
-0.075324 0.258014 -0.009935 253 254 254
0.040240 -0.022474 0.020625 254 253 252
-0.041228 -0.116025 0.015182 252 253 252
-0.096746 -0.109380 0.051955 100 143 213
-0.039828 -0.150266 0.035984 255 252 252
0.054903 -0.090710 0.018961 254 253 253
0.063362 -0.086205 0.038235 253 253 252
-0.079292 -0.158433 -0.019960 132 138 146
0.039194 0.121184 -0.004009 253 252 253
-0.004275 -0.016697 0.059067 253 254 254
-0.038383 -0.112367 0.022195 254 255 253
-0.102041 -0.066875 -0.024917 100 146 225
-0.097882 0.252158 0.044842 101 147 233
-0.099043 -0.180920 -0.061117 102 149 233
-0.101151 -0.077337 -0.054073 103 149 233
-0.050142 -0.141878 0.014334 253 254 254
-0.101954 0.157128 -0.003337 100 148 234
-0.006330 0.085844 -0.014743 254 253 253
-0.071080 -0.235153 0.059621 255 255 255
0.045107 0.133780 0.060332 254 254 255
0.004477 0.017981 0.056831 254 252 253
0.002853 0.043453 0.031718 254 253 252
0.024100 0.041727 0.024612 252 252 254
-0.039594 0.174889 -0.038876 254 254 255
-0.105137 0.192544 0.006382 100 144 220
0.051887 -0.059642 0.011120 254 254 254
-0.094822 0.115789 -0.028357 135 133 139
-0.100941 -0.242100 -0.042400 103 149 233
-0.021999 -0.049395 -0.001532 254 254 253
-0.083757 -0.190576 0.038527 181 182 185
-0.047450 0.211108 0.044177 253 253 253
-0.079988 -0.127128 -0.061108 103 141 206
-0.074510 0.201382 0.041587 102 145 222
-0.074248 0.204965 0.024940 101 148 234
0.047921 0.210136 -0.003117 253 251 253
-0.081647 -0.244053 -0.001278 102 148 230
-0.098471 -0.054349 -0.038430 104 149 234
0.038385 0.126931 -0.010021 253 252 254
-0.032587 0.156975 0.017310 255 254 254
-0.093595 -0.232341 -0.074436 103 130 178
0.028764 0.070556 0.032445 253 254 255
-0.072396 0.241411 0.015600 102 146 231
0.018342 0.017283 0.049462 254 254 253
-0.046910 0.208331 -0.050590 252 252 254
-0.099138 -0.165903 -0.017148 101 149 233
0.034601 -0.002218 0.046270 255 252 253
-0.000840 0.104388 0.004755 255 253 255
-0.067675 0.266265 -0.030089 254 252 253
-0.071284 0.137352 0.019355 102 148 234
-0.047241 0.193993 0.005068 253 253 252
-0.083028 -0.091447 -0.083214 125 117 121
-0.080165 -0.164185 0.004101 102 146 225
0.030066 0.128726 0.008313 252 252 253
-0.098145 0.219515 0.018255 102 150 232
-0.044660 0.189630 0.057720 254 254 252
-0.001038 -0.022828 -0.018536 254 253 254
0.008810 0.045879 0.056606 253 255 253
-0.019918 0.154655 0.009673 252 252 255
0.033997 0.130499 -0.009831 253 254 255
-0.087865 0.133058 0.044836 100 139 211
-0.067532 0.230368 -0.003520 255 252 252
-0.017141 -0.024769 0.057553 254 255 254
0.041948 0.116186 0.042619 253 254 253
-0.077721 -0.182557 -0.078034 101 145 225
-0.098713 -0.147755 -0.070282 100 147 232
-0.054705 0.234213 0.055464 254 252 252
-0.080250 -0.234215 0.048947 101 148 234
0.029255 -0.022680 0.036075 253 253 254
-0.054673 0.202234 0.058665 254 253 253
-0.077502 0.240444 0.033664 103 150 233
-0.028419 -0.106375 -0.027184 254 253 254
-0.104527 0.225775 -0.066672 128 126 131
-0.094515 -0.235219 -0.008336 100 136 201
0.059379 -0.106142 0.027391 252 252 254
-0.084188 -0.159897 -0.063516 101 149 230
-0.014823 -0.022716 0.049531 253 255 253
-0.077272 -0.042847 -0.017311 101 146 229
-0.080254 0.035255 0.024643 100 147 228
-0.083661 -0.044507 -0.060095 103 149 233
-0.060166 -0.218588 0.052756 253 253 254
-0.046712 -0.169662 -0.013378 252 253 252
0.041807 0.118312 0.039241 252 252 254
0.030902 0.001858 0.017009 252 252 253
-0.068934 -0.246056 -0.043518 252 253 254
-0.091229 0.160516 0.057177 102 143 212
-0.086096 -0.186147 -0.078309 103 142 213
-0.103541 0.263233 -0.039239 103 143 216
-0.067611 -0.253648 -0.025992 252 253 253
-0.080874 -0.224128 -0.027950 100 150 233
-0.012682 0.108696 0.060921 255 253 255
0.018103 0.009799 0.061574 252 254 252
-0.102659 0.152645 0.032667 100 150 234
0.022352 0.058634 -0.012176 253 253 252
-0.080528 -0.122287 -0.032690 101 148 231
0.008226 0.031049 -0.013649 253 253 252
-0.082668 -0.207573 0.008132 100 144 222
-0.074847 -0.131854 -0.074485 128 131 133
-0.101037 0.084889 -0.003395 103 148 228
0.081187 -0.141155 0.034164 253 252 254
-0.061408 -0.185978 0.007786 252 252 252
-0.070348 -0.202608 -0.027153 253 253 254
-0.007917 0.094135 0.037947 253 254 254
-0.082369 -0.178931 -0.007273 102 139 210
-0.008049 0.084762 0.034408 252 253 253
-0.070820 -0.061323 0.000721 156 165 172
-0.071604 0.248097 0.034736 254 252 253
0.058886 -0.063287 0.021776 255 255 254
-0.105121 0.153689 -0.054694 100 142 219
-0.027897 -0.106606 0.004285 253 253 254
0.028727 -0.013493 0.054908 253 254 254
-0.098636 -0.154184 0.000665 103 148 227
-0.017678 0.152448 -0.032168 255 253 254
-0.079519 0.180457 0.058766 101 148 233
0.071298 -0.113117 -0.001609 252 254 251
-0.017580 -0.053687 0.059163 255 254 253
-0.102029 -0.105114 -0.084601 101 149 234
-0.006815 -0.038797 0.041109 254 254 253
-0.096721 0.043825 -0.067301 133 139 143
-0.091428 0.203924 0.025842 101 143 218
0.032118 0.081857 0.040938 255 254 254
-0.050279 -0.185284 0.022914 253 254 253
-0.102281 0.111341 -0.062707 103 150 234
-0.098608 -0.228174 -0.045841 103 144 218
-0.100093 -0.221306 0.043172 103 148 231
-0.092150 -0.036330 -0.027605 103 149 234
-0.023081 -0.099348 -0.010878 252 252 253
-0.074914 -0.244897 0.039751 101 141 214
-0.092645 0.155967 0.055986 137 139 144
-0.075480 -0.030392 -0.006357 102 136 200
-0.017885 -0.072713 -0.008934 253 252 253
-0.102347 -0.166973 -0.068109 103 150 234
-0.025252 -0.108682 -0.027399 252 254 254
0.082975 -0.141448 0.046371 255 252 255
-0.074886 -0.046444 -0.026629 127 131 135
-0.010608 0.136137 -0.011428 251 251 252
-0.094870 -0.089838 0.047867 102 148 232
-0.018605 -0.022517 0.043484 253 253 253
-0.074834 0.157773 0.045236 102 148 235
-0.102222 0.208606 0.013892 103 150 234
-0.097110 -0.091153 -0.083212 123 141 165
0.003869 -0.013365 0.019464 254 254 253
0.043345 -0.066044 0.037557 253 253 252
-0.079632 -0.263389 0.008496 253 252 252
0.041291 0.126806 0.005392 254 254 254
-0.102357 -0.056807 -0.062389 104 151 233
0.013736 0.081811 0.048972 254 254 254
-0.104480 0.050723 -0.043585 102 146 226
-0.077391 0.104046 -0.066647 103 149 234
0.003846 0.001908 -0.009231 255 254 253
-0.006949 -0.004387 0.057191 252 254 252
-0.079090 -0.202044 0.056132 101 143 215
-0.044055 0.209116 0.052402 252 252 253
-0.031577 0.180776 0.038448 253 253 253
0.011618 0.058675 0.025252 254 254 252
0.005762 0.038513 0.039680 254 253 253
-0.100026 -0.105770 -0.018229 101 148 234
-0.079458 0.087113 0.032805 101 149 235
-0.104759 0.133315 -0.077097 123 125 131
-0.016879 -0.047468 0.058936 251 252 252
-0.082188 -0.159074 0.015844 100 147 227
0.018256 0.042382 -0.014754 255 254 252
-0.079580 0.257020 0.045517 103 133 191
-0.027390 -0.106956 0.010990 253 253 252
-0.093135 -0.203292 -0.078207 102 149 234
-0.105524 0.102971 -0.062228 119 118 121
0.015649 0.031450 0.008222 254 254 254
-0.079200 -0.137776 -0.064361 101 148 229
-0.063111 -0.232912 -0.016986 252 251 253
0.024807 0.101979 -0.000548 253 254 253
-0.093109 0.250616 -0.068688 102 146 229
-0.081673 -0.275426 -0.013631 122 130 139
-0.051067 0.212196 -0.051736 252 253 251
0.010969 0.029738 -0.006602 254 255 255
0.001312 0.102237 0.011227 253 254 254
-0.102427 -0.065574 -0.043888 100 148 233
-0.103217 0.067606 -0.081601 105 152 235
-0.078429 0.139662 -0.076765 127 129 135
-0.077980 0.170805 0.001860 101 150 235
-0.075336 0.224083 0.050747 104 138 196
-0.078542 -0.084722 -0.042746 100 141 216
-0.029778 -0.121237 0.041540 255 254 255
-0.096785 0.059656 0.032809 100 147 231
-0.097473 0.146010 -0.049177 101 150 234
-0.056332 -0.211406 0.018072 254 255 254
-0.073019 0.238464 0.032084 100 147 234
-0.098762 0.130220 -0.009118 102 149 234
-0.095490 0.234318 0.042341 103 147 232
-0.062090 -0.246472 0.053913 255 255 252
-0.010326 -0.013328 0.005051 255 254 255
-0.094182 0.202741 -0.077088 100 143 222
-0.017608 -0.070343 0.026106 254 253 253
-0.089648 -0.109866 0.037100 120 119 122
-0.014236 0.143812 -0.017504 252 252 253
-0.099045 -0.198620 0.020251 102 150 234
-0.007255 -0.005909 0.050399 254 252 253
-0.093311 -0.185461 0.061885 102 141 213
-0.049421 -0.189722 0.014598 255 254 253
0.050103 -0.035863 0.033199 251 253 251
-0.073611 0.207806 -0.036224 130 133 136
-0.001521 0.028990 0.030878 253 252 251
-0.056632 -0.164470 0.039330 254 254 253
-0.044547 0.187378 0.040125 253 253 254
-0.023930 -0.091684 0.059382 253 253 254
0.037685 -0.016233 0.016851 254 255 253
-0.006016 0.097204 -0.023585 254 253 253
-0.022261 0.129394 -0.005162 254 253 252
-0.097338 -0.098605 -0.023711 102 146 224
0.030435 0.076186 0.006535 254 254 252
-0.081372 0.070339 -0.084915 123 129 139
-0.057889 -0.221721 0.032213 255 255 255
-0.095493 0.231748 -0.025123 100 141 212
0.090568 -0.161134 0.048465 254 254 253
-0.078545 0.255375 -0.008572 103 137 201
-0.031686 -0.126131 0.045171 253 254 254
-0.079579 -0.237005 0.046688 102 149 232
-0.076372 0.153402 0.042757 101 140 212
-0.104579 -0.083037 -0.004679 101 147 229
-0.090987 0.163567 -0.082399 100 148 232
-0.095789 -0.086738 0.048834 103 144 218
-0.079275 -0.245565 -0.057915 101 147 231
-0.082479 -0.231034 -0.011795 102 149 232
-0.047311 -0.177818 -0.034849 252 251 253
-0.104077 -0.157110 -0.051028 101 146 227
-0.078304 0.033823 -0.050364 103 149 228
-0.071846 0.220768 -0.076981 123 128 136
0.011890 -0.003892 -0.003775 252 252 253
-0.078629 0.197284 -0.004671 100 143 221
0.031706 0.000211 0.042033 246 245 248
0.083121 -0.170119 0.024269 251 253 251
-0.098212 -0.132366 -0.022074 102 148 234
-0.076377 0.163225 -0.030619 132 136 142
-0.079154 0.084535 -0.087026 104 144 216
-0.081917 0.170980 -0.053586 100 149 233
-0.029496 0.186250 0.018232 253 253 254
-0.060251 0.224551 -0.052122 252 251 253
-0.065819 -0.242983 -0.027041 252 252 253
-0.090638 -0.034335 -0.032634 126 129 134
0.009826 0.026175 0.007383 252 253 252
-0.101690 0.249155 0.014292 101 149 234
-0.100455 0.198750 -0.073525 102 149 229
-0.014128 0.136955 0.013219 252 254 254
0.077393 -0.124502 0.053780 251 251 253
-0.075295 -0.237910 0.047481 103 146 226
-0.075177 0.248302 0.040504 101 149 234
-0.105899 0.061101 -0.078421 104 148 227
-0.076440 -0.087028 0.034860 101 143 219
0.047784 0.162887 -0.006884 251 252 252
0.019498 0.063380 0.002837 252 252 253
0.046541 0.222201 0.002062 255 253 252
-0.066667 0.261462 0.062414 254 255 254
-0.101619 0.112632 0.040146 103 150 234
-0.032263 0.159518 -0.022144 252 254 253
-0.104250 -0.214757 -0.070621 106 141 202
-0.099174 0.209370 0.023227 101 148 234
0.007112 0.049848 0.032196 254 253 253
0.040783 0.122038 0.010486 254 253 254
-0.083106 0.056503 -0.030428 103 146 231
0.043318 0.200541 0.012637 253 252 254
-0.102214 0.031289 -0.048817 102 150 234
-0.098330 -0.203792 -0.065679 101 146 225
-0.007893 0.090959 -0.027984 254 254 253
-0.025737 -0.056148 0.009101 253 252 254
-0.077324 0.175732 -0.065392 128 129 132
0.024441 -0.011669 -0.009942 254 254 253
0.001334 0.036855 0.037238 254 255 252
-0.065920 0.269296 0.013077 254 255 252
-0.078530 -0.216234 0.037944 101 147 232
0.040162 -0.024851 -0.007890 255 254 255
-0.102058 0.178801 0.032687 101 143 221
-0.013650 0.139360 0.047036 253 252 253
-0.104157 0.040309 -0.056421 102 149 234
-0.103805 0.201478 -0.074052 103 148 233
0.047153 -0.075711 0.003583 254 253 254
0.071678 -0.146959 -0.010180 251 253 253
-0.077007 0.141143 0.021191 100 138 207
-0.078419 -0.254923 0.034968 101 140 213
-0.102931 -0.184614 -0.027134 103 147 227
-0.035971 -0.141524 0.002791 254 253 254
-0.077495 -0.098894 0.048851 103 149 234
0.086449 -0.147748 0.046201 251 253 251
-0.073928 0.154413 0.039365 122 127 132
0.029262 -0.001433 0.041403 252 252 253
0.032888 -0.002235 0.030062 252 252 252
-0.104283 0.167675 0.023029 100 147 232
-0.077519 -0.091375 0.042383 101 133 195
-0.100487 0.024010 0.017910 101 147 234
-0.077672 0.033854 -0.008435 102 143 218
-0.077937 0.180803 -0.054644 130 138 147
0.014580 0.056793 0.060135 255 253 253
-0.064894 0.251976 0.061478 254 254 253
-0.086280 -0.029650 0.003496 133 134 141
-0.049744 0.229478 -0.007733 252 253 254
-0.075732 0.144654 0.045690 99 149 233
0.044541 0.193655 0.025172 255 255 254
0.003494 0.058466 0.034678 254 255 253
-0.099309 -0.042323 -0.051526 102 148 232
-0.072822 -0.228404 -0.026896 255 254 254
-0.029588 -0.104801 0.034254 255 253 253
-0.106847 -0.193542 -0.054503 101 145 223
-0.071724 -0.260104 0.027393 252 254 254
-0.063216 0.230330 -0.015042 254 254 253
-0.093721 0.244113 0.056156 101 150 235
-0.076625 -0.079546 -0.072099 100 148 233
-0.056143 0.239507 0.050981 252 253 252
-0.069455 -0.212796 0.036418 253 253 252
-0.094110 -0.257922 -0.044029 101 143 219
0.051837 0.206773 0.049784 254 253 253
-0.078632 -0.264451 -0.033975 254 253 251
-0.008908 0.119323 0.037750 253 253 254
-0.099528 -0.147005 -0.083368 100 148 231
-0.041469 0.177026 -0.035728 253 254 253
0.004406 0.037802 -0.004169 253 254 253
-0.100187 -0.138102 0.048615 101 149 233
-0.107426 -0.114381 -0.037914 102 147 229
-0.043898 -0.160528 0.019462 253 252 252
-0.077976 -0.125644 -0.000137 102 148 233
-0.009400 0.131373 0.036355 255 255 254
-0.060002 -0.216501 0.034576 252 254 254
-0.102368 0.135053 -0.041489 102 148 232
0.005102 0.034501 0.055063 251 251 251
-0.077241 -0.064289 0.034638 98 132 193
-0.103550 -0.064466 -0.038985 100 147 232
-0.090954 0.125232 0.048022 101 147 231
-0.097160 0.115621 -0.042034 102 150 233
-0.079235 -0.087235 0.032711 102 144 220
-0.047201 -0.179203 -0.005694 255 254 255
-0.093916 -0.030734 -0.016506 130 136 142
0.087214 -0.162294 -0.002661 251 251 251
-0.011169 0.108941 -0.026517 254 253 252
-0.057411 0.240408 -0.058582 253 252 253
-0.095758 0.113142 0.016774 100 149 234
-0.103001 0.197471 -0.042099 102 150 234
-0.091680 -0.052249 -0.065499 131 135 143
-0.099434 -0.077569 -0.081163 101 138 204
-0.029298 0.155702 0.002628 255 254 253
-0.075782 0.207253 0.023915 102 146 223
0.049703 -0.047895 0.016198 252 252 252
0.021937 0.050180 -0.004586 253 254 252
-0.104609 -0.099692 -0.013612 100 148 232
0.019828 0.027420 0.001136 255 252 252
0.028488 0.106161 -0.001847 253 254 253
0.022845 -0.012556 -0.003712 254 254 255
-0.104104 -0.146197 -0.037549 101 148 233
-0.104776 -0.100800 -0.076355 103 148 229
-0.074555 -0.255052 -0.022778 252 254 253
-0.095199 0.078009 0.048006 101 147 233
-0.046053 0.190974 0.009950 253 253 253
0.005054 0.033717 0.055808 255 254 254
-0.102579 -0.245008 -0.038722 100 145 219
-0.056578 -0.212910 0.007636 252 252 252
-0.078447 -0.045776 -0.060359 132 125 131
-0.048254 0.194480 -0.037033 253 254 254
-0.101463 0.038302 -0.039271 103 149 231
-0.078555 0.104676 -0.012091 102 147 233
-0.082345 0.131878 -0.037995 102 149 233
-0.055048 -0.153830 0.052213 252 252 253
-0.026215 -0.098595 0.060385 252 252 252
-0.025229 0.172650 0.010273 253 253 254
-0.074529 0.063794 0.030045 100 149 232
-0.079145 -0.226134 0.011246 102 148 229
-0.070511 0.266841 0.055675 254 253 254
0.045278 0.131585 0.057815 255 252 253
-0.076725 -0.112761 -0.072418 102 147 231
-0.078083 -0.243594 0.046918 254 253 252
-0.103362 0.220652 -0.018556 101 150 233
-0.078791 -0.226779 0.025894 100 147 226
-0.042889 -0.150976 0.058955 254 254 254
-0.100525 0.172422 -0.022189 101 147 229
-0.062577 -0.155878 0.002258 190 190 191
-0.103372 0.102622 0.011761 102 149 232
0.084632 -0.161942 -0.004135 255 254 252
-0.090166 0.086378 0.044599 102 150 235
-0.080270 0.057747 0.027684 102 149 235
-0.072983 0.112178 -0.038254 102 142 217
0.078892 -0.151640 0.049788 254 255 255
-0.100172 0.139663 0.052217 102 149 233
0.008034 0.059854 0.060800 254 254 254
0.011038 0.010997 0.049518 254 253 253
-0.073385 0.245567 0.045853 254 254 254
-0.085452 -0.253983 -0.021633 252 253 253
-0.084853 -0.033195 -0.023490 102 144 222
-0.080860 0.145987 0.020205 101 149 234
-0.008816 0.125152 -0.017949 252 251 252
-0.074614 -0.147882 0.047532 104 150 233
-0.101371 0.050969 -0.072011 104 150 233
-0.007278 0.120060 0.001223 254 254 253
0.037290 -0.045504 0.019256 253 253 252
0.013864 0.032573 -0.012499 254 254 254
-0.074519 0.135060 0.047968 98 131 191
-0.073251 -0.228637 -0.010068 100 147 233
-0.098989 0.122700 0.010733 102 149 234
0.051982 0.212898 0.048700 255 254 254
-0.063400 0.242898 -0.059892 253 254 254
-0.099995 0.245556 -0.005367 128 126 135
-0.082353 -0.039729 0.035298 104 136 194
0.010142 0.051423 0.041814 254 254 254
-0.079674 -0.141744 0.015458 103 149 229
-0.012829 -0.058039 0.019712 252 254 252
-0.097304 0.109389 -0.058786 101 148 233
-0.097361 -0.134002 -0.058214 102 149 232
0.019195 0.071154 0.011900 255 254 254
-0.027371 -0.084030 -0.024999 253 253 253
-0.006537 0.122406 0.005901 255 254 253
-0.104800 0.206676 -0.033130 101 148 234
0.018812 0.048999 0.034258 253 253 253
-0.079100 0.080831 0.040387 101 149 234
-0.105580 0.262098 -0.044005 105 130 175
-0.105323 0.083193 -0.056903 101 132 188
-0.101505 0.093629 0.022335 102 148 234
0.006720 0.047538 0.048551 255 254 254
0.007368 0.078311 0.008730 254 254 254
-0.051287 -0.200283 0.015106 251 251 254
0.004094 0.093667 0.040555 253 253 254
0.029982 0.082905 0.002444 253 253 252
-0.024001 -0.042582 0.005647 254 253 254
-0.089466 -0.090774 -0.085048 102 148 233
-0.083914 -0.195218 0.007591 100 147 232
-0.084114 -0.202798 -0.047603 101 148 234
-0.035854 -0.104812 0.040511 253 253 252
-0.098102 -0.219782 -0.077132 105 146 221
-0.053255 -0.203759 0.032880 253 254 252
-0.028911 -0.115853 0.047894 255 255 255
-0.101977 -0.121921 -0.056921 101 150 234
-0.100199 0.043699 0.041523 126 129 136
0.045640 0.157510 0.002181 254 252 252
-0.016950 0.119389 -0.031177 253 253 253
0.006945 0.034799 -0.012837 251 251 251
-0.081094 0.178908 -0.032676 135 143 156
0.013825 0.046354 0.038460 252 252 252
-0.107208 0.131425 -0.060477 103 149 229
0.018935 0.026361 -0.021385 255 254 252
-0.095526 0.239014 -0.047752 100 141 216
-0.103571 -0.106397 -0.070787 100 149 233
-0.103379 0.188295 -0.036718 103 150 234
-0.096818 0.214510 -0.080682 104 149 232
-0.069681 -0.261700 -0.004981 253 253 254
-0.077132 -0.261597 -0.013059 101 140 211
-0.082079 0.143708 -0.035819 99 146 227
-0.040786 0.180160 0.058487 254 253 254
-0.013824 -0.019552 0.047296 254 255 254
-0.010443 0.130965 0.057964 253 254 255
-0.079298 -0.242363 -0.069477 102 147 232
-0.095911 -0.070250 0.045272 102 134 194
-0.074522 -0.159232 -0.006354 100 148 232
-0.070585 -0.198675 -0.020282 102 148 229
-0.079861 -0.183657 -0.074986 134 136 140
-0.074082 0.268725 -0.022064 254 254 254
0.081333 -0.172260 0.024659 252 255 253
-0.102495 -0.062960 -0.048440 100 148 228
-0.078825 -0.227859 0.046491 103 136 198
-0.060406 -0.176133 0.061716 253 254 254
-0.019595 0.117587 0.024072 252 253 253
-0.068664 -0.135295 -0.031644 184 185 190
-0.100933 -0.268103 -0.024070 101 147 230
-0.023760 0.128065 0.025019 254 253 253
-0.082138 0.163974 -0.006135 102 148 233
0.031180 0.081336 0.019209 253 253 252
-0.059637 -0.172532 0.043020 253 254 254
0.035740 0.094557 0.030963 253 255 253
-0.101982 -0.062183 -0.012527 101 149 231
-0.103115 -0.200208 -0.001812 101 141 209
-0.100508 -0.121048 0.052493 100 148 228
-0.034502 -0.134421 -0.026010 255 254 254
-0.073262 -0.252820 -0.038285 253 255 253
-0.051689 -0.188197 -0.024210 254 252 254
-0.065052 0.229561 0.045927 253 255 255
0.070663 -0.109333 0.025687 254 253 254
-0.047486 -0.135405 0.055573 254 253 254
-0.036652 -0.141315 0.012403 252 253 252
-0.054454 -0.154367 0.044893 253 253 253
-0.100243 -0.072965 0.020623 101 147 233
0.010045 0.072156 -0.007601 254 254 253
-0.043471 -0.128062 -0.029151 251 251 252
-0.057738 0.210803 0.032673 252 252 253
-0.028800 -0.121894 -0.017823 254 254 253
-0.078879 -0.253683 0.029311 102 149 233
-0.095502 0.223795 0.045412 101 148 233
0.078684 -0.123549 0.052477 251 251 251
-0.014771 -0.065482 0.030466 253 255 253
-0.068539 -0.136044 0.059651 186 194 210
-0.081942 0.255318 0.044730 101 148 234
-0.053704 0.204856 0.018434 252 252 252
0.048053 0.158723 0.028183 254 252 253
-0.079636 -0.169499 -0.014168 125 128 135
-0.075556 -0.242955 0.027200 252 252 252
-0.016359 0.142304 0.051818 253 253 253
-0.102981 0.084150 -0.019586 100 148 230
-0.056258 0.222142 -0.058567 253 253 252
-0.068982 -0.260452 0.016282 255 253 252
-0.099096 0.161194 -0.022887 101 147 226
-0.069179 -0.261830 -0.006918 252 251 254
-0.072519 0.058044 0.046256 172 180 186
-0.008701 -0.050945 0.057223 254 254 254
-0.077861 -0.058959 -0.039810 127 130 137
-0.075040 0.232813 0.059411 126 121 127
0.025295 0.058748 0.019683 254 254 254
-0.094014 0.033320 -0.052334 133 136 141
0.013353 -0.017122 -0.006946 252 252 253
-0.101073 -0.103497 0.011732 102 144 219
0.044264 0.126767 0.054286 253 251 252
-0.038037 -0.145753 0.028755 254 253 254
-0.082311 0.038306 0.038663 100 148 234
-0.076167 0.161297 -0.009133 100 149 233
-0.103113 0.115695 -0.081069 127 130 134
0.048833 0.157078 0.038725 253 255 255
0.027731 0.011018 0.031071 253 255 254
-0.040813 -0.106501 0.000700 253 253 254
-0.079126 0.210226 -0.014454 100 144 221
0.017051 0.059580 0.048017 254 253 254
-0.029555 -0.089670 0.005577 204 211 209
-0.068748 -0.257683 -0.045472 254 255 253
-0.052533 -0.150941 0.007743 254 255 255
-0.076298 -0.256799 0.048865 252 254 254
-0.011933 -0.028983 0.059699 254 254 255
-0.096857 -0.159153 -0.067508 104 149 234
0.080251 -0.137177 0.055147 254 254 253
0.044469 0.187379 -0.011936 254 255 255
0.001218 -0.019618 -0.016197 254 255 254
-0.098985 0.029689 0.000427 101 144 219
0.018534 0.080467 0.039647 255 253 254
-0.003071 0.071125 0.018197 254 254 255
-0.077724 -0.066935 0.035377 101 149 235
-0.075806 -0.111120 -0.021849 99 144 219
-0.062849 0.224081 -0.045937 255 255 254
-0.094607 0.266487 0.014600 102 147 230
0.029487 0.097312 0.012628 214 212 212
-0.074340 0.048768 -0.027808 102 146 228
0.010029 0.076802 0.010761 193 196 195
-0.051292 -0.202433 0.019266 253 252 252
-0.015872 -0.056820 0.060630 254 255 253
-0.013821 -0.023209 0.012516 253 253 254
0.042380 0.144314 0.057987 254 253 254
-0.015068 -0.053030 -0.014722 253 254 253
-0.076457 -0.050347 -0.015843 100 148 233
-0.075745 0.235571 -0.018817 103 150 232
0.032930 0.136629 0.032391 254 253 254
0.065710 -0.094604 0.037353 255 253 252
-0.078161 0.155226 -0.032936 102 149 234
-0.104042 -0.128264 -0.025509 103 150 234
0.049303 0.165305 0.021028 252 253 252
-0.083316 -0.266290 0.010282 100 139 207
0.022426 0.046432 0.031035 255 255 254
-0.079855 -0.144803 0.041924 100 149 233
-0.058142 -0.206508 0.055404 252 252 252
-0.013375 0.104246 0.039489 252 255 253
-0.090987 -0.266326 -0.031262 101 143 218
-0.046469 0.189045 0.061597 252 253 253
-0.074496 0.038744 0.039558 123 120 123
-0.100547 0.204272 0.006857 102 149 230
-0.083509 0.258339 -0.053147 254 253 253
-0.099100 -0.262927 -0.000400 102 147 225
-0.007493 0.077217 -0.012690 253 254 254
-0.048323 -0.148213 0.033158 197 198 201
0.041716 0.131909 0.014504 253 252 252
-0.106655 -0.145049 -0.052284 103 150 233
-0.096801 0.240597 -0.048926 135 140 144
-0.079210 0.069447 -0.064722 100 149 232
-0.094520 -0.241980 0.056063 100 149 234
-0.028232 0.143833 -0.026111 252 253 252
-0.099744 -0.076671 -0.064073 101 128 177
-0.100907 0.162957 0.032805 101 150 234
-0.085642 0.076600 0.048156 101 149 234
-0.075067 -0.231016 -0.001373 253 253 251
-0.065099 0.231994 0.015695 253 254 252
-0.101404 -0.264151 0.002152 103 150 233
-0.069341 0.261374 0.052963 253 254 253
0.018243 -0.017932 -0.004332 252 254 254
-0.095853 0.224397 -0.038972 101 148 231
0.014623 0.007952 -0.011522 253 253 252
-0.080306 -0.079453 0.050790 121 128 131
-0.096130 0.068341 -0.080682 122 134 144
0.033374 -0.009361 0.038163 254 253 255
-0.075720 0.262443 0.062802 255 253 252
0.056072 -0.065506 0.024816 255 254 255
-0.080051 0.224362 0.059427 101 137 205
0.075432 -0.131749 0.055010 252 252 252
-0.079532 0.059469 -0.066943 100 147 233
-0.081028 0.250809 -0.037959 100 143 221
-0.079088 -0.232429 0.032836 102 139 206
0.000362 0.067790 -0.007341 253 252 254
-0.100960 -0.120819 0.034306 100 150 233
-0.078361 0.109326 -0.029620 102 147 231
0.071082 -0.111386 0.027412 252 254 254
-0.079834 -0.165636 0.011140 131 138 142
-0.055977 0.247390 -0.002430 255 254 253
-0.046600 -0.177672 0.063996 253 254 253
-0.105423 -0.110064 -0.081749 100 144 221
0.018656 0.042553 0.050687 252 252 252
-0.096615 -0.212755 -0.015161 103 148 233
-0.079969 -0.048132 0.007769 100 146 231
-0.097731 -0.139600 -0.003149 101 149 232
-0.078852 -0.264501 0.019682 104 148 230
-0.099923 0.132542 0.029886 101 148 234
-0.053192 -0.204779 -0.034736 252 253 254
0.010766 0.020251 0.055965 254 254 253
-0.076729 0.200989 0.041755 100 148 233
-0.073340 -0.122921 -0.005994 133 137 141
0.039633 -0.025935 -0.010587 254 253 253
-0.101196 0.133887 -0.055022 101 149 234
-0.077691 -0.123523 -0.035324 103 150 234
-0.075048 -0.222098 0.045837 254 253 253
-0.098786 0.161610 -0.078333 136 138 141
-0.084394 -0.187976 0.059823 102 145 228
0.057923 -0.099318 0.021088 252 252 252
0.023452 0.071401 0.037402 253 253 252
-0.017503 0.104414 0.009498 251 251 253
-0.099057 -0.181065 -0.014162 101 148 232
-0.073930 0.235718 0.035182 101 146 230
-0.044355 -0.163375 0.039451 252 253 252
-0.079677 0.262671 -0.049902 103 143 216
-0.101103 0.128563 -0.033389 103 149 231
-0.075128 0.147225 -0.033857 101 149 234
-0.078696 0.101618 -0.015410 99 138 206
-0.072674 -0.222909 0.052143 255 253 254
-0.099516 0.265500 0.014583 126 126 137
-0.099690 0.125415 0.044829 101 139 209
0.067932 -0.099042 0.042411 252 255 253
-0.080293 0.179154 0.010118 100 142 215
-0.053036 0.208404 -0.054476 253 253 255
-0.073893 -0.223457 -0.005288 253 254 251
-0.078670 -0.136544 -0.086571 100 143 216
-0.100407 -0.065849 -0.076225 104 149 231
0.063206 -0.104231 -0.013157 253 253 253
-0.079931 -0.175384 0.052291 100 147 233
-0.049516 -0.188709 -0.006079 254 254 254
-0.103455 0.145964 -0.012972 100 149 233
-0.079462 -0.120602 0.053108 99 149 232
-0.077921 0.164386 -0.081888 103 149 232
-0.079866 -0.144440 -0.017028 100 147 234
-0.025531 0.128544 0.029367 253 254 253
0.014470 0.047243 -0.017509 253 252 253
0.007517 0.040419 0.029672 255 254 254
-0.048402 0.196541 -0.044806 253 253 253
-0.078688 -0.171853 0.058694 159 165 170
-0.079879 -0.179852 -0.009582 139 145 149
-0.079720 -0.094221 0.020494 100 147 233
-0.041884 0.178829 0.031128 255 254 252
0.008338 0.037703 0.023444 254 253 254
-0.018902 -0.086434 0.037036 252 254 252
-0.095540 -0.183587 0.003521 101 148 233
-0.089097 0.156912 -0.084870 101 128 177
-0.087473 -0.207151 -0.079842 104 150 232
-0.079371 0.235791 -0.045120 101 147 233
-0.027148 -0.073685 0.002549 253 253 252
-0.027304 -0.077292 0.060055 254 253 253
-0.087060 -0.245243 -0.065646 103 150 234
-0.097702 -0.031662 0.021409 104 151 234
-0.076109 0.233317 0.028796 100 150 233
-0.102475 -0.234855 -0.024048 100 147 224
-0.097716 0.069468 -0.079642 102 134 191
-0.101654 0.224794 -0.022846 101 148 234
-0.087673 0.234407 -0.076156 103 142 214
0.033441 -0.024449 0.021968 255 253 253
-0.108755 0.222598 -0.018294 123 125 133
-0.070208 0.244730 0.018214 253 252 254
0.034358 -0.009655 0.024525 254 252 253
-0.098737 0.136972 -0.007704 102 148 233
-0.074111 -0.231609 0.033572 254 253 253
-0.103163 0.074474 0.007749 111 135 176
-0.000307 0.072529 0.012868 253 253 254
-0.080371 0.088869 0.033704 102 146 223
-0.064649 -0.246692 -0.029777 252 251 252
-0.103787 0.178367 -0.070957 115 124 127
-0.063091 -0.187135 0.045767 254 253 252
-0.100034 -0.128677 0.055217 134 138 143
-0.077639 -0.245616 0.037759 125 134 142
-0.101785 -0.222093 -0.012154 101 149 232
-0.081472 -0.250895 0.045514 101 150 233
-0.002321 0.012190 0.029872 254 254 253
-0.038031 -0.147508 0.028225 252 252 252
-0.063782 0.221459 -0.016461 253 252 253
-0.093302 0.112279 -0.085176 100 148 232
-0.031057 -0.083355 0.017229 253 252 253
-0.084962 0.019439 0.033646 251 252 253
-0.075651 0.192947 -0.060644 102 147 233
-0.087154 0.114495 0.036695 125 131 138
-0.097870 -0.221983 0.035285 102 149 234
-0.081184 -0.142916 0.006018 102 149 233
-0.001807 0.010667 0.054423 255 254 253
-0.103507 -0.206451 -0.065162 102 146 220
-0.098506 -0.228201 0.065511 102 147 230
-0.079526 0.155518 0.024228 101 150 234
-0.096491 0.088028 -0.086725 103 147 226
-0.057509 -0.167405 0.051014 254 253 253
-0.096471 -0.064821 -0.014372 101 149 233
-0.092846 0.073023 -0.083130 100 150 234
-0.072861 -0.264441 0.018546 253 253 254
-0.099870 -0.058335 -0.040576 102 138 204
0.034406 -0.013971 0.050869 254 254 254
-0.100987 -0.202205 0.019613 100 147 227
-0.105796 0.145509 -0.068139 101 146 225
-0.075655 -0.258220 0.044433 252 253 253
-0.078756 -0.063970 0.045388 105 142 211
-0.076003 0.126793 0.029622 102 149 234
0.024340 -0.000989 0.023752 253 253 253
0.037507 -0.042554 0.060212 253 254 252
-0.065016 -0.229793 -0.007045 254 253 253
-0.099248 0.190789 -0.024577 124 130 134
-0.027163 -0.091361 0.020410 253 252 253
0.024449 0.049218 0.023020 254 254 254
-0.082422 0.177473 -0.065039 100 142 214
-0.098429 0.089604 0.047575 104 133 182
-0.016322 0.146321 0.039394 255 253 254
-0.101786 -0.213222 -0.074450 102 148 234
-0.091092 -0.267751 0.000542 104 147 224
-0.094736 0.173412 -0.080460 103 149 234
-0.098674 -0.095927 -0.082058 104 150 231
-0.093229 -0.175418 0.059555 103 150 234
0.057733 -0.097283 0.040867 252 252 252
-0.078264 0.174278 -0.045761 101 141 213
-0.047852 0.196066 -0.011018 255 254 254
-0.078062 0.166017 0.037831 102 149 235
-0.090984 -0.039553 -0.030488 101 147 232
-0.044546 0.219279 -0.014349 253 253 253
-0.016930 -0.033550 0.057722 255 252 253
-0.099164 -0.258969 -0.044257 103 148 228
-0.095246 0.264569 -0.045823 131 127 134
-0.076284 0.153395 -0.011474 101 147 234
0.089613 -0.164009 0.036797 252 252 251
-0.052684 -0.149881 0.009166 254 253 254
-0.018324 -0.036494 0.027201 252 253 252
-0.096575 0.124185 0.050023 101 149 234
-0.083942 0.016095 0.016867 124 130 133
0.065358 -0.121254 0.030576 253 252 253
0.012514 0.028889 0.028659 254 252 252
-0.104882 -0.211471 -0.025462 102 137 202
-0.081312 -0.155306 0.013463 100 150 234
-0.063389 0.257346 0.001566 252 253 254
-0.079316 -0.257368 -0.034144 100 147 231
-0.002476 0.073501 0.060153 254 254 254
-0.071034 0.236867 0.006941 127 134 140
-0.082112 0.219767 0.056665 103 149 236
-0.075998 0.219360 0.017066 102 150 234
-0.078871 0.084746 -0.064650 99 139 210
-0.015314 -0.068306 0.049303 253 254 254
-0.102041 0.190544 -0.050940 102 150 235
0.004609 0.056034 0.057376 255 254 255
0.023137 0.053036 -0.017153 254 255 254
-0.050133 -0.154937 -0.032711 254 254 254
-0.004500 0.106596 0.020445 253 254 253
-0.102278 -0.188000 0.022379 101 149 234
-0.102410 0.038855 0.011122 128 127 136
-0.055742 0.215796 0.022498 252 253 254
0.010045 0.025245 -0.002639 254 253 253
-0.049830 -0.185300 -0.006136 255 254 254
0.033453 0.101910 0.005273 253 254 254
-0.077150 0.147481 -0.043421 101 148 230
-0.080174 -0.163326 0.017925 134 138 145
-0.081234 -0.263264 -0.028234 104 149 234
-0.078550 0.077728 -0.039602 100 149 232
0.011402 0.011437 0.057895 255 254 254
-0.095928 -0.124277 -0.036706 102 149 232
-0.071281 -0.251308 -0.036027 131 135 148
-0.101365 -0.213026 0.016726 102 146 224
0.001818 0.018559 0.033484 252 252 252
-0.102552 -0.156343 -0.083473 103 150 234
-0.083707 -0.264408 -0.023138 102 137 203
-0.105212 -0.103792 -0.019002 103 150 232
-0.105817 0.093447 -0.021056 103 138 204
-0.057389 0.215398 -0.028588 255 254 252
-0.034524 -0.136146 0.013429 252 252 251
-0.017382 0.149851 0.034570 252 252 254
0.002796 0.044896 0.003498 253 254 253
-0.096737 -0.258727 -0.043823 102 148 232
0.054466 -0.062438 0.013781 253 253 254
-0.023456 0.168006 -0.022240 250 250 251
-0.102476 0.154223 -0.043359 102 150 233
-0.078356 -0.077727 0.005364 102 148 234
-0.101944 -0.190606 -0.023671 102 148 229
-0.077364 0.248872 -0.008243 101 145 223
0.045885 -0.034846 0.044389 255 254 252
-0.105616 -0.231586 -0.042690 126 132 138
0.030272 0.001405 0.037878 255 253 253
-0.046641 0.217374 0.017443 253 253 254
-0.089316 0.111673 -0.084957 101 149 233
0.054179 -0.099049 0.000581 255 253 254
-0.100021 0.149571 0.050938 102 148 234
-0.078176 -0.226712 0.054525 181 184 189
-0.097693 -0.063141 0.014953 101 149 234
-0.088596 -0.142218 0.055104 101 145 226
-0.093628 -0.262741 0.027156 103 149 230
-0.083950 0.266897 -0.036554 100 142 214
-0.063732 0.232760 -0.047201 254 253 255
-0.067116 -0.249607 0.043645 253 254 253
-0.076672 0.210523 0.005404 100 146 222
-0.105421 -0.176289 -0.066328 102 145 222
0.082360 -0.143505 0.038277 254 254 255
-0.080774 0.046036 -0.014120 102 150 235
-0.043248 -0.123993 0.025523 253 254 253
-0.076797 0.100735 -0.005026 103 149 232
-0.033268 -0.138701 -0.004260 252 251 252
-0.098290 0.122277 0.014646 100 147 234
-0.079465 -0.059376 0.015927 102 147 232
-0.013214 -0.068370 0.034807 253 254 252
-0.032935 -0.089867 -0.021851 253 253 252
0.023889 0.042571 0.045975 252 253 253
0.051258 -0.051440 0.014298 253 253 253
-0.102698 0.162046 0.028020 122 126 131
-0.079517 -0.056415 -0.076382 103 149 234
-0.027232 -0.104415 0.054812 255 255 255
0.070546 -0.105710 0.048586 253 252 252
0.060536 -0.106391 0.041327 255 254 255
-0.101846 0.093216 -0.014328 101 146 230
-0.048538 0.209460 0.058447 254 252 254
-0.077311 -0.256831 0.000161 120 125 133
0.003340 0.045704 0.052344 255 254 254
-0.099190 0.197626 -0.000528 100 147 234
-0.074550 0.140096 0.048087 100 146 223
-0.101245 0.157712 -0.046790 104 150 232
-0.106480 0.130791 -0.046342 102 149 232
-0.096876 0.248146 0.045340 129 133 138
-0.003025 -0.032318 0.052460 252 254 254
0.058742 -0.097154 0.000987 255 254 253
-0.100068 0.230446 0.010049 100 149 230
-0.002006 0.014190 0.031280 253 252 252
0.038811 0.124540 -0.002846 252 253 252
0.035345 0.101163 0.018499 254 254 254
-0.032463 -0.097239 0.047286 254 253 252
-0.080751 0.116143 -0.033527 102 149 234
-0.038050 -0.147422 -0.001742 254 254 254
0.028876 0.069588 0.000726 255 255 254
0.030635 0.133765 0.016489 253 252 252
-0.081629 -0.185992 0.007822 103 141 209
-0.103879 -0.211398 0.015290 102 146 225
0.027424 0.098184 0.055629 255 254 253
-0.035912 0.194800 0.025007 254 253 253
-0.101189 -0.095658 -0.066356 105 140 201
-0.078700 -0.154316 -0.081509 141 146 152
-0.096913 0.121364 0.001764 101 147 232
-0.108276 0.214637 -0.051027 101 137 198
-0.106094 0.236596 -0.035441 127 126 132
-0.048170 -0.137592 0.012022 253 253 253
0.047089 0.137827 0.058360 254 252 253
-0.085884 0.278061 -0.004258 102 144 219
0.043088 0.176506 -0.013806 253 255 253
0.038089 0.144185 -0.019474 254 255 254
-0.100584 0.264290 -0.025159 102 150 234
-0.034790 -0.123648 0.059577 254 254 254
0.045357 0.141494 0.034360 252 252 253
-0.089286 0.198812 0.054889 101 149 234
-0.075356 -0.132672 -0.029348 133 136 147
-0.103954 -0.074639 -0.054211 101 144 220
-0.040937 0.192753 0.051866 252 253 253
-0.080108 -0.130125 0.015096 100 147 231
0.044181 0.135867 0.029004 254 254 253
-0.053204 0.218814 -0.059486 253 254 253
0.007130 0.061675 0.060107 255 255 255
-0.038526 0.190797 -0.047528 252 252 252
-0.046817 0.186386 0.051752 253 253 253
-0.074685 0.257453 -0.026320 255 253 254
-0.033984 -0.129421 0.021608 253 252 254
-0.087479 -0.267643 -0.025042 103 144 224
-0.076996 0.118146 0.030788 102 134 192
-0.078387 -0.104733 0.001989 101 149 234
-0.071104 0.262420 0.055455 254 253 253
-0.012826 0.105109 0.044979 254 253 254
0.038384 0.135831 -0.020703 255 255 253
-0.053380 -0.215220 0.036766 253 253 252
-0.079585 -0.222711 0.056243 128 132 141
0.053435 -0.061749 0.008327 253 255 253
-0.099960 0.251248 -0.012256 133 136 139
-0.074995 -0.226296 0.038498 253 253 253
-0.093994 -0.125259 0.051294 100 146 232
-0.087661 0.212922 0.054817 101 147 233
0.082462 -0.145950 -0.005081 253 255 254
-0.079859 -0.042581 0.005747 101 143 222
-0.109837 -0.146297 -0.029845 104 133 180
-0.033337 -0.127149 0.034052 254 253 254
-0.075187 0.269695 0.014067 135 139 145
0.019278 -0.002534 0.025322 254 254 253
-0.073852 0.168158 -0.002873 102 149 234
-0.106331 0.191822 -0.036910 102 147 232
-0.072828 -0.220715 -0.021095 252 252 252
-0.082351 -0.179254 -0.020247 103 146 229
0.034640 0.086455 0.046489 255 254 254
0.054727 -0.070867 0.021350 254 254 253
-0.060065 -0.182012 0.004728 254 254 254
0.053693 -0.088586 0.031638 254 253 253
0.040706 0.112945 0.034600 253 252 253
-0.079762 0.131828 -0.002449 103 148 230
0.082478 -0.153902 -0.008150 253 253 253
-0.078675 -0.174292 -0.047398 127 131 138
-0.068002 -0.257914 -0.003479 254 254 251
-0.067709 -0.210466 -0.041255 254 254 254
-0.073028 0.245621 0.055115 251 252 252
-0.001645 -0.002411 0.047078 254 255 254
-0.105392 0.100664 0.012550 103 149 234
-0.093545 0.185784 0.061198 115 120 123
0.072481 -0.122043 -0.009783 255 254 253
0.023246 0.108919 -0.018095 253 254 252
-0.016875 -0.050518 0.013879 188 193 194
-0.095916 -0.220102 0.045525 104 146 221
0.057970 -0.108977 -0.006305 253 253 254
0.033099 0.130153 0.048574 253 255 253
-0.071283 -0.166134 -0.011188 180 186 187
-0.075618 0.192351 0.015624 100 148 234
-0.032491 0.182960 0.035120 253 253 254
-0.076231 0.252545 0.019345 100 147 232
0.003314 0.008226 0.046779 253 254 254
-0.102065 -0.037997 -0.032830 124 128 134
-0.083325 0.128946 -0.069941 101 140 213
0.025419 0.020757 0.040939 253 253 254
-0.079187 0.258956 -0.001441 254 253 252
-0.077999 0.229677 -0.072679 124 126 131
-0.095097 -0.247419 0.001133 102 150 234
-0.028802 0.187456 0.010761 253 254 254
-0.091690 -0.189203 0.060596 103 142 215
-0.106528 0.105299 -0.012681 129 137 145
-0.078961 0.206117 -0.052220 103 150 233
0.066540 -0.122467 0.014084 253 252 253
-0.053761 0.203302 0.042646 253 255 253
-0.101373 -0.182072 0.018409 101 149 231
-0.079816 0.242072 -0.061529 122 128 131
-0.000419 0.104707 0.049329 253 254 254
-0.015369 0.104458 0.027043 250 250 251
-0.022555 0.123673 0.003796 252 252 253
-0.026960 -0.062311 0.027216 253 255 253
-0.102452 -0.116005 0.023556 102 148 231
0.082021 -0.167180 0.042394 251 252 251
0.007204 0.032366 -0.008589 253 253 254
-0.066400 -0.185279 -0.026554 253 255 253
-0.081963 -0.248095 -0.038094 255 255 255
-0.081007 -0.251252 0.030121 101 140 210
-0.070408 -0.231250 0.030973 176 182 181
-0.052585 -0.147228 0.006683 255 254 254
-0.070877 -0.216737 0.015251 253 253 254
-0.100447 -0.254313 0.040144 100 137 200
-0.033638 0.185123 0.026341 253 252 253
-0.083874 0.090052 0.045748 99 140 218
-0.085609 -0.232311 -0.077362 101 150 233
0.017729 -0.003252 -0.021762 254 253 254
0.002332 0.023746 0.041436 255 253 253
-0.091818 0.165884 0.034600 127 126 136
-0.104473 -0.144886 0.003547 102 147 223
-0.097158 0.191622 -0.077533 101 147 233
0.077556 -0.133134 -0.007083 254 254 253
0.005356 0.087629 -0.004086 255 254 255
0.030446 0.126841 0.027284 253 253 252
0.002624 0.092193 -0.007024 255 253 253
0.001221 0.102519 0.051492 255 253 254
-0.100360 0.059522 0.045777 100 147 232
-0.096582 -0.046431 -0.009484 102 150 234
0.013732 0.021003 0.022439 254 254 253
-0.058720 -0.173471 -0.001868 254 255 254
-0.095832 0.059406 -0.075833 142 146 152
-0.050696 -0.182193 -0.014024 255 253 255
0.016335 0.016248 0.023839 251 252 253
-0.102306 -0.140896 0.020613 103 147 225
-0.027459 -0.099423 0.046663 188 191 195
-0.105979 -0.197060 0.019126 145 152 160
-0.074426 -0.152269 -0.026868 102 148 233
-0.076798 -0.106748 -0.020690 132 136 140
-0.104485 -0.210644 -0.078157 102 146 223
-0.083185 -0.267845 -0.015391 100 147 233
-0.101607 -0.059635 -0.030350 103 148 229
-0.078475 -0.241980 -0.020696 253 252 252
0.013748 0.072171 -0.013909 254 255 254
0.049695 -0.048245 0.031230 252 253 253
0.017297 0.076833 0.043591 255 255 254
0.028256 -0.005290 0.058728 252 253 254
-0.098749 0.241716 -0.072094 103 150 234
-0.084861 -0.103265 -0.082194 101 144 219
-0.083537 -0.027100 -0.010084 101 146 232
-0.026705 0.151617 0.054746 252 253 252
0.004838 0.041345 0.042162 254 254 253
0.037175 0.168255 0.037133 255 254 253
0.018027 0.046137 0.058617 254 253 254
-0.070468 -0.258054 0.007110 255 253 255
0.007756 0.024846 0.040725 194 197 202
-0.073859 0.106876 0.046925 103 149 232
0.015335 0.006918 0.057559 255 253 254
-0.100461 0.153213 0.016814 103 147 229
-0.000499 0.003509 0.042144 254 255 253
-0.074000 0.251170 0.036771 252 251 252
-0.032159 0.158785 -0.027083 252 253 252
-0.007227 -0.040370 0.049252 255 253 254
-0.079502 0.039543 -0.016916 100 150 235
