ply
format ascii 1.0
element vertex 1176
property float x
property float y
property float z
property uchar red
property uchar green
property uchar blue
end_header
-0.114389 0.090854 0.017927 103 150 238
-0.022522 -0.015961 0.047844 255 255 255
-0.095279 -0.188347 0.002629 101 150 238
-0.092296 -0.119390 -0.070262 103 151 237
0.018396 0.049811 0.051668 255 255 255
-0.068286 0.218351 0.054681 255 255 255
-0.104413 0.184970 0.026646 103 151 237
-0.031692 -0.087657 -0.005274 255 255 255
-0.110867 -0.183384 -0.006659 102 150 238
0.041564 0.114485 0.025927 255 254 255
-0.093172 -0.198956 -0.053580 100 150 236
-0.050912 -0.114281 0.034929 255 255 255
-0.023395 0.118301 0.021794 255 255 255
-0.087401 0.258597 0.043428 100 151 238
-0.109791 0.236286 0.007068 100 149 237
-0.029943 -0.078848 -0.013366 255 255 255
-0.114904 0.192643 0.032295 103 151 237
-0.084612 0.279203 -0.019560 194 199 199
0.032975 0.085859 0.036829 254 255 254
-0.044825 -0.092933 -0.013728 255 255 255
-0.079657 -0.264776 0.021328 254 255 255
-0.036295 0.134677 0.059859 254 255 255
-0.074271 0.238520 0.035867 255 254 255
-0.044096 -0.128339 0.011883 255 255 255
-0.094034 0.172171 0.049847 102 148 234
-0.089752 -0.143159 0.013253 102 149 235
0.059261 -0.028506 0.006161 254 255 255
0.045762 0.115323 0.028891 254 255 255
-0.098482 0.093242 -0.094639 102 150 239
-0.118538 0.034691 0.015541 102 149 239
-0.113785 0.044060 -0.017422 103 151 237
0.009349 0.058135 0.014364 255 255 255
-0.108637 -0.139493 -0.018693 100 150 238
0.017626 0.026743 0.044160 255 255 255
-0.110812 0.100426 0.029998 101 149 239
-0.090539 -0.182802 -0.024923 101 149 236
-0.099558 0.279982 0.022711 102 150 237
-0.036217 0.160079 0.059379 255 255 254
-0.087436 0.273330 0.025707 254 255 255
-0.088685 -0.184747 -0.070353 101 150 237
-0.006008 0.100665 0.029749 255 255 255
-0.107156 -0.225283 -0.040776 101 148 235
-0.105161 -0.236780 -0.081278 100 149 237
-0.112244 0.109700 0.039856 101 151 240
-0.057228 0.227327 0.027694 255 255 255
-0.115035 -0.180183 0.028397 103 149 238
-0.107929 -0.243658 -0.012203 101 149 238
-0.097733 0.201736 0.053644 101 149 236
-0.110239 -0.149313 0.047633 100 149 237
-0.073154 -0.198028 0.062315 255 255 255
0.109977 -0.120458 0.053965 253 255 255
-0.057338 0.204222 0.009574 255 255 255
-0.024104 -0.055545 0.042724 255 255 255
-0.099526 -0.202936 -0.084028 100 149 240
-0.069813 -0.176005 0.016163 255 255 255
-0.108176 0.263933 0.047256 102 150 237
-0.110306 0.228087 0.048209 101 149 237
-0.091259 0.234864 -0.012830 102 150 238
-0.104925 -0.181301 -0.085337 143 142 148
-0.088698 -0.172070 -0.082077 99 148 236
-0.101819 -0.036530 -0.046612 102 150 240
-0.098154 -0.281849 0.000124 101 150 236
-0.090551 0.139833 -0.002394 102 151 239
0.120135 -0.164128 0.018741 255 254 255
-0.116246 -0.157319 -0.054687 101 149 237
-0.085608 -0.234734 0.037748 255 255 255
-0.116044 0.103601 0.030661 100 149 238
-0.035659 -0.102184 -0.021781 255 254 255
-0.054453 0.192188 0.058124 255 255 255
-0.080820 -0.254263 0.026852 254 255 255
0.045358 -0.003346 0.062185 255 255 255
0.125217 -0.175623 0.005934 255 255 255
-0.089898 -0.201672 0.015857 101 149 237
-0.050973 0.175674 0.047532 254 255 255
0.131736 -0.160041 0.062576 255 255 254
-0.090918 -0.129833 -0.083753 100 150 237
-0.078480 0.252660 0.011339 255 255 255
-0.065669 0.215890 0.059725 255 254 255
-0.089636 -0.096875 -0.095707 102 150 239
-0.071137 0.258073 -0.030883 255 255 255
0.089177 -0.083857 0.032636 255 255 255
-0.093924 -0.177511 0.027233 102 150 238
-0.114619 -0.118885 0.031529 102 150 239
-0.043914 -0.128778 -0.015201 254 254 254
-0.112552 0.217105 -0.039698 101 149 238
0.006784 0.021623 0.055211 255 255 255
-0.112176 0.174280 -0.017445 100 150 239
0.027918 0.008972 0.017088 255 254 255
0.069262 0.189640 0.036185 255 255 255
-0.091299 -0.074770 0.027374 102 149 238
0.067584 0.190127 0.047641 255 255 255
-0.091614 -0.261034 0.038615 255 255 255
0.007781 0.070591 0.000412 255 255 255
0.030349 0.042651 0.007238 254 255 255
-0.073502 -0.187536 0.000986 255 255 255
0.026042 0.095100 -0.009706 254 255 255
-0.032146 0.137568 0.041335 255 255 255
-0.105217 0.227087 -0.052468 100 150 236
0.043735 -0.013288 0.061745 255 255 255
-0.106932 -0.191934 0.056257 102 150 238
-0.091127 0.041176 0.005766 101 149 237
0.027676 0.010247 0.056475 255 255 255
0.012542 0.036550 0.037710 255 255 255
-0.069957 0.224252 0.059170 254 254 255
-0.110702 -0.282819 0.003309 101 149 237
0.050248 0.133392 0.039315 255 255 255
-0.092772 -0.100216 0.026050 101 149 238
-0.111261 -0.194056 0.054468 102 151 239
0.035393 0.146374 0.059304 254 255 254
-0.081146 0.249818 0.047489 255 255 254
-0.114142 -0.268147 -0.015908 103 151 239
-0.051801 -0.115874 0.040015 255 255 255
-0.111168 -0.167441 -0.023230 103 150 237
-0.068843 -0.230111 -0.022495 255 255 255
-0.047036 0.183762 -0.028129 255 255 255
-0.013870 0.095557 0.015753 255 255 255
-0.105476 0.160912 0.027042 101 151 239
-0.048746 0.208496 -0.003184 255 255 255
0.004340 0.052604 0.010488 255 255 255
-0.090805 -0.259170 -0.001651 255 255 254
-0.103694 0.202914 0.030722 103 151 239
0.041330 0.003083 0.066918 255 255 255
-0.116485 -0.165318 -0.035362 103 151 237
0.015842 0.067928 -0.006767 255 255 255
0.121936 -0.149143 0.050319 255 255 254
-0.108394 0.263792 -0.042183 101 151 238
-0.035582 0.168103 -0.030677 255 255 255
-0.052926 -0.117112 0.055951 255 255 254
-0.091402 -0.268872 0.046206 102 149 238
-0.046433 0.180198 -0.014318 255 255 255
-0.096291 -0.205949 -0.058460 101 150 237
-0.022080 -0.023228 -0.005569 254 254 255
-0.090418 0.272078 0.040149 102 149 239
0.125428 -0.163164 -0.005765 255 254 254
0.029435 0.006830 0.036306 255 255 255
-0.115742 -0.199714 0.027044 101 151 237
-0.030894 0.166383 -0.007934 255 255 255
-0.089760 -0.284980 0.037750 254 255 255
-0.107943 -0.086447 -0.038452 101 149 238
-0.116118 -0.266358 -0.013913 101 150 239
-0.088726 -0.161307 -0.049896 101 151 238
0.008254 0.064907 0.021071 255 255 255
0.108796 -0.145933 0.043101 255 255 255
0.084245 -0.076289 0.045410 255 255 255
-0.011188 0.086042 0.030242 255 255 255
-0.113083 0.069226 -0.095404 101 150 238
0.000168 0.011984 0.017470 254 255 254
-0.095074 -0.065731 -0.008252 103 151 239
-0.067351 -0.165234 -0.009483 255 255 255
-0.095539 -0.159822 0.018214 103 150 239
-0.017145 -0.011643 0.055502 255 255 255
0.104871 -0.111125 0.065791 255 255 254
0.062338 -0.054124 0.043629 255 254 255
-0.071966 -0.178080 0.001671 255 255 255
-0.096973 0.032009 -0.074292 102 150 238
0.044771 -0.003573 0.036199 255 254 255
-0.042930 -0.120253 -0.007052 255 255 254
-0.115497 -0.152732 0.036696 100 149 238
-0.090590 -0.137452 0.006640 103 151 239
-0.067187 0.249814 -0.027628 255 255 254
-0.110746 -0.143184 -0.029242 100 149 237
0.051165 0.175988 0.035501 255 255 255
-0.049589 0.208827 -0.029223 254 255 255
-0.089845 -0.209745 0.003028 100 149 236
-0.092605 0.219553 0.039950 100 148 239
-0.094207 -0.130060 0.021370 100 149 235
0.129747 -0.183787 0.033949 255 255 254
0.076039 0.207693 0.036259 255 255 254
-0.113807 0.250665 0.004048 103 152 239
-0.070060 -0.217531 0.002919 255 254 254
-0.093248 0.221649 0.014990 102 151 238
-0.092701 0.043585 0.034030 103 151 240
-0.099265 -0.288179 -0.018860 100 148 235
-0.092085 -0.266840 -0.074316 101 149 235
0.033750 0.133737 0.016238 254 254 254
-0.116199 0.187395 0.020419 102 150 237
0.011056 0.041972 -0.011422 255 255 255
-0.095726 -0.177750 0.029919 103 150 239
-0.090139 0.143255 0.009483 100 149 237
-0.043196 0.156815 0.061147 255 255 254
0.038174 0.123150 0.062269 254 254 255
-0.089486 -0.279146 -0.055220 100 149 236
-0.081773 0.255568 0.004116 254 254 255
-0.112635 -0.043956 -0.035751 103 151 239
0.021471 0.032580 0.060630 255 255 255
0.025028 0.097958 0.040318 255 254 255
0.100824 -0.132655 0.001161 254 254 255
-0.003821 0.095811 0.036579 255 254 255
0.016139 0.058574 0.054150 255 255 255
-0.030637 -0.078412 0.058672 254 254 255
0.066616 0.194992 0.020875 254 255 254
-0.090738 -0.201883 -0.047670 101 150 236
-0.090864 0.181317 0.037122 102 150 238
-0.093303 -0.244261 0.056611 103 151 236
-0.043468 0.194136 0.010248 255 255 255
0.009926 0.045918 0.041180 255 255 255
-0.095187 -0.182570 0.038054 102 150 236
-0.112446 0.080116 0.033099 102 148 234
0.035721 0.140653 0.000345 255 255 255
-0.091003 -0.209775 -0.063034 103 152 237
-0.072641 -0.242689 -0.021982 255 254 255
-0.090073 0.109925 -0.024916 100 149 237
0.032352 0.020409 0.067272 255 255 255
-0.088519 0.115497 0.037887 103 150 237
0.077447 0.220653 0.035298 255 255 254
-0.008457 -0.012525 -0.003063 254 255 255
0.070933 -0.052004 0.041321 255 255 255
-0.089173 0.080079 -0.010196 100 149 238
-0.090093 -0.147524 -0.093696 101 150 239
-0.072572 0.235231 0.026615 255 255 254
-0.063677 -0.182371 0.047796 255 254 255
-0.118157 -0.251786 0.033774 101 150 238
-0.070189 -0.211871 0.059647 255 255 255
-0.114775 -0.163027 -0.008632 102 151 240
0.031806 0.139601 -0.005088 255 255 255
-0.038422 0.184928 -0.006320 255 255 255
-0.115802 0.165947 -0.030463 100 150 239
0.060119 -0.050884 0.065931 255 255 255
-0.055209 -0.126323 0.036320 254 255 255
0.003811 0.077883 -0.009929 254 255 255
-0.117907 -0.183333 -0.019579 102 149 238
-0.086273 0.145025 -0.074280 101 150 239
-0.094876 0.137598 -0.069797 100 150 236
-0.092753 0.233421 0.044538 124 140 162
0.038947 0.139066 0.060667 255 255 255
-0.089599 0.101413 0.041976 103 149 238
-0.037294 -0.103581 0.054518 255 255 255
-0.108749 0.043256 0.001992 101 149 238
-0.089917 -0.179493 -0.009623 100 148 237
-0.090985 -0.175780 -0.001652 102 151 239
-0.090971 -0.271242 -0.016717 101 150 239
-0.110445 -0.145049 -0.008398 101 151 236
-0.083438 -0.228553 0.002156 255 255 255
-0.095351 0.094624 -0.080636 101 150 239
-0.109075 -0.135094 -0.055805 100 150 236
-0.116742 0.202469 -0.036072 102 149 237
-0.087973 0.100447 -0.075042 101 151 239
-0.088708 -0.269820 0.008933 100 149 238
0.052198 0.141245 0.043363 254 255 254
-0.052875 0.231299 -0.033357 254 255 254
0.097412 -0.122067 0.060259 255 254 255
0.101012 -0.112969 0.032469 255 255 255
0.012715 0.037738 0.035152 255 255 255
-0.110254 -0.235176 -0.007032 101 150 239
-0.109166 0.243091 -0.013227 102 150 236
0.037826 0.005789 0.049395 255 254 255
0.084693 0.223760 0.053224 255 255 255
-0.089285 0.267729 0.031480 114 137 170
-0.091894 0.067893 -0.034960 101 151 239
-0.014112 0.093474 0.010660 255 255 255
-0.062834 0.237470 -0.001463 255 255 255
0.033959 0.093916 0.056987 254 254 255
-0.061718 -0.182364 -0.013532 255 255 255
-0.109456 -0.064054 0.035491 102 150 237
-0.109658 -0.062892 -0.042626 101 150 238
-0.110114 0.051623 -0.052453 101 150 238
-0.110462 -0.163576 0.020831 104 150 236
-0.111367 -0.085972 0.032720 100 149 239
-0.003118 0.007625 0.059004 255 255 255
-0.073472 -0.230022 0.016025 255 255 255
-0.024846 0.119924 0.012700 255 255 255
-0.096755 0.071106 0.042605 103 150 239
-0.087163 0.194627 -0.011908 103 151 239
-0.090116 -0.106007 -0.019618 102 150 238
-0.114630 0.159389 -0.067872 102 150 238
-0.053201 -0.118835 0.053569 254 255 255
-0.095695 -0.035823 -0.017136 102 150 238
0.074663 -0.066683 0.003229 255 255 255
-0.107787 0.180151 -0.030288 101 150 238
-0.050848 -0.141400 0.006517 255 255 255
-0.089105 -0.118581 -0.034759 101 150 240
-0.119125 -0.107375 -0.052791 101 150 239
-0.061712 -0.167953 0.060837 255 254 254
-0.098089 -0.187683 0.055768 102 151 239
-0.107674 0.282443 0.008788 102 150 238
-0.090140 0.275447 -0.030893 100 149 237
-0.112973 -0.156738 0.020872 102 150 237
-0.035618 0.149419 0.007835 255 254 255
-0.088626 -0.070201 -0.076349 101 149 240
-0.012635 0.117870 0.032678 255 255 254
-0.059118 -0.168965 0.029775 255 255 255
-0.090333 0.148191 -0.086613 102 151 239
-0.078165 -0.262717 -0.024685 255 254 254
0.089577 -0.092036 0.065184 255 254 255
0.003644 0.058699 0.052532 255 255 255
-0.109654 0.171400 0.011929 103 151 239
0.004527 0.051418 -0.011203 255 255 255
-0.107357 -0.122830 0.016678 100 151 239
0.059135 0.207950 0.012004 254 255 255
-0.092890 0.023928 -0.023205 101 150 238
-0.108879 0.245266 -0.068491 102 149 235
-0.017185 0.001178 0.017709 254 255 254
-0.092156 0.056299 0.014209 99 148 235
-0.110564 0.262297 -0.067908 101 148 236
0.088948 -0.102772 0.054327 255 254 255
-0.111838 0.259651 -0.041165 102 150 238
-0.051151 0.200279 0.008988 255 255 255
-0.095480 -0.253845 0.002622 100 149 237
-0.099959 0.278195 -0.053013 100 148 238
-0.095088 0.115767 -0.027511 102 150 237
-0.107925 0.151475 -0.058876 101 150 236
-0.095486 0.050042 -0.027682 102 149 237
-0.108607 -0.072252 -0.027939 102 151 239
-0.090917 0.150857 -0.074837 101 149 238
-0.114852 0.174857 -0.016439 103 151 238
-0.043655 0.196000 -0.032182 255 255 255
-0.096082 0.147883 0.045345 102 150 238
-0.088779 -0.093554 -0.007389 101 149 238
-0.027769 -0.072081 -0.010610 255 255 255
-0.113187 0.165914 -0.082281 101 151 238
-0.114004 0.175781 -0.050669 100 150 238
-0.115536 0.159224 -0.041612 101 150 239
0.053523 0.151164 0.022900 255 255 255
-0.075468 -0.198961 0.052351 255 255 255
-0.109811 0.073499 -0.097854 101 150 239
-0.111809 -0.092055 0.039226 103 152 239
0.123734 -0.152968 0.048523 253 254 255
-0.057362 0.232056 0.007056 255 255 255
-0.089664 0.139312 -0.027856 102 150 236
-0.036295 -0.065620 -0.003638 255 255 255
-0.014045 -0.000683 0.055252 255 255 254
0.028325 0.115878 0.058137 255 254 255
-0.112587 0.169900 -0.031268 102 149 235
-0.108469 -0.102461 0.032173 101 151 237
-0.029095 -0.062038 0.006803 255 255 255
0.042730 0.148854 0.058259 255 255 255
-0.112997 -0.116609 -0.093034 100 150 238
-0.024165 -0.027887 -0.003345 255 255 254
-0.112051 -0.055775 -0.014583 101 149 238
-0.107137 -0.240229 0.056340 103 149 239
-0.112728 0.089853 0.003271 100 149 238
-0.089687 -0.264483 -0.026757 101 150 238
-0.109523 -0.223956 -0.054853 102 149 236
-0.080083 -0.271067 0.010934 255 255 254
-0.011958 0.117239 -0.017723 255 255 254
0.050786 0.143323 0.039121 255 255 255
-0.090865 -0.030466 0.005853 101 151 239
0.090639 -0.109419 0.030370 255 255 255
-0.105473 0.268818 -0.017509 102 150 237
-0.098489 -0.116513 -0.092103 101 149 237
0.104699 -0.137192 0.032932 255 255 255
-0.089806 0.111759 -0.092123 100 149 238
-0.114685 -0.124198 -0.025942 101 149 239
-0.029269 -0.047562 0.026646 255 255 255
-0.113438 0.148728 -0.023330 101 151 237
-0.024166 -0.028352 0.018702 255 255 255
-0.022669 -0.054722 0.059301 255 255 255
-0.061584 -0.189815 -0.019023 254 255 255
-0.004418 -0.004535 -0.009073 255 255 255
-0.066132 -0.192113 0.022689 255 255 254
-0.069109 -0.173744 0.006368 255 255 255
-0.020469 -0.043127 0.030961 254 254 255
-0.088540 -0.234973 -0.014524 103 150 238
-0.085148 -0.240837 0.022899 255 255 255
-0.031090 -0.078291 0.047659 255 255 255
0.098157 -0.101515 0.046866 255 255 254
-0.110127 -0.127232 -0.081829 102 149 236
-0.026918 -0.065993 0.056859 255 255 255
-0.035223 -0.061682 0.015687 255 255 255
0.114795 -0.137341 0.025016 254 255 254
-0.107374 -0.139582 0.015665 103 150 238
-0.085351 0.278065 -0.017951 255 255 255
0.066331 -0.062200 0.034188 255 254 254
-0.049900 -0.137642 0.027722 255 255 255
-0.090860 0.025170 -0.021659 103 152 240
-0.095147 0.237315 0.039301 102 149 236
-0.111706 -0.141131 0.010050 103 151 239
0.005101 0.014018 0.054379 255 255 255
-0.090169 -0.282096 -0.019630 255 255 255
-0.043370 -0.124589 0.026674 255 255 255
-0.093682 0.240205 0.010514 101 149 237
-0.093053 0.158030 -0.002362 104 150 236
-0.093521 0.080948 -0.076209 101 149 237
-0.109201 0.282337 -0.028657 101 149 238
-0.067159 0.244272 0.009867 254 254 255
-0.109561 -0.227498 -0.005307 101 149 238
-0.110751 0.210739 -0.023572 101 149 236
-0.107740 -0.247509 -0.049517 103 150 239
-0.045943 -0.131905 -0.014686 255 255 255
-0.112013 0.115185 0.034258 102 150 237
-0.040375 -0.079355 0.049573 255 254 255
-0.115218 -0.155719 -0.020905 101 150 239
-0.065152 -0.188252 0.037675 255 255 255
-0.049558 0.217780 -0.030131 255 255 255
0.117266 -0.159416 0.058127 255 255 254
-0.106409 0.070641 -0.021577 102 150 237
-0.110222 0.127611 -0.042861 100 150 237
-0.058508 -0.139518 0.016953 254 255 255
-0.087239 -0.247842 0.017777 255 255 255
-0.115152 -0.238700 -0.080686 101 149 239
-0.095663 -0.264947 0.025833 100 149 236
-0.053610 -0.154781 -0.024133 255 255 255
-0.072415 -0.178120 0.017005 255 255 254
-0.087924 0.175049 -0.014338 102 151 237
-0.062556 -0.175697 0.035343 255 254 254
-0.045306 0.170924 -0.016534 255 255 255
-0.023900 0.117472 -0.004537 255 255 255
-0.031864 0.131990 0.059351 255 254 255
-0.108114 -0.207754 -0.038494 100 151 237
-0.108728 -0.070694 -0.063942 102 150 238
-0.111602 -0.153277 -0.044694 102 150 236
0.032888 -0.011939 0.023517 255 255 255
-0.093475 0.067388 -0.012671 103 151 239
-0.108243 0.172712 0.018421 100 149 237
-0.020131 -0.026397 0.062665 255 255 255
0.021571 0.052610 0.008908 255 255 255
0.100186 -0.128716 0.065383 255 255 255
0.054561 0.163045 0.026610 255 255 255
-0.090870 -0.141575 0.035604 102 150 238
-0.090120 -0.220089 -0.011426 102 150 240
-0.091264 0.104064 0.036965 103 151 237
0.014849 0.068010 0.029123 255 255 255
-0.100543 -0.100250 0.038316 100 149 239
-0.079310 -0.213084 0.038138 255 255 255
-0.046282 -0.128975 0.004793 254 255 255
-0.078108 0.270461 -0.003648 255 254 255
-0.088300 -0.248572 0.012209 102 149 238
-0.089732 -0.281866 -0.019370 103 151 236
-0.005992 -0.007161 0.042833 255 255 254
-0.112544 -0.129149 -0.094444 101 149 238
0.020686 0.051034 0.007446 255 255 254
-0.084050 -0.230087 0.016231 255 255 255
-0.094003 -0.224644 -0.064451 103 152 239
0.024124 0.018097 0.045794 255 255 255
-0.090305 -0.242911 0.055048 101 149 237
0.127479 -0.182713 0.001403 254 254 255
-0.089815 -0.127299 -0.041137 101 150 239
-0.095205 0.075708 0.041368 102 150 237
0.010057 0.066255 0.040035 210 208 204
0.010067 0.033199 -0.011155 255 255 255
-0.053326 0.204759 0.058044 255 255 255
0.031121 0.003296 0.009957 255 255 255
-0.061477 -0.183888 0.036171 255 255 255
-0.108459 -0.188965 -0.024112 100 150 237
0.128177 -0.180040 0.057329 255 254 254
-0.108323 -0.278619 0.033381 103 150 239
-0.116096 0.224585 -0.049554 101 150 236
-0.027539 0.154458 0.027681 255 255 255
-0.109689 -0.101127 -0.081769 101 150 237
0.021548 0.090556 0.046484 255 255 255
-0.062600 0.233931 0.036256 254 255 255
-0.088744 0.275045 0.024376 101 151 239
-0.052065 -0.143548 0.043493 255 255 255
-0.093774 0.206158 0.054802 102 149 238
-0.086663 -0.271248 -0.030297 255 255 255
-0.088180 -0.090055 -0.021395 100 149 237
-0.105292 0.073378 -0.000455 101 150 237
-0.017920 0.126750 0.055951 255 254 255
-0.060940 -0.179407 0.032152 255 255 255
0.060638 -0.047749 0.063240 255 255 255
-0.010482 0.108811 0.049465 255 255 255
-0.000946 0.086153 -0.013570 254 255 255
0.082531 0.237552 0.053815 255 255 255
0.028179 0.004815 0.025319 255 255 254
0.030837 0.034076 0.025921 255 254 255
-0.113936 -0.160856 -0.032852 102 151 236
0.122655 -0.174977 0.053814 254 255 255
-0.054314 0.194469 0.042888 255 255 255
0.041507 0.105865 0.018997 255 255 254
0.072611 0.232920 0.017269 255 255 255
-0.033969 -0.090364 0.052615 255 254 255
-0.075016 -0.231930 0.051186 255 255 255
-0.071613 0.255146 0.017105 254 255 255
-0.089558 -0.273176 -0.062421 101 150 239
-0.090648 0.156881 0.020137 100 149 237
-0.058475 -0.164733 0.052505 255 254 254
-0.110276 0.255494 -0.069748 100 149 236
0.053472 0.187153 0.014829 255 255 254
-0.090809 0.180407 -0.014898 101 149 236
0.013620 0.055791 0.061484 255 255 255
0.142002 -0.176935 0.046545 253 253 253
-0.110110 -0.151262 0.032531 101 149 236
-0.068976 -0.171563 0.040228 255 255 255
-0.107998 0.173405 -0.045574 100 150 236
-0.073868 -0.186317 0.023276 255 255 255
-0.090824 -0.200819 -0.048545 101 151 239
-0.092018 -0.271261 -0.012970 255 254 255
-0.088368 0.143733 -0.068096 100 150 237
-0.071355 0.233566 0.014988 255 254 255
0.051191 -0.017019 0.021198 254 253 255
0.026887 0.100772 0.063057 255 254 255
-0.096352 0.039529 -0.045092 102 150 239
-0.016937 0.126705 0.054803 255 255 255
-0.047600 0.177838 -0.019884 255 255 255
-0.104718 0.256550 -0.031050 103 150 236
-0.092157 -0.274959 0.016076 255 254 255
-0.109838 0.093409 -0.071273 101 150 239
-0.111007 0.167765 -0.006769 103 150 239
-0.088588 0.147158 -0.004021 102 151 239
-0.119180 -0.048633 -0.015863 102 150 236
-0.115706 -0.109935 -0.060584 102 151 238
0.001965 0.008314 -0.008992 255 254 254
-0.091725 -0.087103 -0.003422 101 150 237
-0.043744 -0.127275 -0.014071 255 255 255
-0.031689 -0.083748 -0.002072 254 255 254
-0.046789 -0.128001 0.050685 255 255 254
-0.076499 -0.260764 -0.001722 255 255 254
-0.110919 0.260953 -0.022376 101 150 238
0.064451 0.216607 0.016319 255 255 255
0.017072 0.078330 0.013183 255 255 255
-0.103012 0.285171 -0.022633 101 149 237
-0.112734 0.085320 -0.025810 101 151 238
0.046423 -0.016564 -0.005765 255 254 255
0.010710 0.051469 0.053851 255 255 255
-0.092378 -0.231472 0.055225 102 149 237
-0.109701 -0.102008 -0.055864 100 150 237
-0.109130 -0.287414 -0.047663 100 148 235
-0.089933 0.236980 -0.010796 100 150 238
-0.091652 0.171239 0.016562 103 150 237
0.079710 -0.073509 0.010545 255 254 254
-0.057977 -0.166820 0.026148 255 255 255
-0.004132 0.023326 0.043256 255 255 255
-0.090872 0.203773 0.045636 103 151 239
0.006913 0.063056 -0.010938 254 255 255
-0.088978 -0.283332 0.022978 255 255 255
-0.024915 -0.055160 0.035144 255 255 255
-0.113586 0.134790 0.017166 101 149 236
-0.000034 0.024034 0.010754 255 255 255
-0.106822 -0.221691 -0.044083 101 151 238
0.031840 -0.000274 -0.003514 255 255 255
0.048625 -0.034798 0.006871 255 255 255
-0.092781 0.234961 0.030023 102 149 239
-0.091733 -0.207674 -0.074543 101 151 239
-0.037793 -0.090689 -0.015031 254 255 255
-0.090639 -0.244376 -0.050495 102 150 239
-0.067202 -0.166130 0.039861 255 255 255
-0.110222 0.179764 -0.077057 103 151 237
-0.026673 0.152480 0.024301 255 255 255
-0.108182 -0.097630 -0.006417 103 151 238
-0.114365 -0.280240 -0.012507 103 151 237
0.000317 0.049870 0.056609 255 255 255
-0.089805 -0.239191 0.044610 103 151 239
-0.107777 0.188453 0.002424 101 151 237
-0.111142 -0.201563 -0.069530 102 150 238
-0.090566 -0.060457 0.019541 104 151 236
-0.065732 -0.184558 -0.026040 255 255 255
0.005812 0.071787 0.035109 255 255 255
-0.096104 -0.272083 -0.068718 101 148 239
-0.110233 -0.068824 -0.003680 102 150 238
-0.099575 0.210647 0.055360 101 151 238
-0.059052 0.208858 0.009912 255 255 255
-0.039329 -0.074353 0.043120 255 255 255
-0.097213 0.254845 0.053667 103 150 239
-0.036833 0.173913 0.031606 255 254 255
-0.117112 -0.198902 0.035326 103 149 239
-0.078586 -0.207662 0.051986 254 255 255
-0.080185 -0.278843 -0.018628 254 255 255
-0.111907 -0.070386 -0.022863 102 151 239
0.084074 0.242457 0.042698 255 255 255
-0.110963 -0.286996 -0.024097 100 149 238
-0.093863 0.249962 -0.005459 101 149 237
0.011219 0.081684 0.003623 255 254 255
-0.063288 -0.154243 0.033979 255 255 255
-0.109298 0.215997 -0.065353 102 150 237
0.002675 0.076079 0.037955 255 254 255
-0.113388 0.116741 0.019089 101 150 237
-0.093681 -0.030517 -0.007136 101 148 236
-0.087060 -0.191283 -0.041189 103 152 237
0.125593 -0.182703 0.032100 255 255 255
-0.112513 0.079292 0.019150 103 151 237
-0.065484 -0.196467 -0.026613 255 255 255
-0.069584 -0.225557 0.002243 255 255 254
-0.105678 0.238325 0.020552 103 149 235
-0.037566 -0.099674 0.042326 255 255 255
0.092389 -0.122977 0.002045 255 255 255
-0.113006 0.234610 -0.064840 103 149 236
-0.078298 0.271254 -0.020116 255 254 255
-0.074953 -0.240723 0.055749 255 254 254
-0.109347 0.094433 0.026632 101 151 237
-0.091006 0.279596 -0.024803 100 149 239
-0.088718 -0.210763 -0.069898 102 149 237
0.001273 0.040648 0.023257 255 255 255
-0.091879 -0.267344 0.061868 254 255 255
-0.104561 0.204115 -0.033231 100 148 234
-0.102930 0.198076 0.051723 101 151 238
-0.043853 -0.095532 0.016264 254 255 255
-0.090151 -0.280260 0.007251 102 150 237
-0.096967 0.210553 -0.084667 101 150 236
-0.088800 -0.133423 -0.087904 101 150 238
0.018607 0.059031 0.010489 255 255 255
0.048786 0.141437 0.032728 255 254 255
-0.057725 0.236931 -0.032372 255 254 255
-0.092105 0.186115 -0.012547 102 151 237
-0.002195 0.092087 -0.001997 255 255 255
-0.113100 -0.226570 -0.074559 100 149 237
-0.012219 0.092314 0.018365 255 255 254
-0.087359 -0.179002 -0.016318 101 149 236
-0.112556 0.136421 0.012133 103 151 237
-0.086546 0.164873 0.046514 139 139 151
-0.031554 -0.077992 0.021183 255 255 255
-0.091372 -0.263631 0.042988 255 255 253
-0.091416 0.036906 -0.030301 100 151 238
-0.112569 0.075645 -0.015857 103 151 237
-0.094774 0.141611 -0.067983 102 149 237
-0.089323 0.054041 -0.064409 100 150 238
-0.093350 0.174552 0.010774 101 149 237
-0.033713 0.140058 0.009605 255 255 255
0.078109 0.210106 0.052847 255 255 255
-0.115876 -0.121832 -0.022119 103 150 238
-0.031743 0.134224 0.049368 255 255 255
-0.113798 0.055931 -0.092975 100 148 234
-0.019645 -0.047952 0.058108 255 255 255
0.032018 0.119767 0.059239 255 255 255
0.022164 0.051210 0.045755 255 255 254
-0.040401 -0.115596 -0.008974 255 255 255
-0.095275 -0.128630 0.044643 101 149 239
0.009209 0.042251 -0.003625 255 255 255
0.040274 0.128494 -0.003002 255 255 255
0.004622 0.048713 0.040291 255 255 255
0.139617 -0.177531 0.001401 253 255 255
-0.116586 0.027925 -0.042810 100 148 236
-0.048234 0.202732 0.046503 255 255 255
-0.094420 -0.200137 -0.049955 102 151 237
-0.110964 -0.129600 0.014037 102 150 236
-0.088732 0.268672 -0.000368 101 151 238
-0.113429 -0.222020 -0.010208 103 151 238
-0.089805 -0.236548 -0.059817 101 150 236
-0.085941 -0.251753 -0.023991 255 254 255
-0.086254 -0.225740 0.053532 254 254 255
-0.109846 -0.243904 0.045681 101 149 238
0.115626 -0.156570 0.042583 255 255 254
-0.108295 -0.236088 0.035385 103 151 239
0.048116 -0.032897 0.010492 255 255 255
-0.087645 -0.291776 -0.017328 255 255 254
-0.090224 -0.212884 0.030568 101 150 239
-0.047418 -0.132490 -0.004061 255 255 255
0.045419 0.135868 0.019402 255 255 255
-0.088563 0.083946 -0.005442 102 150 236
-0.087489 0.133777 -0.052817 102 151 239
-0.111242 -0.182800 -0.088941 103 151 237
-0.118918 -0.100955 0.006985 100 150 238
-0.086861 0.268298 -0.031066 254 255 255
-0.090442 -0.172467 -0.003440 102 150 236
-0.095328 -0.135584 0.000170 100 149 238
-0.089382 0.132574 0.029998 103 152 238
-0.032897 -0.073887 0.061465 255 255 255
-0.108862 0.166556 0.031224 101 150 237
-0.028821 -0.057154 0.060266 254 255 255
-0.087974 -0.201458 0.011095 102 150 238
-0.088072 0.121359 0.017629 101 150 236
-0.086021 0.269485 0.029842 255 255 254
-0.094911 0.033271 -0.050784 100 150 239
-0.025764 -0.055882 -0.014247 254 255 254
-0.007809 0.074535 -0.012649 255 255 255
0.078950 -0.067166 0.048922 255 255 254
-0.111517 0.121473 0.032002 101 150 239
-0.107058 -0.123643 -0.095859 102 151 239
-0.047225 -0.133285 0.032530 255 255 254
0.078411 0.238115 0.057311 255 255 255
-0.116006 -0.089968 -0.079879 101 151 237
0.118839 -0.158739 0.064228 254 255 255
0.028947 0.026142 0.029593 255 254 254
-0.114785 0.052224 -0.045761 100 149 237
-0.009813 -0.016344 0.033000 255 255 254
-0.018970 -0.013112 0.007838 254 255 254
0.019119 0.054173 0.061385 255 255 255
-0.068123 -0.199839 0.004897 255 254 255
-0.112491 0.082596 -0.089241 102 151 237
0.029141 0.107710 0.044692 255 255 255
-0.064121 -0.204418 0.025458 255 255 255
-0.087880 0.188139 -0.078914 99 150 236
-0.092629 -0.069114 -0.092923 103 151 238
0.025338 0.073411 0.037608 254 255 254
-0.113324 0.161948 0.004629 100 150 237
0.113241 -0.153572 0.016639 255 255 254
-0.111488 0.222611 0.011188 101 149 237
0.021574 0.054797 -0.003230 254 255 254
0.103578 -0.143907 0.008754 254 255 255
-0.059367 -0.128682 0.060331 255 255 255
-0.115337 0.070276 -0.086974 101 150 237
-0.109540 0.033569 -0.045812 101 149 237
0.057016 -0.029927 0.016081 254 255 254
-0.116044 0.159526 -0.057792 100 150 239
-0.090443 0.077839 -0.022367 103 150 237
-0.093921 0.179827 -0.085838 102 149 236
-0.077128 -0.199522 0.038615 255 255 255
-0.081160 -0.210504 0.055320 255 255 255
-0.111267 0.129832 -0.076382 101 149 239
-0.074459 -0.224757 0.049238 255 255 254
0.021666 0.060171 0.040483 255 255 255
0.073287 -0.080839 0.010703 255 254 255
-0.097653 0.165939 0.051023 102 149 236
-0.068475 -0.168045 0.039619 255 255 255
0.043572 0.129091 0.021338 255 255 255
-0.066040 -0.184695 0.029914 255 255 254
-0.040519 -0.080126 0.005895 254 255 255
-0.110327 -0.058884 -0.087140 102 151 240
-0.112354 -0.034582 -0.026971 103 149 237
-0.068095 0.243825 0.010175 254 254 255
-0.116660 -0.182698 0.049947 102 151 239
-0.016482 0.125198 0.000397 255 255 255
-0.092101 0.024754 -0.053884 103 150 237
-0.041499 -0.114858 0.022202 255 255 254
-0.060577 0.236150 -0.028182 255 255 255
-0.087137 -0.269699 0.031596 101 149 239
-0.105976 0.266147 0.015480 102 150 237
0.039746 0.144842 0.026326 255 255 255
-0.090746 0.187826 0.035739 103 150 237
-0.095905 -0.197219 0.034445 103 151 239
0.061384 0.174007 0.021085 255 255 255
-0.108712 0.192820 0.046789 101 149 238
0.008968 0.098903 -0.018379 255 255 255
0.092021 -0.113995 0.044596 254 254 255
-0.091340 0.126874 0.028116 101 149 238
-0.064944 -0.160808 -0.006224 255 255 255
-0.089354 0.277271 0.030638 101 149 237
-0.091748 -0.070709 0.034491 103 150 238
-0.088996 -0.284555 -0.002674 255 254 255
-0.095103 0.131283 -0.070179 103 150 236
0.027270 0.124307 0.000861 254 255 254
-0.097180 -0.289765 -0.025381 100 149 237
-0.094720 0.276623 0.033851 135 143 156
-0.003186 0.019724 0.061227 255 255 255
-0.090071 0.217251 0.016176 100 151 239
-0.088412 0.122022 0.032970 102 151 237
-0.090066 -0.073677 -0.018943 100 150 240
-0.023376 -0.024682 0.010983 254 255 255
-0.108297 -0.071575 -0.065088 100 150 237
0.062701 -0.034514 0.061850 254 255 255
-0.005929 0.078873 0.021686 255 255 255
-0.093630 0.226281 0.005244 100 149 237
-0.093299 -0.052703 -0.001470 102 150 236
-0.089682 0.108406 0.037418 100 149 238
0.051741 -0.019563 0.059822 254 255 255
-0.092840 -0.288424 -0.031924 102 150 239
-0.116467 -0.089770 0.004277 101 149 237
-0.095367 0.072306 -0.072953 101 151 238
0.021569 0.069655 0.000151 255 255 255
-0.109924 0.124782 0.001061 103 150 236
-0.108722 -0.257034 0.046023 100 148 236
0.000017 0.026465 0.035335 255 255 255
0.101695 -0.129575 0.042891 255 255 254
-0.004681 0.095189 0.027111 255 255 255
-0.064562 -0.195618 -0.016437 255 255 255
0.052880 0.193219 0.046855 255 255 254
-0.091368 -0.042556 -0.002886 102 149 238
0.071264 0.198963 0.055782 255 254 255
-0.046663 -0.130417 0.022759 255 255 254
-0.045550 -0.098698 0.010903 254 255 254
-0.092675 -0.124873 0.027730 103 150 238
-0.088779 0.171100 -0.028038 100 149 235
-0.058162 -0.138098 -0.009804 255 254 254
-0.051508 -0.144351 0.062313 255 255 255
-0.093837 0.028537 -0.015165 101 151 239
-0.086973 -0.241056 0.030322 255 255 255
0.087632 -0.081707 0.059224 255 255 254
-0.035543 -0.065213 0.061012 255 255 255
-0.018995 -0.043236 0.042768 254 255 255
-0.048088 -0.132972 0.058746 255 255 255
-0.090038 0.128599 -0.047557 102 151 237
-0.089991 -0.031446 -0.009582 103 151 239
-0.050538 0.200148 -0.030254 255 255 255
-0.107652 0.174924 0.023595 102 149 238
0.028712 0.111348 0.057655 254 255 255
0.026061 0.045993 0.060564 255 254 254
-0.114326 0.071371 -0.083109 102 150 236
0.045067 0.168180 0.004333 255 255 255
0.051468 0.175128 0.043346 254 255 255
0.060757 0.200544 0.053501 254 254 254
0.047507 0.152641 0.064635 255 255 255
-0.109002 0.276751 -0.046256 101 148 238
-0.113756 -0.110437 0.040271 101 149 238
-0.072614 -0.189219 0.020876 255 255 255
-0.002058 0.035210 0.013086 255 255 255
-0.092422 0.229077 -0.007891 101 151 238
-0.100048 0.214246 0.055644 103 150 239
-0.095259 -0.123401 -0.039574 100 149 237
-0.040151 -0.072282 0.049879 255 255 255
-0.112768 0.230868 0.018975 102 151 237
0.083712 -0.072815 0.062069 253 255 254
-0.013380 0.094843 -0.010149 255 255 255
-0.108124 0.172641 -0.050140 101 149 239
-0.087813 -0.067520 -0.043952 103 151 237
0.069069 -0.066529 0.015575 255 255 254
0.059937 0.168360 0.001221 254 255 254
-0.025151 0.126518 0.004868 255 255 255
-0.091044 -0.035321 0.002816 100 150 239
-0.110128 -0.172349 -0.021739 103 152 239
0.024407 0.102254 0.005434 254 254 255
0.120641 -0.166375 0.046809 254 255 255
-0.091087 0.040082 -0.067045 102 151 237
-0.088721 0.190388 0.051461 101 149 239
-0.109978 0.047855 -0.051614 100 149 237
-0.002136 -0.001442 0.047158 255 255 255
-0.100742 -0.031852 0.019562 100 149 238
-0.062236 -0.185730 0.016043 255 255 254
-0.029708 -0.047878 0.030605 255 255 255
-0.110638 0.262831 0.008507 100 149 238
0.018336 0.090008 0.028672 254 255 255
-0.006771 0.080391 0.015713 254 255 255
-0.107805 0.219528 0.023764 101 150 238
-0.115020 0.068838 0.012610 101 150 236
-0.082345 -0.203812 0.046656 255 255 255
0.071750 0.239197 0.014019 255 255 255
-0.110930 0.086962 0.033461 102 151 237
0.043876 -0.024852 0.015856 255 255 255
-0.094253 0.120386 -0.066264 103 151 237
-0.096303 0.211149 -0.082038 100 149 239
-0.073081 -0.227227 0.049154 254 255 255
-0.036689 0.179328 -0.028074 254 254 255
-0.089044 0.271535 0.056714 255 254 255
-0.032289 -0.068972 0.061615 255 255 255
-0.111943 0.242223 -0.014516 102 150 236
-0.114742 -0.060146 -0.082392 101 150 239
0.138312 -0.179613 0.032083 255 254 255
0.024360 0.076549 0.008900 254 255 254
-0.094771 -0.126100 -0.037199 102 150 237
0.109255 -0.159194 0.048936 254 255 255
0.054803 0.152582 0.047648 255 255 255
0.057687 -0.047202 0.026014 255 255 255
-0.015373 0.129451 0.022264 255 255 255
-0.097408 -0.220060 0.057450 104 151 239
-0.102376 -0.136317 0.045627 102 151 239
-0.087272 0.227184 -0.023684 102 151 236
-0.111558 0.034856 0.020356 100 148 236
-0.014068 0.095407 -0.003243 255 254 255
-0.023811 0.126918 -0.001569 255 254 255
-0.117467 0.130168 -0.024313 103 151 239
0.013633 0.076903 0.056955 255 255 255
-0.094342 -0.093813 -0.047416 102 151 237
0.001386 0.049299 0.023494 255 254 254
-0.095292 -0.238023 -0.029705 100 149 237
-0.110096 -0.193893 0.005646 101 149 237
-0.115531 -0.083243 0.036612 104 150 238
-0.107621 -0.090022 0.024462 102 150 238
-0.093385 -0.268258 0.016149 100 149 239
0.020266 0.071980 0.038684 255 254 254
0.023420 0.077105 0.005917 255 255 255
0.013988 0.037136 0.048244 254 255 255
-0.048623 -0.135870 0.039489 255 255 254
0.129084 -0.181907 0.003417 255 255 255
-0.050609 -0.123197 0.015844 255 255 255
-0.066227 -0.163188 0.012830 255 255 254
-0.091894 0.235859 -0.006036 101 150 238
-0.092070 -0.083228 -0.074294 101 150 239
-0.118727 -0.117345 -0.032132 103 151 238
0.018471 0.031795 0.031889 255 255 255
-0.070468 -0.210367 0.030554 255 255 255
0.074567 -0.057207 0.054203 255 255 254
-0.028730 -0.076851 -0.007146 255 255 254
0.041598 -0.021271 0.016674 255 255 255
0.134615 -0.169492 0.054462 255 254 255
0.039852 0.134378 -0.002242 255 255 254
-0.107598 -0.187718 0.015531 102 151 237
-0.018629 0.109598 0.005407 255 255 255
0.084822 -0.078791 0.037313 254 255 255
0.004170 0.028215 0.042162 254 255 255
-0.115735 0.071469 -0.033699 103 150 235
-0.099088 -0.280331 -0.056879 100 150 237
-0.055077 -0.124383 0.055847 255 255 254
-0.107003 0.073854 -0.094567 102 149 237
0.007998 0.059714 0.054406 255 254 255
-0.063167 -0.150405 0.042294 255 255 255
-0.095848 -0.095480 -0.059423 103 150 236
0.110095 -0.150097 -0.003956 255 254 255
-0.070410 0.227107 0.024627 255 255 255
-0.108423 -0.161500 -0.008207 101 150 238
-0.054283 -0.121246 -0.015308 255 255 255
-0.011317 -0.008413 0.061924 255 255 255
-0.114363 -0.130117 -0.032349 103 151 237
-0.103888 -0.252123 0.053127 102 149 237
-0.036375 0.171912 0.031587 255 255 255
0.040898 0.006186 0.008776 255 255 255
-0.090338 0.145017 0.001171 103 152 238
-0.115889 0.132156 -0.064804 101 149 237
-0.089656 0.255746 0.032428 100 148 238
-0.118657 0.088712 -0.060762 102 151 238
-0.034267 -0.059912 0.062409 255 255 255
-0.043620 -0.092832 0.022460 255 255 255
0.045264 0.158812 0.040362 254 255 255
-0.090404 0.279313 -0.033494 102 149 238
-0.099406 -0.212287 -0.083149 101 149 238
-0.044269 0.206188 -0.031099 255 255 255
-0.094382 -0.218109 -0.083474 102 151 238
0.034110 0.017662 0.044373 255 255 254
-0.112649 0.150762 0.011200 102 149 237
-0.090512 0.070853 -0.082565 132 137 146
-0.005276 0.039333 0.016628 255 255 255
0.011393 0.052332 -0.010645 255 255 255
-0.047887 0.181912 0.010352 255 255 255
0.095958 -0.121891 0.007676 254 255 255
0.028526 0.094578 -0.006926 255 255 255
0.053914 0.185218 0.036768 254 254 255
0.080804 -0.086720 0.066845 255 254 255
-0.089900 -0.252025 -0.069348 141 141 149
-0.115528 -0.137241 -0.007343 103 152 238
-0.033665 -0.091482 0.057546 255 254 255
-0.101381 -0.120320 -0.092762 102 149 239
-0.096728 0.058958 0.036530 101 149 238
-0.076226 -0.197263 0.033268 255 255 255
0.032143 0.095518 0.011120 255 255 254
-0.060329 0.232683 0.012866 255 255 255
0.003897 0.068208 0.026428 254 255 255
-0.104538 0.019479 -0.023024 103 150 238
0.089128 -0.108324 0.017866 254 255 255
0.049086 0.136232 0.040469 255 255 255
-0.113496 -0.111766 -0.000412 102 150 237
-0.114932 -0.251309 -0.000696 102 150 236
-0.108008 -0.117066 -0.029565 102 151 238
-0.078046 -0.201508 -0.010672 255 255 255
0.102520 -0.137300 -0.002570 254 254 254
-0.117364 -0.217203 -0.001092 102 150 238
-0.025643 -0.060016 0.001346 254 255 254
-0.091645 0.206703 0.045672 102 152 238
-0.034748 0.139916 0.060356 255 254 255
-0.107502 0.234759 -0.053893 102 149 237
-0.009046 -0.014057 0.031384 255 254 254
-0.108945 0.274720 -0.014966 100 149 239
-0.110609 -0.106659 -0.043759 100 151 239
0.033377 0.022858 -0.001407 254 255 255
-0.017508 -0.038509 -0.007941 255 255 255
0.068576 -0.049610 0.057954 255 255 255
-0.014887 0.117711 0.060916 254 255 255
-0.095352 -0.170867 -0.047981 102 150 239
0.024011 0.018493 0.014237 255 255 255
-0.087999 -0.125079 -0.060083 100 149 236
0.025952 0.101430 0.063063 255 255 255
-0.085287 0.266937 0.037827 255 254 255
-0.112656 -0.109478 0.008763 102 150 239
-0.060391 0.230194 0.021279 255 253 255
0.068323 -0.048696 0.034259 255 255 255
0.126506 -0.157994 0.024989 255 254 255
0.005728 0.025513 -0.000459 255 255 255
-0.078425 0.246979 0.040237 255 255 255
0.054125 -0.012448 0.023009 255 255 255
-0.105695 0.263788 -0.023406 100 149 236
-0.097566 0.060966 -0.062804 100 149 237
-0.023443 0.142851 0.004776 255 255 255
-0.103789 0.121394 0.045130 103 150 237
-0.111657 -0.197274 -0.018252 100 148 238
-0.115388 0.086130 -0.028905 102 149 237
-0.068287 -0.203471 0.003014 255 255 255
0.045846 -0.005156 0.037174 254 255 255
-0.111512 0.260985 -0.062835 101 150 239
-0.091403 -0.141551 0.047673 102 150 237
-0.069856 -0.175397 -0.014316 255 255 255
-0.117575 0.051301 -0.069023 101 150 238
-0.093292 0.137588 0.013835 101 149 236
-0.094887 -0.127041 -0.066047 102 151 240
-0.013925 0.093603 0.052085 254 255 255
0.121210 -0.153795 -0.001614 255 254 255
-0.015018 0.006038 0.034754 255 255 255
-0.109744 -0.191221 -0.034088 102 152 240
-0.092568 -0.234635 -0.082911 103 150 236
-0.109069 0.190237 0.052869 101 150 237
-0.120840 0.075031 -0.045636 101 150 239
-0.049574 0.183490 0.040276 254 255 255
0.050225 0.171247 -0.000744 254 255 254
0.080827 -0.089139 0.062317 255 255 255
-0.115133 0.114336 0.014876 102 150 239
-0.037222 0.148438 0.046542 255 255 255
-0.056619 -0.126031 0.037526 255 255 255
-0.073510 0.239213 -0.035996 255 255 255
-0.005588 0.097871 0.060931 254 255 254
0.140550 -0.186412 0.047722 254 255 255
-0.096957 -0.199337 -0.023163 101 149 236
0.057832 0.170214 0.034455 255 255 255
-0.075222 -0.226546 0.045230 255 254 255
-0.051754 -0.116160 0.021753 255 255 255
-0.107693 -0.185649 -0.052488 101 151 238
-0.106532 -0.201716 -0.046240 101 150 239
0.032758 0.017901 0.014509 254 255 254
-0.114494 0.108420 0.026511 102 149 237
-0.108556 -0.233137 -0.017977 101 151 239
0.036496 -0.010108 0.024392 254 255 254
-0.109036 -0.066080 -0.090279 103 149 239
0.003102 0.017741 0.022485 255 255 255
0.020745 0.036663 0.008908 254 255 255
-0.115133 0.249230 -0.043367 102 150 238
-0.091321 -0.102420 0.008697 101 151 237
-0.086696 0.181799 -0.013059 101 151 239
-0.092690 -0.198047 0.000783 102 151 238
-0.008570 0.083340 0.041710 255 255 255
-0.089598 -0.092293 -0.070584 136 160 200
-0.086114 0.174175 -0.019420 100 150 238
-0.114983 -0.060116 0.000373 100 148 236
-0.091315 0.220260 0.027286 103 149 239
-0.109234 -0.068871 -0.074271 103 150 238
0.062713 -0.032873 0.062127 255 255 254
-0.119226 -0.131460 -0.068804 103 151 237
-0.111231 0.176880 0.025109 101 150 239
-0.043412 -0.090818 0.010104 255 255 254
-0.056374 -0.156592 0.013024 255 254 255
-0.110460 -0.060308 -0.028519 101 151 238
-0.100554 0.028967 -0.075327 102 150 238
0.013658 0.061970 -0.010710 255 255 255
-0.093082 -0.267206 -0.057288 102 151 238
-0.046192 -0.104896 -0.013636 254 255 255
-0.059944 0.209901 0.055555 254 255 255
-0.110391 -0.108837 0.032029 103 151 238
-0.091617 0.128936 0.013720 103 151 238
-0.085197 -0.249317 -0.031346 255 255 254
-0.075111 -0.196665 -0.016176 254 255 255
-0.038368 -0.103925 0.009812 255 255 255
-0.087672 0.099822 -0.055589 100 150 238
-0.112498 -0.104123 -0.010082 102 150 238
-0.054039 -0.158850 -0.017589 255 255 255
-0.105500 0.152293 -0.026508 100 150 237
-0.106108 0.261731 0.010290 102 149 236
0.014867 0.054861 0.018359 255 255 255
-0.077308 -0.204677 0.029982 255 255 255
-0.113170 -0.204210 -0.085393 103 149 236
-0.105366 0.077645 -0.029905 102 150 236
-0.052230 0.194043 -0.029953 255 255 255
-0.089927 0.069113 0.041070 103 150 237
-0.086896 0.196334 -0.025973 101 151 239
-0.101188 0.126979 0.046724 103 151 240
-0.088636 0.221571 -0.082542 100 149 238
-0.105688 0.245966 0.054309 104 150 236
-0.091414 -0.243855 0.038754 102 149 238
-0.091717 0.260801 -0.001854 101 149 239
-0.095556 -0.262705 -0.006072 255 253 254
-0.092946 0.047960 -0.089583 102 150 237
-0.112904 -0.133030 -0.049937 103 152 237
-0.103782 -0.121901 -0.095523 102 150 237
0.029418 0.076088 0.062433 255 254 255
-0.114209 0.017948 -0.025567 103 152 239
-0.092540 0.073519 -0.073113 100 150 239
0.031179 0.137783 0.010212 255 254 255
0.020889 0.072494 0.003139 255 255 255
-0.058133 -0.137117 -0.002953 255 255 255
0.046264 -0.027364 -0.006275 255 255 255
-0.078344 0.249097 -0.015982 255 255 255
-0.094185 -0.269360 0.052166 254 255 254
-0.109355 0.126913 -0.001082 101 149 238
-0.112597 0.157758 0.042992 102 150 239
-0.006840 0.096673 0.022409 254 255 255
-0.043460 -0.125258 0.023874 255 255 255
-0.040669 0.189867 -0.031697 255 254 255
0.100923 -0.129831 0.016570 255 254 255
-0.030857 0.138697 -0.023217 255 254 255
-0.110800 0.165268 0.046546 101 148 235
-0.113367 -0.120457 0.010285 101 149 237
0.039487 0.137271 0.052585 255 255 255
-0.033069 0.171258 0.001029 255 255 255
-0.096999 0.163839 -0.085500 102 150 238
0.035929 0.097559 0.050739 255 255 255
-0.021081 0.129012 -0.022717 255 255 255
-0.109157 0.242556 -0.054443 102 149 238
-0.094132 -0.158005 -0.043551 102 150 238
-0.020554 0.114060 -0.020255 255 255 255
-0.110351 0.190150 -0.061456 102 149 236
-0.062172 0.216751 -0.012791 255 255 255
-0.105568 -0.064613 -0.088500 101 149 237
-0.032899 0.140701 -0.019354 255 255 255
-0.112269 0.259210 0.047990 100 150 237
0.029261 0.001318 0.034195 255 255 255
-0.107575 0.069806 -0.048175 102 150 238
-0.091512 -0.063083 0.012881 132 139 151
-0.068681 -0.165421 0.058324 254 255 255
-0.096399 0.057964 -0.051684 101 150 238
-0.087486 -0.072472 -0.049002 103 150 238
0.002665 0.026489 0.013935 255 255 255
0.036606 0.013447 0.033762 255 253 255
-0.120451 -0.179651 -0.077136 103 149 238
0.022569 0.042136 0.057258 255 255 255
0.139498 -0.180363 0.042841 254 255 255
0.062650 -0.056611 0.037749 255 255 255
-0.004267 0.025901 -0.009121 255 255 255
0.120543 -0.148618 0.021325 255 255 255
0.022289 0.016441 0.033720 255 255 255
-0.110515 -0.210241 -0.057873 100 150 237
0.064063 -0.056901 0.041205 255 255 255
-0.052352 -0.144815 0.009411 255 255 255
-0.093841 0.223604 0.054572 100 150 238
-0.098620 0.212004 0.053722 103 151 239
-0.106123 0.180519 -0.039273 101 150 237
-0.115238 0.102962 0.027909 100 150 239
-0.029026 -0.072541 0.040434 254 255 255
0.070006 -0.052056 0.012553 255 255 255
-0.076182 -0.198531 -0.021026 254 255 255
-0.117252 -0.070256 -0.026622 103 150 238
-0.093600 0.197260 0.019365 103 151 238
-0.107746 0.118145 -0.009067 102 150 238
-0.006355 -0.009676 0.023005 255 255 255
-0.119526 0.093891 -0.025803 100 149 237
-0.033707 0.140056 0.016121 255 255 255
-0.006528 0.022295 0.055209 254 255 255
-0.111250 -0.216427 -0.084192 103 151 237
-0.024588 -0.032278 0.032984 255 255 255
-0.108683 -0.166427 -0.002209 103 149 238
-0.088388 0.227491 -0.028569 100 150 238
0.027687 0.125807 0.007026 254 255 255
-0.096020 0.074191 0.010989 101 150 236
-0.091823 -0.241419 -0.064815 100 150 239
-0.059774 -0.166337 0.053342 255 255 255
-0.090571 0.089072 -0.055702 102 150 238
-0.115552 -0.128688 -0.056566 100 150 239
0.057557 -0.028788 0.025704 255 255 255
-0.045629 0.171602 -0.019773 255 255 254
-0.089126 0.080426 -0.041514 102 151 237
-0.087765 0.225892 -0.041135 100 149 237
-0.112814 0.108534 -0.067634 101 150 237
-0.026461 0.129038 0.004504 255 255 255
-0.033461 -0.052567 0.020372 255 255 255
-0.069727 -0.177388 0.017457 255 255 255
-0.111198 -0.274175 -0.064971 103 150 236
-0.102333 -0.260276 -0.071147 101 150 237
-0.081198 -0.255065 0.016800 255 255 255
-0.080668 -0.275783 0.031596 255 254 254
-0.114187 0.179175 -0.082841 102 149 236
-0.117407 0.017256 -0.021014 101 149 239
-0.111034 0.217402 -0.031362 101 150 238
-0.088378 -0.192646 -0.003582 103 152 238
0.019377 0.099102 0.003884 254 254 255
-0.111041 0.225081 -0.069832 100 149 237
0.070026 -0.045267 0.012442 255 255 255
0.072461 0.229114 0.044921 255 254 255
0.049184 0.149887 0.063820 255 254 255
-0.090190 0.168148 -0.046291 101 149 239
-0.087621 0.049636 0.001452 101 149 237
-0.102393 -0.047808 0.033085 101 150 239
-0.098831 -0.183019 0.053200 102 150 239
-0.103791 -0.087808 -0.092960 101 149 239
-0.115219 -0.084305 -0.014658 101 149 238
-0.090284 -0.128319 -0.088206 102 149 239
-0.115397 0.125831 -0.012623 100 149 238
-0.016332 0.127535 0.013127 255 255 255
-0.043190 -0.122018 0.031294 255 255 255
-0.092397 -0.109063 0.022273 101 150 237
-0.113811 -0.171947 -0.089287 102 150 238
-0.022195 -0.043524 0.014046 255 255 254
-0.115455 -0.132783 -0.039290 101 151 238
0.056312 -0.045620 0.040838 254 255 255
-0.109947 0.018318 -0.024196 101 149 236
-0.063841 0.222024 -0.008804 255 255 255
-0.088925 -0.127533 -0.032316 101 151 237
-0.045360 -0.126350 0.033075 255 255 255
-0.115701 0.078141 -0.028570 100 149 236
-0.089162 0.214891 -0.069784 103 149 237
-0.022153 -0.047078 -0.006013 255 255 255
0.029659 0.025738 -0.006234 255 254 255
-0.026891 -0.064750 0.051809 254 255 255
0.130199 -0.165508 -0.007278 254 255 255
-0.095607 0.215040 0.054254 102 149 238
-0.051429 0.190166 0.025663 255 255 255
-0.106044 0.093767 -0.093779 102 151 237
-0.102580 0.262975 -0.074488 100 148 235
0.034036 0.130975 0.047234 255 254 255
-0.031993 0.164471 0.019954 255 255 254
-0.029826 0.144159 -0.021853 254 255 255
-0.088952 -0.187038 0.019898 101 151 240
-0.114503 -0.224461 -0.076665 101 150 239
-0.091029 0.128420 -0.043876 100 150 237
-0.089104 -0.069503 0.007956 102 151 238
-0.015943 0.124598 0.011270 255 255 255
-0.089551 0.104136 -0.022214 103 151 237
-0.113093 -0.036469 0.014416 101 150 237
0.059604 0.202485 0.026655 255 255 254
-0.008144 0.104750 0.032495 255 255 255
-0.094871 -0.064767 -0.052562 103 151 237
-0.061230 -0.148317 0.032400 255 255 255
-0.111981 0.069665 -0.017923 101 150 238
-0.072067 0.232657 0.059172 255 255 255
-0.087140 -0.106635 -0.063797 100 150 238
0.075970 -0.067929 0.006492 255 255 255
-0.113138 0.163486 0.005312 101 149 238
0.071064 -0.052697 0.053355 255 254 254
-0.117325 -0.154837 0.043615 101 151 237
-0.093213 -0.153269 0.028075 102 151 238
-0.090572 0.198438 -0.004181 102 150 236
0.044153 0.114289 0.030449 255 255 255
-0.089214 -0.086148 0.001147 100 150 238
-0.081022 -0.280770 -0.005484 255 254 255
0.025599 0.031073 0.001592 255 254 255
-0.020128 -0.008038 0.027193 255 255 255
-0.094544 0.085098 -0.010170 102 151 239
-0.110351 -0.255292 0.046892 102 149 237
-0.111498 -0.270230 -0.041209 102 150 235
0.001911 0.077914 0.037352 255 255 255
-0.087547 0.122341 -0.088251 102 151 236
0.105214 -0.119651 0.018223 254 254 255
-0.010360 0.108910 0.032074 255 255 255
-0.097049 0.093320 -0.092891 101 149 236
-0.114173 -0.165412 -0.034515 102 150 238
-0.094045 -0.227223 -0.082407 100 149 237
